# .PCD v0.7 - Point Cloud Data file format
VERSION 0.7
FIELDS x y z
SIZE 4 4 4
TYPE F F F
COUNT 1 1 1
WIDTH 1542
HEIGHT 1
VIEWPOINT 0 0 0 1 0 0 0
POINTS 1542
DATA ascii
6.2715402 -0.34828299 3.972544
6.310473 -0.343088 3.884191
6.6040812 -0.34367701 3.7958691
7.1493111 -0.36371899 3.9499409
6.909194 -0.343463 3.6551399
7.3511381 -0.356868 3.7099831
7.1412301 -0.33837 3.4242761
7.4951291 -0.34641901 3.4011281
11.528033 -0.505983 4.6236558
11.722514 -0.50088698 4.3883371
12.788454 -0.51667398 4.1047502
12.419834 -0.487342 3.6562481
12.543319 -0.477586 3.362601
7.3196731 -0.270188 1.772195
7.2103648 -0.25777301 1.561447
7.070477 0.059354998 1.013551
7.0075078 0.066960998 1.171054
6.7726011 0.072577998 1.296695
6.669126 0.079222001 1.443418
7.1005049 0.092588998 1.718107
6.707787 0.095187001 1.797096
6.8844728 0.105694 2.0253849
6.7246642 0.111066 2.156971
11.046234 0.18244199 3.543138
6.915534 0.122255 2.4025249
7.057219 0.132962 2.6399381
7.0264091 0.140559 2.816
9.8569012 0.22009499 4.469193
7.4592361 0.17524 3.5737391
7.0406542 0.173591 3.5501871
6.6953368 0.17286 3.538815
7.1419492 0.192706 3.9422121
7.881526 0.212661 4.3504429
6.6450782 0.187025 3.8157821
6.6471491 0.194823 3.9565251
8.2992887 0.25289699 5.1031718
8.7438421 0.27661201 5.532804
6.8983412 0.226263 4.4771891
8.5879002 0.301658 5.7992811
8.3535843 0.371232 5.7251892
7.1089611 0.33248499 4.7169452
8.3578272 0.410359 5.2922711
8.6474886 0.43466699 5.3215199
8.899312 0.45769101 5.301785
7.7315321 0.40663901 4.4440289
9.0289249 0.474875 5.1897621
6.7451839 0.36263099 3.727226
6.66012 0.36581901 3.524332
7.0691848 0.39653701 3.569092
6.7638812 0.38729501 3.2450049
6.9557219 0.406387 3.1583669
6.8471618 0.408039 2.9302821
6.7174578 0.408142 2.6966059
7.574513 0.460215 3.0406561
6.5046382 0.40279701 2.437459
6.8698931 0.433438 2.3910401
6.71839 0.43171701 2.1591091
6.606379 0.43222699 1.947497
6.5837631 0.43844 1.767598
6.4729609 0.43861499 1.569719
6.5387521 0.45070601 1.4184591
6.6319818 0.464885 1.272814
6.871057 0.48966599 1.1511101
6.6741161 0.48342499 0.95920497
12.092829 0.89006102 1.458992
11.963893 0.89454699 1.178164
12.07575 0.93115097 0.68584102
8.9529276 0.721766 0.021529
8.7550087 0.71604902 -0.115387
9.1122351 0.75593799 -0.25165901
9.2955589 0.782022 -0.37673101
11.110637 0.94772202 -0.57890397
11.056553 0.95606703 -0.68609202
11.036805 0.98020101 -0.85259598
9.7126369 0.90814197 -0.85042799
8.9984722 0.88358301 -0.63472903
8.4777851 0.85236299 -0.44234401
8.4464989 0.85913098 -0.342875
8.0544138 0.82870603 -0.222853
7.6679268 0.797957 -0.101267
7.9739418 0.83916801 0.019218
7.0439129 0.74957901 0.136526
7.0205441 0.75534201 0.264146
7.5225129 0.81819099 0.42848799
8.6878138 0.95516402 0.67253298
9.9276562 1.091476 0.76850998
8.3363447 0.92632598 0.82368898
7.0840559 0.795506 0.85773897
6.817122 0.77356201 0.98346901
6.7495799 0.77384198 1.135287
6.5797119 0.76211202 1.268113
6.6690588 0.780325 1.453148
6.9168959 0.81747103 1.685184
7.053473 0.841842 1.90293
6.6796069 0.805085 1.979104
6.8464608 0.83327001 2.211942
7.387208 0.90778601 2.58529
7.4825358 0.92831802 2.819998
7.3767581 0.92390198 2.9789131
7.6846371 0.971524 3.308991
7.4491062 0.95053202 3.4040179
7.465477 0.96144098 3.605274
7.0929751 0.92184001 3.6055529
7.9262452 1.030136 4.0291271
7.3437858 0.96310598 3.9134851
8.4090948 1.1127599 4.6804099
7.3500361 0.98129898 4.256351
7.2999601 0.98325002 4.3824482
7.406137 1.006305 4.5936918
7.0335612 0.96399802 4.4899578
6.59935 0.91230202 4.3215461
7.531786 1.041203 4.9321461
6.628159 0.93197101 4.5171409
6.4906311 0.94340599 4.5893049
6.5433912 0.98212802 4.5303221
6.5401921 0.99718899 4.3849139
6.6843328 1.027107 4.3868508
6.5613532 1.0160069 4.1991801
7.6179991 1.188694 4.7387338
7.406383 1.164481 4.4606781
7.2644849 1.15947 4.0591249
7.324955 1.177842 3.9200251
6.6700969 1.080497 3.4061451
7.638835 1.237424 3.9008391
7.180531 1.171737 3.4847519
6.5967131 1.084331 3.030381
6.816174 1.128543 2.9514959
6.797493 1.133558 2.7613239
6.6598501 1.118551 2.525737
6.5412512 1.106451 2.3044159
6.3954 1.089417 2.0806241
6.3691812 1.0925601 1.900933
6.4630299 1.116393 1.756988
6.229054 1.083425 1.529741
6.59272 1.154563 1.448494
6.5433869 1.153764 1.2720619
6.3308611 1.123868 1.074468
6.9467969 1.2415299 1.011564
6.1472449 1.106009 0.75153702
7.2035432 1.296057 0.88067502
6.2096171 1.124673 0.619721
6.6847229 1.218739 0.52285099
6.6501112 1.220417 0.38286299
6.5338178 1.206916 0.248557
6.3509679 1.180775 0.124502
6.174808 1.15544 0.015057
6.265316 1.1799051 -0.083746001
5.8299689 1.104937 -0.163316
6.022439 1.148658 -0.247603
6.1679611 1.183835 -0.32605499
6.572752 1.2694499 -0.41385201
6.0462718 1.182333 -0.47405699
5.7914758 1.160471 -0.51493001
5.4223819 1.112733 -0.38858199
5.8267121 1.209818 -0.30894601
5.9604392 1.244803 -0.24590801
6.072135 1.2754869 -0.170771
6.352222 1.342032 -0.085281998
7.507616 1.586132 -0.100794
5.8816729 1.249753 0.014412
5.6483951 1.207049 0.111321
6.359251 1.366677 0.243324
6.0601459 1.309757 0.35109001
6.1176672 1.329633 0.481729
6.5783248 1.437753 0.66125703
6.4649639 1.420841 0.79645503
6.526216 1.442257 0.95806998
6.1785331 1.372944 1.057657
6.2285161 1.3916399 1.221857
5.9276171 1.331645 1.314813
6.0667148 1.370293 1.504814
6.1830282 1.404043 1.698508
5.926928 1.3531311 1.7883331
6.0827279 1.396147 2.001528
6.2341909 1.438539 2.2223849
6.4333758 1.492375 2.4700379
6.5196419 1.520382 2.682472
6.1894112 1.450956 2.715785
7.0301251 1.648041 3.0846729
6.0557699 1.4270509 2.820236
6.5267038 1.5460449 3.2126069
6.7895789 1.616647 3.5182271
6.898839 1.651135 3.748107
7.7552819 1.856112 4.213408
6.4475298 1.551054 3.659107
6.4168282 1.551556 3.789397
8.4695053 2.047883 5.001586
8.4485903 2.0532329 5.172935
8.2273979 2.009603 5.205277
6.8560262 1.6830781 4.4648361
8.0445251 1.974841 5.2388191
7.7787271 1.919189 5.197175
7.404417 1.845101 5.1498199
8.1982651 2.0429189 5.7019458
7.6543322 1.945227 5.5260849
7.3429322 1.902473 5.193572
7.343935 1.920966 5.0312982
7.5727682 1.990225 5.079082
7.9001918 2.086092 5.1677279
7.4400229 1.9738441 4.7308798
7.9743629 2.125525 4.910121
6.3401871 1.697835 3.767493
6.4384308 1.732174 3.6789141
6.4689798 1.748455 3.540683
6.6622572 1.809014 3.4799659
6.4169469 1.750412 3.1858251
6.0759721 1.664988 2.855742
6.2081251 1.708969 2.7507491
6.3208952 1.747914 2.6277959
6.0907211 1.691884 2.364244
5.9296679 1.65458 2.1383851
6.8604722 1.914306 2.474056
5.9570489 1.669683 1.98412
6.0883269 1.71411 1.8605779
6.1634402 1.742998 1.715845
6.0099759 1.7071429 1.511633
6.0706139 1.7319911 1.366213
5.8887239 1.687508 1.172779
6.2415509 1.796466 1.0853471
6.1716299 1.784107 0.92089403
8.2171116 2.3754189 1.226108
6.2966738 1.828196 0.78892797
5.9455819 1.7337511 0.60818899
5.5105681 1.613848 0.441834
5.9576931 1.752323 0.35165501
5.858479 1.73054 0.22852001
5.4012952 1.602326 0.108585
5.5719652 1.660002 0.013935
5.8454599 1.748879 -0.080146998
5.455904 1.6392469 -0.156795
5.722333 1.726547 -0.24138901
6.3909898 1.928295 -0.269595
5.3598371 1.623971 -0.290748
5.3310642 1.622027 -0.34449601
6.2167749 1.907307 -0.50037199
5.6444049 1.760464 -0.51545101
5.6484022 1.790565 -0.41596299
5.3147092 1.698393 -0.28965899
5.7160988 1.833985 -0.242438
5.4633651 1.7599 -0.157978
5.1965199 1.680617 -0.071741
5.3148379 1.725706 0.013394
5.4420848 1.774024 0.110319
6.2815418 2.055748 0.24724901
5.6379838 1.852387 0.33605099
5.2305298 1.72526 0.423805
5.619453 1.860786 0.581312
6.1079369 2.030416 0.77447402
5.924943 1.9772429 0.89535302
5.8106341 1.946602 1.024033
5.7196288 1.923508 1.155292
5.9756541 2.01735 1.364944
5.8812809 1.9931051 1.502462
6.2468042 2.1249931 1.767598
6.0038319 2.0501189 1.866222
5.914525 2.027302 2.005192
6.1544371 2.117522 2.2607751
5.811254 2.0069921 2.299437
5.9858599 2.0750849 2.5385289
5.7374659 1.996438 2.5951791
5.9923501 2.0929301 2.8772111
6.2794151 2.2013841 3.1871209
6.6384511 2.3359079 3.5474861
6.6962681 2.3649909 3.752311
6.6827989 2.368974 3.9122579
7.3379269 2.639636 4.9320049
5.6633501 2.0446861 3.905772
5.5783248 2.0286391 4.0058508
5.454668 2.012413 4.068171
5.4798379 2.0506639 4.0060501
5.5519228 2.092356 3.932445
5.6263471 2.1278651 3.901963
7.3464241 2.778393 5.0948639
7.8463221 2.9778669 5.3077722
7.890008 3.0049429 5.189045
9.0238857 3.4487841 5.7476478
9.0751047 3.480437 5.5790558
6.126615 2.365988 3.4701409
6.279695 2.433496 3.394891
6.0890961 2.367768 3.129236
5.4235592 2.1162219 2.6389911
5.5540061 2.1745629 2.5480371
5.8153858 2.2846889 2.503566
6.1422968 2.421356 2.469337
5.6859579 2.2491021 2.1239469
5.9741869 2.371135 2.061384
6.2032919 2.4704051 1.964147
5.5953698 2.2358439 1.614152
5.658267 2.2685959 1.474948
5.4441452 2.1900859 1.269971
5.5693521 2.2479789 1.149839
5.3654318 2.1729159 0.96733499
5.3437371 2.1713531 0.82681799
5.2109852 2.1244709 0.67711198
5.3057141 2.1702771 0.56293899
5.4873281 2.2520039 0.456411
5.4034939 2.2249401 0.33090699
5.7161059 2.361424 0.231361
5.3025098 2.1977789 0.110628
5.2981539 2.2031829 0.013753
5.33391 2.225317 -0.075917996
4.996882 2.091531 -0.14909101
4.81355 2.021363 -0.210842
4.908041 2.0677481 -0.27649099
5.5905519 2.3629429 -0.37522501
5.2452569 2.231364 -0.43861201
5.0795112 2.188781 -0.482187
4.9873419 2.176585 -0.382
4.7958021 2.1062689 -0.27192801
4.6550851 2.050916 -0.20543499
5.1365709 2.27017 -0.154566
4.947125 2.1933191 -0.071084
5.8139238 2.585695 0.015251
5.1360078 2.291352 0.108392
4.8926449 2.1895919 0.20051999
5.2327199 2.3490789 0.324801
5.4520249 2.455147 0.460094
5.2577209 2.3749931 0.56655502
5.5706992 2.524159 0.73588699
6.5920262 2.996176 1.037956
5.188169 2.3653719 0.95283002
5.2573271 2.4042771 1.106779
5.5780368 2.5587871 1.3281389
6.3114591 2.904099 1.680951
5.8770428 2.7124081 1.733959
5.896513 2.729708 1.911375
5.7122321 2.652472 2.019851
5.5471659 2.583662 2.1255879
5.7220802 2.6732249 2.3621421
7.1477208 3.339251 2.9506631
5.8132191 2.724046 2.572376
8.0342999 3.8104849 4.482409
9.2574368 4.3905911 5.1648078
7.6330051 3.6310289 4.4661469
9.1124983 4.334825 5.3318138
8.9302559 4.26088 5.4596729
5.6404848 2.699286 3.5892739
5.5612931 2.6693439 3.670191
5.5177341 2.656328 3.7637589
5.53686 2.6734641 3.888624
7.1572838 3.466156 5.158536
6.6440148 3.2366691 4.9875951
6.469418 3.1889229 5.046802
6.6344762 3.308708 5.0760632
6.8865309 3.4544301 5.1064329
7.0913548 3.567492 5.1492839
5.462245 2.755882 3.8693819
5.464931 2.765218 3.7642829
5.5032921 2.7926641 3.671725
5.5613298 2.830246 3.5818069
5.6726818 2.8952279 3.5141721
7.98104 4.108511 4.299459
5.6299438 2.914784 2.7083211
5.7322202 2.976186 2.5879979
5.7264719 2.981652 2.4146891
5.9159112 3.0890429 2.318197
7.8384771 4.092927 3.0715699
5.5515499 2.907002 2.009773
5.4495478 2.8616619 1.810627
5.4836102 2.8876929 1.660212
5.2874742 2.792258 1.446728
5.3326831 2.82406 1.3059289
5.2028379 2.7630529 1.127839
4.6348929 2.468344 0.87750697
4.75002 2.5367441 0.771905
4.6483421 2.489397 0.63446403
4.8932829 2.6278951 0.54544401
4.6148448 2.4852741 0.40332001
4.7253599 2.551887 0.30410799
4.622962 2.50353 0.19667
4.5371938 2.463913 0.099509001
4.5316439 2.467721 0.012368
4.630198 2.528368 -0.069297999
4.7188392 2.5839031 -0.148073
4.7102742 2.5863309 -0.217016
5.7332568 3.1480329 -0.264148
5.3451338 2.9430089 -0.31677499
4.9970651 2.758944 -0.35288799
4.9235392 2.7332959 -0.43331799
5.1612239 2.8967271 -0.51597202
4.5333238 2.5721049 -0.36589301
4.6581478 2.657264 -0.278409
4.4823298 2.563874 -0.208542
4.6703358 2.6786189 -0.148184
4.5888362 2.6389749 -0.069533996
4.6407251 2.6759961 0.01284
4.5675168 2.640867 0.101686
4.6044641 2.6693721 0.1991
4.6136141 2.6818421 0.30218601
4.4888358 2.616302 0.399791
4.6828752 2.736691 0.53264201
4.7130728 2.7616889 0.65728098
4.8861551 2.87075 0.81234503
5.2213421 3.0758481 1.012661
5.466363 3.2287481 1.215463
5.3619652 3.1755049 1.348657
5.827497 3.460357 1.639798
5.0529408 3.008296 1.575338
5.2456589 3.1312909 1.7970819
5.6291909 3.3869131 2.4570761
5.6393952 3.4288709 3.161202
5.573554 3.3977139 3.2904611
5.5675559 3.402936 3.447716
8.7448902 5.358933 5.6591992
8.4262409 5.1771379 5.6766291
8.1653948 5.0693288 6.2344332
7.972219 4.975101 6.341898
8.1504593 5.2189422 6.41467
8.185297 5.2546682 6.3095331
5.4911008 3.588521 3.3066659
5.51686 3.6145091 3.1590419
5.6440072 3.707191 3.0609331
4.9431581 3.2798541 2.0606191
5.0488148 3.358413 1.944725
5.725184 3.817929 2.0242569
5.2661648 3.5206831 1.696956
5.5281701 3.7051461 1.610167
5.140913 3.454257 1.340407
4.8622899 3.2752631 1.122386
4.8921452 3.303642 0.98645401
4.8846259 3.3068349 0.84554797
4.2857981 2.9087119 0.62323397
4.4234838 3.00967 0.52540898
5.1414709 3.506922 0.47889
4.545177 3.1079531 0.31179699
4.2415161 2.9075501 0.192371
4.467732 3.070267 0.104481
4.768847 3.2853589 0.01388
4.6461511 3.2087979 -0.074170999
6.1657982 4.2583199 -0.09843
4.343544 3.0072761 -0.14540499
4.3972549 3.052027 -0.216168
4.3536658 3.029273 -0.27535
5.4349089 3.781601 -0.343734
4.5638118 3.1833789 -0.34400201
4.4438772 3.1150961 -0.41758999
4.39394 3.1106651 -0.46933401
4.2805691 3.0603759 -0.36939499
5.2600279 3.760637 -0.45391801
4.1865501 3.0078931 -0.267625
4.399322 3.1685181 -0.218953
5.5879331 4.02459 -0.27811
4.3853989 3.166234 -0.148871
4.3546429 3.151742 -0.070611
4.3942389 3.1881869 0.013013
4.2514591 3.09215 0.10132
4.2755589 3.11728 0.19794101
4.1270251 3.016335 0.28946599
4.5225019 3.313457 0.4314
4.441329 3.2619209 0.54114401
4.5124998 3.3222699 0.674245
4.976264 3.6726451 0.88655502
5.0191388 3.713304 1.043317
4.7506871 3.523243 1.132352
4.7963881 3.565793 1.29345
11.304258 8.4039583 3.0484381
4.9332361 3.6764369 1.488587
9.7490263 7.2828102 3.2598729
10.412095 7.7970052 3.8264179
5.7063599 4.2939019 2.480618
5.5483909 4.1851392 2.5993021
5.4968872 4.156332 2.7613239
5.4877639 4.1594639 2.9416749
5.2401509 4.0006309 3.3233199
5.1509328 3.941998 3.427161
5.083725 3.89995 3.535429
5.0133028 3.8551869 3.630095
4.9489808 3.814894 3.7177429
4.8862228 3.7755749 3.795176
4.8281841 3.739696 3.862433
4.7837729 3.7142091 3.9286289
4.6956949 3.6633439 4.0192761
4.614368 3.634541 4.1100221
4.651834 3.699223 4.069324
4.7009649 3.7561679 3.9882441
4.7251439 3.7844911 3.926996
4.751708 3.814837 3.8538809
4.7807999 3.847348 3.7716129
4.822731 3.8903329 3.686553
4.8529758 3.924046 3.582305
4.8715482 3.9484451 3.4600639
4.923739 4.0002341 3.3519461
4.9770141 4.0531368 3.2355449
5.027576 4.1040368 3.108501
5.0822959 4.1585541 2.9767101
5.131526 4.2088132 2.835212
5.1648321 4.2461758 2.6791241
5.2339401 4.3131928 2.536597
5.2728562 4.3555741 2.375618
5.3365369 4.4186168 2.222019
5.428884 4.5057211 2.075336
5.4972649 4.5732851 1.915609
4.0615621 3.3868871 1.2795269
4.7557821 3.9657891 1.498229
5.5694389 4.6442871 1.754558
4.7071638 3.9345281 1.327716
4.7361641 3.9681361 1.182933
5.706584 4.7811909 1.425311
4.424552 3.7158141 0.96552199
4.0681381 3.4245591 0.76225603
3.995858 3.371664 0.62908798
4.7751489 4.029222 0.75177598
4.3130312 3.6478779 0.55472898
3.925844 3.3282349 0.39603201
3.863364 3.2829981 0.28709099
3.9581211 3.3714471 0.194502
3.789705 3.2356091 0.096040003
4.2075419 3.6008141 0.013274
4.0018859 3.4328761 -0.069257997
3.953517 3.3993771 -0.14350601
4.5593948 3.9295549 -0.243084
4.12392 3.5625961 -0.28292
3.9507091 3.420995 -0.323084
3.907793 3.399754 -0.39856401
3.770426 3.3111761 -0.43746001
4.0652881 3.603735 -0.38136899
4.0010061 3.5633991 -0.27814999
4.0794868 3.641804 -0.22084901
4.9769301 4.4429612 -0.26943401
4.0003028 3.5794761 -0.147743
5.2205071 4.6713161 -0.192809
3.954875 3.5471201 -0.069784001
3.91836 3.522593 0.012629
4.008615 3.6121731 0.103999
3.8421769 3.4702921 0.193679
3.863549 3.4977551 0.29511899
4.619976 4.1825652 0.35289899
3.9901259 3.6208031 0.41459799
4.0109549 3.648211 0.53244603
3.8643579 3.5230839 0.62920702
4.370502 3.993849 0.84867001
4.8178391 4.4129171 1.0917749
3.875741 3.5582881 1.007308
5.4695911 5.0215902 1.421551
5.3874822 4.9577689 1.584502
5.3311672 4.917398 1.754793
5.308156 4.9074879 1.936569
8.2064857 7.6580448 4.1981182
9.1540098 8.5621719 5.0223818
8.4832277 8.0089512 5.8809671
8.4405565 7.987216 6.140018
6.2299509 5.9090819 4.7379012
5.4521079 5.1833358 4.3180809
6.1988339 5.8932509 4.9094901
6.1922989 5.9007549 5.0890789
4.7801952 4.5657339 4.0627451
4.795403 4.5909162 4.1986451
4.7518668 4.559833 4.2720232
4.7345872 4.5644102 4.4382648
4.7224059 4.595191 4.610517
6.1065111 6.0254092 5.6859679
5.9467812 5.9088292 5.1523919
6.0800982 6.055337 5.1054411
6.1534772 6.1569562 4.8031211
5.8256402 5.9244709 3.1076019
5.7158842 5.8535042 2.4066441
5.7927642 5.9460459 2.223793
5.241106 5.4048362 1.6293451
5.2474928 5.4240232 1.444867
3.9585099 4.101193 0.952501
3.909647 4.0599899 0.80794603
3.7425661 3.895535 0.64999402
3.4660079 3.616065 0.491887
4.0084581 4.1917281 0.446284
5.455554 5.704988 0.60739702
3.633389 3.808363 0.29805899
4.0538869 4.2589989 0.21995901
4.0689149 4.2847481 0.113884
4.7546401 5.0068479 0.133077
3.5543611 3.751611 0.012387
3.632818 3.843348 -0.069467999
3.7658229 3.9933491 -0.151072
3.688339 3.920289 -0.217379
3.570426 3.803798 -0.27083999
3.514879 3.7533541 -0.31790099
3.681973 3.950124 -0.415519
4.3121772 4.626225 -0.48663899
3.5800979 3.876786 -0.46004099
3.5688059 3.900753 -0.37114501
3.470906 3.811487 -0.267625
3.554323 3.9122019 -0.21346501
3.797034 4.1891112 -0.15561201
3.67993 4.0694098 -0.072068997
3.9903431 4.422986 0.014278
3.4801421 3.866493 0.10026
3.545975 3.948844 0.198539
4.7644658 5.3057709 0.266763
3.5062201 3.9137011 0.29754999
3.4849811 3.8991029 0.40239999
3.4190559 3.834291 0.50449502
3.748951 4.214088 0.67866498
3.743413 4.2177248 0.80837202
5.0529828 5.6932249 1.091167
3.925159 4.4328532 0.98942101
4.953691 5.594418 1.248684
4.8495922 5.4896789 1.402371
4.787282 5.4318571 1.566946
4.6973519 5.3423071 1.721164
4.6131248 5.2587032 1.873948
4.5199952 5.1646318 2.0188949
4.4579039 5.105659 2.173768
4.3916531 5.0415912 2.3224621
4.3560181 5.0124292 2.4837
4.3197799 4.9824252 2.642302
4.2882142 4.957643 2.8002479
4.2539358 4.9295769 2.951525
4.2607732 4.9491301 3.1279399
4.212924 4.9050641 3.259402
4.1600318 4.8548818 3.378108
4.5800052 5.3450031 3.719142
6.0078902 7.0279198 5.101685
3.672734 4.306416 3.2487659
5.8138428 6.8815069 5.8436918
4.1301022 4.9116659 4.3308611
3.2140141 3.858506 3.5137849
3.722569 4.5329542 3.8876951
3.7175231 4.5375481 3.805094
3.648247 4.4635592 3.6459529
3.7805669 4.6364479 3.6768391
3.760973 4.6233749 3.545943
3.8414309 4.7335048 3.4991691
3.810271 4.7062888 3.341217
3.8972161 4.8251319 3.277199
3.892772 4.8311172 3.1275129
3.9548161 4.919805 3.023402
3.988682 4.9737568 2.8900089
4.0328941 5.0408921 2.7578199
4.1095128 5.1489129 2.639698
4.1335688 5.1914129 2.4819479
4.7221308 5.944777 2.6371329
4.4201598 5.5779142 2.2824869
4.335453 5.484097 2.056428
4.5928249 5.8375058 1.797122
3.3521919 4.2708559 1.174998
4.4058242 5.613235 1.544313
3.3836031 4.3212171 1.0507441
3.416575 4.3737841 0.92744797
3.2509961 4.1717982 0.75814098
3.4520531 4.4404459 0.67675298
3.6972671 4.7672901 0.59245402
4.3553591 5.61584 0.69790697
3.8669441 4.998054 0.48625499
3.4765401 4.504271 0.3222
4.691103 6.0778809 0.434764
3.331166 4.326304 0.20425899
3.3978801 4.423584 0.107506
3.546026 4.6275702 0.013974
4.5702991 5.9642472 0.01801
3.4450121 4.5065808 -0.074511997
3.359354 4.4051399 -0.152475
3.269284 4.2973762 -0.21806499
3.293951 4.3402548 -0.282868
3.3653729 4.4450932 -0.34468099
3.2183361 4.2714701 -0.411529
3.193984 4.2804208 -0.465599
3.8302779 5.133152 -0.55835402
3.3152161 4.4862528 -0.39159301
3.1652761 4.3042531 -0.277372
3.5626619 4.8564439 -0.24324501
3.4198401 4.67313 -0.159381
3.4212949 4.6865492 -0.076219998
3.414367 4.6884871 0.013902
3.1697071 4.3631859 0.103941
3.4696951 4.787816 0.221193
3.6534491 5.0537238 0.35312501
3.5516641 4.9249849 0.46722901
3.469655 4.8230662 0.583462
3.9444799 5.4831071 0.66330999
3.3469601 4.6639328 0.69073099
3.1811919 4.4438429 0.78339797
3.0511179 4.2726202 0.87734199
3.9182739 5.5004392 1.2929339
4.506927 6.3267851 1.487175
4.4991379 6.3314261 1.680956
3.8890581 5.4863768 1.627099
4.4477701 6.2745628 1.860852
4.2708569 6.0397048 1.981593
4.2358718 6.0050049 2.16169
7.544179 10.774537 4.9194069
7.450984 10.667805 5.2139339
5.359508 7.692378 4.005125
3.654176 5.2577562 2.902395
3.6031251 5.1971812 3.029017
3.5213771 5.0918798 3.1207609
5.5317059 7.9987979 4.9023809
3.476824 5.0399499 3.2351539
3.245079 4.715734 3.1586001
3.5795491 5.214736 3.6305931
3.5181761 5.1381149 3.7049601
3.065191 4.4877191 3.340153
3.477951 5.0920382 3.7899401
2.9675169 4.3555622 3.3332591
3.474793 5.1001148 3.9030559
3.0302989 4.4588389 3.4970729
3.4693291 5.104836 4.0037289
2.7526591 4.1116481 3.462188
4.0248351 6.0118971 5.0622811
2.7927001 4.2349911 3.3623011
3.3603261 5.095768 4.0457001
3.249414 4.940043 3.8355689
3.3599329 5.1209989 3.8736579
2.844908 4.3470392 3.193017
3.3996141 5.194633 3.8155971
3.9543819 6.0730448 4.1597738
3.4952121 5.3815298 3.5407441
3.290118 5.0786462 3.1973131
4.4775658 6.946909 3.9586301
6.63098 10.340588 5.247715
3.8314781 6.0210028 2.4789779
3.469521 5.4802489 1.907988
3.549891 5.6652651 1.27996
3.6346459 5.8155169 1.146001
3.4618909 5.5534382 0.93806303
3.249769 5.2266812 0.74054599
3.2220831 5.1955929 0.60036999
3.172168 5.128387 0.46400601
3.0756021 4.9852118 0.331698
3.020735 4.9090209 0.21562301
3.1441841 5.1229711 0.11585
3.1800549 5.194932 0.014599
2.904372 4.756968 -0.073211998
3.1657479 5.1986432 -0.16752499
3.7236149 6.1147451 -0.197046
3.4820001 5.7329459 -0.270886
3.2328939 5.3367572 -0.32392901
3.2806211 5.4297738 -0.39219299
3.4947 5.8145509 -0.52200699
3.173481 5.3360939 -0.54124498
2.929739 4.9787402 -0.40552899
3.1938291 5.45649 -0.32823199
3.0269821 5.185235 -0.242478
2.9000599 4.9810882 -0.158638
3.056289 5.263485 -0.079949997
3.0093391 5.1965079 0.014393
2.8817379 4.989531 0.111051
2.972229 5.1600299 0.222763
2.981468 5.18999 0.33893499
3.0561731 5.3343768 0.473059
3.072 5.3764601 0.608091
3.1252949 5.4845052 0.75954098
3.440743 6.0544248 0.99822599
3.3085401 5.8375602 1.121278
5.5131989 9.8069286 2.7220221
3.984575 7.1069279 2.1826501
3.921108 7.012814 2.363467
3.862082 6.9261522 2.5432899
3.7925429 6.8200588 2.710633
3.536339 6.3767629 2.7271659
3.544518 6.409081 2.9346509
3.3895161 6.145659 2.998245
3.4794691 6.3261261 3.2727289
3.668597 6.7068682 3.853575
3.4575031 6.338428 3.8149121
3.679693 6.7644639 4.2489891
2.825336 5.2082849 3.401099
3.069653 5.6744051 3.838413
4.5643058 8.4608192 5.9084949
2.752764 5.1169949 3.6748171
2.5620511 4.7757959 3.5155759
2.6623969 4.9906492 3.817333
2.8568361 5.4156189 4.284307
2.3925669 4.5870628 3.542227
4.176116 8.0065107 6.182797
2.669961 5.1627121 3.7702651
4.3818741 8.4970961 6.0464768
4.6015582 8.9486361 6.1844411
2.689512 5.2452621 3.5070829
3.54702 6.9374709 4.472405
4.6563849 9.1334314 5.6567841
3.4629991 6.8121691 4.0377522
3.2576981 6.4268141 3.6321111
3.868134 7.653121 4.1072302
3.519026 6.9825482 3.54439
3.6098471 7.20439 3.2288599
4.5863299 9.1798296 3.8379991
3.2196989 6.4632268 2.5081811
4.5561962 9.1996098 3.019876
3.7153349 7.523788 2.247858
3.7313881 7.5784612 2.0438089
3.770035 7.6794538 1.851442
3.0955579 6.324152 1.348029
3.0372691 6.2233682 1.157209
3.6095951 7.3960662 1.375267
2.9357181 6.0330639 0.96175897
2.803098 5.777597 0.77268201
2.770134 5.726584 0.62470502
2.750396 5.702673 0.487176
2.7310281 5.6793909 0.356857
2.6521461 5.5317969 0.22949199
2.6850121 5.6171021 0.119993
2.5615239 5.3748031 0.014271
2.758904 5.8063211 -0.084441997
2.851913 6.0201221 -0.183345
2.861172 6.057848 -0.27056399
2.7909269 5.9269428 -0.340105
2.7599859 5.8789721 -0.40151101
2.957633 6.3382158 -0.53819501
2.7905569 6.0534768 -0.58110899
2.672214 5.8683619 -0.45265701
2.859158 6.317812 -0.36001301
2.8167601 6.2434258 -0.27661699
2.721344 6.0506792 -0.182602
2.7928231 6.2289672 -0.089668997
2.385103 5.3362079 0.01401
2.4985001 5.6074138 0.118316
2.6124001 5.881412 0.24074399
2.599175 5.8700109 0.36352801
2.7422431 6.2126298 0.52254403
3.0654609 6.9667902 0.74745703
2.6839681 6.1190548 0.80398101
4.3689442 9.9921398 1.563249
3.31704 7.6104231 1.3872989
4.373271 10.06569 2.1011119
4.4323492 10.234228 2.4136641
5.5488091 12.893788 3.7603171
3.088815 7.2004972 2.3047681
4.010057 9.4386768 3.835547
3.8001831 9.0614347 4.7063808
4.727149 11.308546 6.178504
2.9890809 7.1740341 4.1064258
3.4127891 8.1909666 4.6885209
2.8724639 6.9167781 4.1325579
4.1176548 9.9805422 6.4236012
3.6661501 8.9155025 5.924727
3.712209 9.0573874 6.1907969
2.159586 5.2866569 3.7044151
2.0692019 5.2741642 3.7551041
2.3681509 6.0361519 4.2976241
4.418293 11.496696 6.7959671
4.2721291 11.155015 6.31147
4.2091918 11.029045 5.950738
2.3599291 6.2051649 3.1797769
2.928242 7.726459 3.7454519
3.5764861 9.5034752 4.0687132
3.4756219 9.2680788 3.7020791
3.3813579 9.0486908 3.355397
2.686857 7.2157001 2.4693861
3.364718 9.0361338 3.092382
3.919971 10.56478 3.31478
3.204963 8.6686277 2.475827
3.377116 9.1998653 2.120919
3.6180689 9.8917904 2.0164959
2.1973009 6.029098 1.0723259
2.2776029 6.2720571 0.95650899
2.273716 6.2841072 0.80409998
2.395371 6.6444349 0.69360697
2.3276939 6.4802742 0.52983302
2.3798151 6.649662 0.399937
2.2289071 6.2508578 0.24825799
2.4711831 6.9815311 0.017751001
2.2114639 6.2709088 -0.087344997
2.332427 6.6385088 -0.193662
2.2933359 6.5515518 -0.28032899
2.2572219 6.472465 -0.35586599
2.332619 6.7137508 -0.43939701
2.1455879 6.2219911 -0.50643301
2.3814571 7.0115199 -0.64555103
2.351038 7.0289969 -0.52030402
2.230345 6.7200112 -0.36758301
2.2230971 6.724268 -0.286019
2.1208899 6.4401932 -0.186619
2.1557851 6.5718508 -0.090852
2.1427751 6.5837932 0.133443
2.2042961 6.7996311 0.267398
2.1392021 6.6250381 0.394227
2.178381 6.7732868 0.54747802
2.518692 7.8627238 0.81078798
3.2391901 10.193384 1.533167
3.0228989 9.5511341 1.674087
2.1915359 6.9806929 1.583445
2.215997 7.0873828 1.796652
2.2277811 7.1539602 2.00721
2.1543181 6.9464712 2.139396
3.1188631 10.098099 3.3895259
3.0412519 9.8875408 3.593287
3.0748761 10.038347 3.9266281
3.0336261 9.9449787 4.166163
2.08916 6.9062471 3.2706649
2.698868 8.9593878 4.4817529
2.561799 8.5402756 4.4945621
2.4100831 8.068553 4.4493289
2.883033 9.693017 5.579968
2.9532969 10.014405 6.2119188
2.2016349 7.6286821 5.3584762
2.12356 7.623548 5.4184208
2.58515 9.4074278 6.3285809
2.7145779 10.014967 6.1735702
2.1669021 8.0686646 4.6098752
2.2080569 8.2988958 4.3289142
1.829717 6.9417982 3.2541511
2.4311891 9.223732 4.3238668
2.657141 10.128772 4.4734039
2.511826 9.6663017 3.735359
2.4649401 9.5314083 3.419709
1.912272 7.4299569 2.4605291
2.5286961 9.8725185 2.997864
2.4476471 9.6025543 2.6546309
2.485595 9.7989798 2.4459391
2.4585781 9.7399359 2.174011
1.955804 7.94239 0.803262
1.964411 8.0174494 0.63516998
1.846348 7.5737038 0.44143501
1.804814 7.4408898 0.28642601
1.771244 7.377326 0.018185001
1.732092 7.251359 -0.097930998
1.801728 7.581912 -0.214489
1.818343 7.6915441 -0.319188
1.7261389 7.3396001 -0.39143199
1.7006 7.7550359 -0.41216999
1.692062 7.7591729 -0.32072201
1.667891 7.6912508 -0.216608
1.677017 7.8657179 0.15500601
1.681113 7.9300971 0.30324799
1.714664 8.1349392 0.470777
1.898811 9.060811 0.71235102
2.1726429 10.427831 1.04603
2.1207359 10.238249 1.258057
2.0995481 10.195666 1.49216
2.322912 11.34707 1.9354939
1.989545 9.7764158 1.910068
1.859187 9.2458124 2.281795
1.894758 9.5366488 2.860148
1.939791 9.8229723 3.2111781
1.532877 7.8582339 2.994452
1.959021 10.105277 4.124505
2.0065651 10.415157 4.5311532
1.970154 10.355485 5.0489378
2.1320181 11.277484 5.7855392
1.805028 9.6707516 5.4282708
1.700949 9.1720886 5.3545399
1.706695 9.2630615 5.6039701
1.4951921 8.1682739 5.1036949
2.128428 12.616962 8.7606573
1.340783 8.2390604 5.1304002
1.485377 9.2630405 5.3849068
1.976081 12.699946 6.1560931
1.572858 10.265264 4.4364762
1.522063 10.011286 4.0575552
1.704312 11.298171 4.2734351
1.410062 9.4217091 3.3091321
1.492053 10.04915 3.258209
1.386681 9.4910316 2.5694981
1.367372 9.4353495 2.3067219
1.214594 8.8129034 0.87362999
1.246824 9.1249866 0.70866799
1.166965 8.7680407 0.170479
1.154654 8.7531462 0.021162
1.223443 10.708814 -0.75664699
1.011351 9.5387545 0.184874
1.005945 9.8134146 0.75907397
0.92616397 9.7003002 2.1088619
0.87406999 9.2682676 2.252399
0.86137801 9.2474947 2.4879889
0.92197901 10.024192 2.9611771
0.90587503 10.240503 3.845006
0.89363199 10.237778 4.1178098
0.47746 10.286052 4.1259928
0.50240099 11.101797 4.1564312
0.49895 11.317065 3.934864
0.415319 11.942634 1.712947
0.028411999 12.821932 0.030733
-0.087420002 12.341556 2.0624061
-0.204529 9.6885958 4.6415849
-0.310072 12.038204 6.9122152
-1.396358 13.746067 -0.181493
-1.365195 10.421541 6.0330672
-1.261301 6.5357299 -0.512187
-1.168594 5.9076891 -0.52500403
-1.794367 5.9020262 -0.47466999
-1.679619 5.4337568 -0.495823
-1.013819 -3.1055181 0.87513
-1.8273931 -5.5976462 1.577408
-1.050812 -3.231473 0.99957001
-1.000273 -3.088187 1.041075
-1.0197459 -3.23734 1.71095
-0.98271102 -3.1323791 1.734603
-1.077661 -3.4489839 1.993812
-1.013279 -3.25613 1.957424
-1.044858 -3.3713369 2.0999551
-0.90531301 -2.9330511 1.886592
-0.94315499 -3.0682161 2.030102
-0.97593099 -3.1879549 2.162678
-1.01548 -3.3447111 2.3589821
-0.92988503 -3.114476 2.2743001
-0.98028702 -3.3394761 2.3829529
-0.83736998 -2.8771861 1.986111
-0.86071599 -2.970176 2.0059459
-0.97163999 -3.3674901 2.2166491
-0.81486303 -2.8364401 1.813809
-0.92408502 -3.230675 1.999226
-0.95991802 -3.370661 2.0116861
-0.96156198 -3.39131 1.9450181
-0.92719001 -3.2845261 1.803277
-0.93088698 -3.3122599 1.734356
-0.68991202 -2.4657519 1.2263809
-1.034261 -3.6964569 1.838491
-0.80114502 -2.87609 1.35335
-1.08465 -3.8938639 1.832266
-0.77874899 -2.8082409 1.244948
-0.79466099 -2.8785191 1.1965491
-0.76993698 -2.8015649 1.0866621
-0.83282399 -3.044157 1.0962631
-0.86400002 -3.1724939 1.054513
-1.042492 -3.845392 1.171997
-0.64905 -2.4051249 0.66734499
-0.70022303 -2.6067109 0.65305001
-0.78643399 -2.9411931 0.65888703
-0.71386701 -2.6822181 0.531389
-0.95864302 -3.601918 0.71359599
-0.80799299 -3.05004 0.52726299
-1.0007 -3.795167 0.56261098
-1.735388 -6.58148 0.97566497
-0.80270702 -3.0586131 0.38048699
-0.746005 -2.8559771 0.28987399
-0.73504901 -2.827379 0.22479101
-1.0363441 -3.986315 0.31693301
-0.72851902 -2.815618 0.16469
-0.73937899 -2.8712549 0.110914
-0.69176 -2.69925 0.053704999
-0.907206 -3.539921 0.070431001
-0.75871003 -2.974761 0.0073580001
-0.69814098 -2.7505369 -0.037276
-0.67027801 -2.65362 -0.075329997
-0.71490902 -2.844135 -0.118435
-0.69137597 -2.7640059 -0.14791501
-0.76397502 -3.0693099 -0.19554099
-0.73032999 -2.9633069 -0.234842
-0.71579999 -2.963208 -0.26575899
-0.73267698 -3.0956481 -0.223318
-0.70355499 -3.003545 -0.16015001
-0.672795 -2.8872311 -0.119726
-0.66162699 -2.8542089 -0.080640003
-0.66705799 -2.8928311 -0.038996
-1.706176 -7.399179 -0.099744
-0.718548 -3.1326389 0.007704
-1.35531 -5.940217 0.11743
-0.70661199 -3.1135931 0.119438
-0.73272198 -3.245997 0.188435
-0.712915 -3.175333 0.25041601
-0.71032602 -3.1809771 0.32007399
-0.57021701 -2.567471 0.31645501
-0.69067001 -3.1268981 0.45902801
-0.665968 -3.0316751 0.51869202
-0.61984599 -2.837337 0.55602199
-0.84854102 -3.884186 0.76116902
-0.783912 -3.608346 0.79912603
-1.297779 -6.0070882 1.486941
-1.6364371 -7.5746498 1.874961
-0.91280597 -4.2488241 1.164166
-0.84098101 -3.9366231 1.184132
-0.73623401 -3.465904 1.1363569
-0.61668301 -2.9196849 1.036544
-0.56365001 -2.6839161 1.025708
-0.79349899 -3.7783821 1.443979
-0.674115 -3.2284601 1.321523
-0.60768801 -2.927213 1.277161
-0.67142701 -3.253103 1.505695
-0.637205 -3.1054249 1.518396
-0.73318899 -3.59427 1.84914
-0.71377701 -3.519845 1.897646
-0.63134003 -3.1319089 1.762884
-0.667629 -3.331775 1.950454
-0.65841401 -3.3056159 2.005362
-0.66084301 -3.3379149 2.091326
-0.669698 -3.4032559 2.193665
-0.65266299 -3.337044 2.2056701
-0.62638098 -3.242384 2.2286429
-0.589782 -3.1305301 2.2290089
-0.59174699 -3.222698 2.2434111
-0.583121 -3.2175491 2.16732
-0.57975203 -3.2201359 2.122406
-0.60707802 -3.3943789 2.1808369
-0.64749599 -3.64467 2.275116
-0.52271098 -2.9621179 1.789589
-0.55639797 -3.1744239 1.849895
-0.62467498 -3.588352 2.0097549
-0.60464197 -3.4971631 1.875221
-0.57861799 -3.369838 1.7235529
-0.499365 -2.928539 1.42293
-0.50118899 -2.9598479 1.360782
-0.64169198 -3.7896111 1.742263
-0.626243 -3.7245231 1.613443
-0.48655301 -2.9142971 1.183903
-0.65271199 -3.9095349 1.588208
-0.51205802 -3.0890131 1.171087
-0.52295601 -3.1775129 1.118575
-0.51133102 -3.1294179 1.01695
-0.45744801 -2.820096 0.84040701
-0.63041198 -3.8863921 1.158169
-0.86962003 -5.4005589 1.465364
-0.91631901 -5.7327209 1.404634
-0.44842699 -2.8263979 0.61933303
-0.512272 -3.253103 0.63048398
-0.89101398 -5.6582451 1.096625
-0.55270702 -3.536437 0.59813601
-0.49628699 -3.1996429 0.464136
-0.61504501 -3.9957819 0.48644999
-0.45816699 -2.999615 0.297986
-0.493644 -3.257066 0.25348499
-0.63647902 -4.1994848 0.32683
-0.81487203 -5.376524 0.41843399
-0.44154701 -2.936229 0.168139
-0.46185201 -3.095547 0.117082
-0.51238197 -3.4616351 0.067443997
-0.45153001 -3.075017 0.0074499999
-0.59157902 -4.0287871 0.0097599998
-0.42934999 -2.947638 -0.039128002
-0.86590701 -5.9447489 -0.078911997
-0.436968 -3.0244391 -0.084105998
-0.817617 -5.6590762 -0.157373
-0.447745 -3.1245091 -0.127474
-0.449101 -3.1599481 -0.16569699
-0.415528 -2.9481771 -0.184064
-0.42088699 -3.0369101 -0.235916
-0.67136502 -4.8442421 -0.376315
-0.45727599 -3.4154551 -0.300412
-0.380353 -2.9442279 -0.20840199
-0.76577502 -6.0374331 -0.315945
-0.38720399 -3.0812349 -0.125416
-0.52076799 -4.1831121 -0.116021
-0.706007 -5.6710582 -0.15729
-0.66294098 -5.3758101 -0.071149997
-0.588287 -4.8161898 0.01163
-0.471782 -3.899837 0.075710997
-0.60218501 -4.9777761 0.096638002
-0.37741199 -3.150254 0.11869
-0.60992199 -5.0910082 0.19181
-0.42719099 -3.60094 0.20534
-0.422225 -3.594588 0.278496
-0.332578 -2.8598771 0.28274
-0.463862 -3.988802 0.39434999
-0.43272799 -3.758882 0.45527101
-0.37981299 -3.3331389 0.48087999
-0.37704501 -3.3431549 0.56220502
-0.31833801 -2.8521681 0.54944098
-0.31028599 -2.8094821 0.611718
-0.62271798 -5.6986718 1.386996
-0.58867699 -5.445159 1.467176
-0.35245499 -3.2957759 0.97501802
-0.51402003 -4.8597221 1.567263
-0.48361501 -4.623322 1.614699
-0.32851499 -3.176039 1.194208
-0.40371701 -3.9476981 1.590068
-0.42762399 -4.2297578 1.816154
-0.341526 -3.4175861 1.5568891
-2.3005321 -23.293291 11.211079
-0.33290201 -3.4109831 1.727604
-0.307051 -3.1841469 1.690222
-0.37944201 -3.93486 2.0887179
-0.283972 -2.980911 1.6522501
-0.32659501 -3.514395 2.0999551
-0.319664 -3.4834859 2.149972
-0.246996 -3.4313109 2.1143661
-0.212449 -3.0497749 1.754812
-0.219291 -3.201416 1.770613
-0.24777099 -3.679529 1.948567
-1.532868 -23.163677 11.702067
-1.507287 -23.183611 11.127708
-1.480153 -23.17989 10.528717
-1.399004 -23.172274 8.6824398
-1.372191 -23.173805 8.0636501
-0.29712901 -5.1181741 1.6442209
-0.30047899 -5.2813382 1.556079
-0.29332599 -5.2629738 1.41206
-0.189564 -3.4734609 0.84165102
-0.31186199 -5.7143722 1.384645
-0.16359501 -3.0626321 0.66375202
-0.167089 -3.1974859 0.612997
-0.15729199 -3.0782449 0.51506603
-0.195022 -3.9051671 0.56048203
-0.167467 -3.433126 0.413578
-0.185763 -3.900794 0.38350201
-0.271685 -5.70506 0.56088603
-0.152436 -3.2807519 0.252718
-0.146854 -3.241477 0.183743
-0.22656099 -5.0008512 0.28347301
-0.160602 -3.6379099 0.136222
-0.15514299 -3.6089959 0.069622003
-0.16186699 -3.8696051 0.0092829997
-0.22397199 -5.3543019 0.012845
-0.15665101 -3.8514831 -0.050634
-0.14848 -3.7576439 -0.103503
-0.138753 -3.617389 -0.14619701
-0.13008399 -3.4968691 -0.181666
-0.133265 -3.697535 -0.228738
-0.137632 -4.0806098 -0.31417099
-0.116342 -3.998137 -0.34869999
-0.087957002 -3.5940759 -0.252379
-0.088408001 -3.989646 -0.207174
-0.079542004 -3.787077 -0.15297601
-0.075854003 -3.8218 -0.105209
-0.074405 -3.9809611 -0.052301999
-0.070863999 -4.0413671 0.0096880002
-0.062001001 -3.785789 0.072973996
-0.053916998 -3.5421121 0.132521
-0.049077999 -3.4890649 0.197594
-0.074268997 -5.2800179 0.29901999
-0.050128002 -3.8831961 0.29882699
-0.045242 -3.8492169 0.37802899
-0.039613001 -3.737828 0.44977501
-0.031978998 -3.3872249 0.485562
-0.027907001 -3.3681791 0.56286401
-0.024783 -3.4757841 0.66545898
-0.054292001 -7.6145101 1.457842
-0.045495 -7.6165361 1.6483819
-0.028348001 -5.8841519 1.423682
-0.020548999 -5.6033878 1.501074
-0.028076001 -7.6560001 2.050941
-0.019184001 -7.637394 2.246634
-0.0052729999 -26.412928 9.1746778
0.267263 -5.5235519 1.481408
0.268134 -5.412015 1.311039
0.28983399 -5.4664168 0.91475701
0.40206 -7.5830531 1.268957
0.20184 -3.7254009 0.53479898
0.211264 -3.8175809 0.460049
0.237636 -4.206028 0.413701
0.20208 -3.504801 0.27013299
0.235247 -3.9222031 0.146989
0.228376 -3.7353301 0.072126999
0.223656 -3.59003 0.008622
0.241421 -3.6700699 -0.14853799
0.29554701 -3.7070849 -0.261062
0.44024599 -5.2174759 -0.14411201
0.650442 -7.6035719 -0.100243
0.428637 -4.9434371 0.011893
0.67250597 -7.6530819 0.14806899
0.43532801 -4.8892241 0.183624
0.32200301 -3.5697651 0.20296501
0.454337 -4.9725261 0.38421699
0.475555 -5.1392179 0.50683999
0.493496 -5.2667751 0.63649499
0.50464499 -5.319499 0.76594502
0.73219401 -7.718102 1.111316
0.81224197 -5.1310749 0.86811203
0.77466297 -4.857338 0.705073
0.77001297 -4.7925239 0.58405101
1.23075 -7.548717 0.58852398
1.240025 -7.5505948 0.433294
1.251994 -7.5687828 0.28698701
0.81907898 -4.9163098 0.09606
1.2717 -7.5790281 0.01842
1.281682 -7.5848088 -0.101044
1.290414 -7.583076 -0.21171001
1.3056951 -7.6196361 -0.31220701
1.314989 -7.6209679 -0.40149
1.329041 -7.649581 -0.47999901
1.343232 -7.6267252 -0.59588897
1.434067 -7.7236619 -0.55146599
1.450954 -7.7151771 -0.407556
1.461199 -7.7205372 -0.317332
1.4728169 -7.7330132 -0.216663
1.483137 -7.7384748 -0.1035
1.505267 -7.8051529 0.019052999
1.50202 -7.7401452 0.151961
1.571375 -7.8545818 0.96382099
4.8263831 -23.557983 5.204258
4.8563151 -23.56558 5.8214812
4.8898668 -23.591061 6.454021
4.9239469 -23.618017 7.0968919
4.9518371 -23.614895 7.7382832
4.9940228 -23.679707 8.4062109
5.0146322 -23.641991 9.0390558
5.0532532 -23.688896 9.7055502
5.0869079 -23.712236 10.360289
5.1570611 -23.770861 11.650399
1.428579 -6.4408798 3.7869079
2.0351541 -9.0762596 5.7168512
1.87062 -8.1653214 5.6532779
1.98085 -8.2089434 5.5970221
2.2043469 -8.9980688 5.6938119
2.2277391 -8.8711729 4.6106958
6.1366138 -23.852022 9.2114086
6.1655822 -23.850126 8.5568199
6.183567 -23.806053 7.8882298
6.1471081 -23.55372 7.1606698
2.088306 -7.7802701 1.154735
2.099961 -7.7876601 0.97051102
2.1145279 -7.8057628 0.794173
2.1379521 -7.8562212 0.62650102
2.150214 -7.8653212 0.46173099
2.1625791 -7.8747392 0.305491
2.177598 -7.8936219 0.157819
2.1908629 -7.9060321 0.019664001
2.2256761 -7.9246769 -0.33242401
2.2420571 -7.9476881 -0.42870799
2.2489071 -7.9367852 -0.509987
2.2626989 -7.9156141 -0.63348198
2.298789 -7.9032488 -0.71754903
2.328531 -7.869534 -0.57611603
2.3527761 -7.8843579 -0.42715299
2.3637199 -7.887732 -0.33254501
2.378484 -7.903749 -0.227173
2.3909359 -7.9119148 -0.10857
2.40464 -7.9241581 0.019849
2.411916 -7.9151378 0.159476
2.424211 -7.9226151 0.309939
2.439389 -7.9393921 0.47032499
2.438514 -7.903933 0.63647401
2.4552109 -7.9255042 0.81479502
2.4682269 -7.9350462 0.99989903
7.528307 -23.717896 6.0206652
7.5648541 -23.738293 6.6742272
7.7001209 -24.066607 7.4329982
7.808075 -24.115578 9.4804468
7.8925629 -24.185551 10.868247
3.7312779 -11.344916 5.7202291
3.202275 -9.69872 5.148603
2.8869569 -8.7099037 4.8482928
2.9169199 -8.7663279 5.0978212
2.41798 -7.2389159 4.380806
2.2141349 -6.6032162 4.1436648
2.608566 -7.7498112 5.0256758
3.2913311 -9.7039738 6.6469421
2.342011 -6.750771 4.9997911
2.5260119 -7.1212702 5.0080938
3.4080019 -9.5030375 6.2048621
2.1941631 -6.096137 3.854774
2.465966 -6.8265338 4.1662459
2.6780131 -7.3867888 4.3354659
3.172262 -8.6873388 4.6620111
3.8952711 -10.62919 5.4221659
3.1599071 -8.3525896 2.160686
3.1660621 -8.3397331 1.93055
3.1737859 -8.3310165 1.7068011
3.1828091 -8.3257751 1.489488
3.197916 -8.3364038 1.279886
3.206439 -8.329793 1.073965
3.2176549 -8.3302088 0.87695301
3.227118 -8.3260746 0.68711001
3.2378671 -8.3252115 0.50582999
3.250412 -8.3289709 0.33446199
3.25771 -8.3192406 0.172194
3.25914 -8.2946539 0.021361001
3.268815 -8.2911224 -0.117068
3.2811241 -8.2942076 -0.245496
3.288532 -8.2849388 -0.35998499
3.2941339 -8.2711706 -0.46219999
3.311106 -8.2858839 -0.55163801
3.3245339 -8.26402 -0.685422
3.372699 -8.2730455 -0.77886498
3.4104891 -8.2563515 -0.627096
3.4391379 -8.2714539 -0.46505201
3.4536009 -8.2792435 -0.36228499
3.470464 -8.2926903 -0.24742199
3.482621 -8.2947807 -0.118171
3.490165 -8.2859144 0.02155
3.5127299 -8.3125896 0.17392901
3.5248139 -8.3143806 0.337827
3.5417831 -8.3276215 0.51244497
3.553663 -8.3287878 0.69677699
3.575114 -8.3523159 0.89219898
3.5809109 -8.3392143 1.0920039
3.6002281 -8.3575153 1.3044339
3.61725 -8.3704033 1.523771
3.6291959 -8.3714724 1.746853
3.65115 -8.3954859 1.981315
4.1949182 -9.5853338 2.802901
3.9051239 -8.8394232 3.35671
10.640922 -24.010975 9.8226995
4.3164258 -9.7095098 4.2576618
4.141252 -9.2864962 4.3437629
3.4268019 -7.6605358 3.8040781
3.3031149 -7.361135 3.864459
4.4842181 -9.901042 5.9973788
4.0356269 -8.8831882 5.600462
4.0372882 -8.859561 5.792644
4.051096 -8.8626614 5.9891319
4.0507879 -8.8349257 6.146966
4.0336618 -8.7707262 6.262187
4.0408859 -8.73312 6.4940538
3.557812 -7.5965552 5.8694949
4.055099 -8.6583519 6.6898942
4.136436 -8.7265615 6.6121578
4.4045801 -9.2369146 6.7826109
4.1645079 -8.7074986 6.2610989
4.1787782 -8.7114162 6.1106191
3.862802 -8.0288286 5.475987
3.916373 -8.1161184 5.361608
3.9723639 -8.2078648 5.2340679
4.04702 -8.3374634 5.1137629
3.0492959 -6.2635369 3.6808341
4.1459808 -8.491209 4.7632909
4.4292402 -8.9919729 4.2820849
4.4715509 -9.0514259 4.0452809
4.519989 -9.1228666 3.807873
4.5591722 -9.1752043 3.5588341
4.5886822 -9.2078304 3.2994361
4.5496969 -9.1031923 2.9936309
4.5699148 -9.1172037 2.7320001
4.5862851 -9.1234856 2.4706309
4.6000261 -9.1244869 2.2114501
4.6128039 -9.1235104 1.957265
4.6170788 -9.1057749 1.706063
4.6209788 -9.0873728 1.461369
4.616477 -9.0525351 1.2226959
4.5940599 -8.9828701 0.99081099
4.6034122 -8.9755135 0.77618301
4.5921931 -8.9281397 0.568528
4.631413 -8.9788237 0.377938
4.6419039 -8.9736195 0.194721
4.6294422 -8.8989849 -0.13176601
4.4663992 -8.5613232 -0.265773
4.686028 -8.9570169 -0.40824601
4.7041068 -8.9662914 -0.52565902
4.4418449 -8.4426031 -0.58977097
4.63484 -8.7601538 -0.76260298
4.6540909 -8.698801 -0.86006898
4.5349102 -8.3824749 -0.66904199
4.5097532 -8.2900286 -0.48993799
4.347096 -7.969039 -0.36660299
4.6460481 -8.4936724 -0.26646101
8.0023537 -14.391045 1.267041
5.0356479 -9.0312366 1.015439
5.0272779 -8.9917402 1.23954
5.0352788 -8.981595 1.475984
5.0579829 -8.9976616 1.724852
5.0634079 -8.982955 1.974188
5.0798569 -8.9877672 2.2342939
5.1185889 -9.0318737 2.511785
5.1206231 -9.0112782 2.7765069
14.075603 -24.505333 10.569562
4.0085402 -6.8861508 4.0165229
4.072454 -6.5351672 4.0685859
5.3850551 -8.5970974 4.8588691
5.310739 -8.4566793 4.5265799
5.722528 -8.6385927 -0.28519699
5.7548981 -8.6656551 -0.42010999
5.672761 -8.5205574 -0.53141397
5.9204721 -8.8703184 -0.65931201
6.0258808 -8.9831381 -0.83234203
6.0266151 -8.8948736 -0.93667001
6.0324311 -8.815258 -0.74985403
5.8411369 -8.493434 -0.53514701
5.969769 -8.6589909 -0.42475101
10.151679 -14.47225 1.360257
6.3502569 -8.7693577 4.3383741
5.801455 -7.8573551 5.8110509
4.9918542 -6.744514 5.157104
4.964293 -6.691082 5.2692862
5.1568251 -6.9337902 5.60533
5.1327009 -6.8681231 5.7864151
5.1581922 -6.8360162 5.9921818
6.236517 -8.2650909 7.244853
4.9552178 -6.4730711 5.4031062
5.0162778 -6.5215292 5.2035408
7.2030311 -8.7206697 -0.45679
7.1233058 -8.6038628 -0.579889
7.153481 -8.6199703 -0.692509
7.0841818 -8.4964008 -0.851215
7.3824372 -8.771246 -0.99946201
7.3598232 -8.6626949 -0.79796302
7.3524041 -8.6134834 -0.58792502
7.9351721 -9.2311296 -0.15989999
12.549838 -14.531285 0.370056
12.648719 -14.577484 1.0929019
6.8730021 -7.4900012 6.4291921
6.948061 -7.3294048 6.5511608
7.636426 -7.8890681 4.9770088
8.5441542 -8.7656279 4.5782051
14.190859 -14.225014 2.417676
9.7468338 -9.6130323 -0.17982499
9.5837269 -9.4084263 -0.54237801
8.9745312 -8.789978 -0.652161
8.9075785 -8.7041779 -0.76994801
9.0713568 -8.8232193 -0.97373801
9.4058657 -9.0640736 -1.138768
9.167407 -8.7526789 -0.88976902
10.183452 -9.6329117 -0.385811
12.192268 -9.7424974 -0.20500401
11.357155 -9.0106516 -0.75263798
11.188261 -8.8555231 -0.88212699
11.520724 -8.9034491 -1.022121
12.534972 -9.6409388 -0.82097
11.618871 -8.4739199 6.1434169
11.980225 -8.0541706 6.1669879
12.074606 -8.0973263 5.8254132
12.88363 -7.596909 4.0066581
17.732746 -9.1414871 3.3338349
8.8978367 -3.9032691 5.7808828
8.9603052 -3.9182999 6.0106001
8.8398561 -3.8534341 6.0988598
7.7983379 -3.388659 5.5155358
8.7516823 -3.8029211 6.1898079
8.3807878 -3.618691 6.1606531
8.3029213 -3.5394771 6.315526
7.5436692 -3.1745679 5.603725
7.8225369 -3.2705929 5.6196728
8.5684929 -3.5824759 6.1555638
8.6027727 -3.5851049 6.0455928
8.7681456 -3.6421061 6.0047841
8.7909651 -3.639631 5.847755
12.673555 -4.2093148 4.63869
11.474198 -3.7813959 4.8408728
11.382067 -3.736392 5.117681
11.114604 -3.634306 5.3006902
8.6972418 -2.83268 4.381103
8.6152964 -2.794934 4.5656829
8.4007187 -2.7145491 4.6646948
8.2870264 -2.667177 4.8036041
8.2406588 -2.6417019 4.967237
8.7123737 -2.7817559 5.4413729
8.6579857 -2.7533209 5.5838518
8.5542059 -2.709389 5.6749859
6.7999349 -2.145062 4.6252131
7.971261 -2.5145609 5.4219322
8.1828976 -2.560451 5.7864151
7.798737 -2.4005229 5.7095432
7.9075789 -2.3938761 5.6568298
6.7523551 -2.027041 4.6727481
6.8677111 -2.052984 4.649703
8.2904463 -2.478286 5.6129489
8.668952 -2.580477 5.7204199
8.7245369 -2.5859871 5.5927529
8.487258 -2.5049441 5.2649708
8.2635155 -2.428484 4.9438391
8.4090815 -2.460649 4.8345232
8.4929543 -2.474493 4.6740379
8.5957708 -2.493614 4.5116668
8.6897783 -2.509954 4.3322902
11.055267 -3.1793029 5.2144032
12.474463 -3.5560851 5.1975679
12.645287 -3.5889161 4.916254
14.915882 -3.366214 3.309243
12.943729 -2.8897159 3.5527911
9.2643223 -2.0344551 3.2946939
9.2833548 -2.0273521 3.5538981
9.1937466 -1.9854389 4.0180888
10.711757 -2.3002639 4.9662752
10.330009 -2.2057409 5.0593061
9.8552303 -2.0804751 5.3220029
9.7282276 -2.041867 5.4847951
7.2911448 -1.52152 4.2752681
9.8090906 -2.0350831 5.9603539
7.3234401 -1.5105309 4.595787
6.9910431 -1.433521 4.5134768
7.0695992 -1.441076 4.6801782
6.50388 -1.310055 4.4774232
6.4605608 -1.270154 4.6070771
7.006351 -1.34372 4.8845448
7.0424018 -1.333696 4.7506452
7.0682669 -1.3301049 4.6654849
