# .PCD v0.7 - Point Cloud Data file format
VERSION 0.7
FIELDS x y z
SIZE 4 4 4
TYPE F F F
COUNT 1 1 1
WIDTH 1540
HEIGHT 1
VIEWPOINT 0 0 0 1 0 0 0
POINTS 1540
DATA ascii
0.23222899 -3.8372509 0.462558
0.300744 -4.8758011 0.700248
0.347711 -5.5332098 0.92645901
0.35148099 -5.4918189 1.053565
0.363803 -5.4853311 1.3300869
1.847418 -26.467512 8.5090876
0.58043402 -5.6057038 3.463727
0.69233203 -5.5563922 0.93568897
0.61430198 -4.884202 0.70564002
0.97426099 -7.74617 1.11912
0.63980401 -5.039907 0.61128801
0.97739798 -7.6992288 0.93383598
0.985228 -7.6898499 0.76133502
0.99159497 -7.669302 0.59504497
1.001036 -7.6725779 0.43815601
0.70873499 -5.3837519 0.203137
0.71558797 -5.3876758 0.10475
0.66297197 -4.9477658 0.011965
0.700773 -5.184402 -0.068719998
1.031738 -7.6329212 -0.101175
0.69467402 -5.094913 -0.141525
1.035259 -7.5928459 -0.210913
1.043431 -7.5873451 -0.309302
1.05012 -7.571228 -0.396824
1.0562021 -7.5509319 -0.47136
1.069702 -7.5208521 -0.58453399
1.130577 -7.454196 -0.52926701
1.156673 -7.5092068 -0.39443901
1.187284 -7.534368 -0.10019
0.767542 -4.8344359 0.011733
1.20047 -7.5612741 0.018351
1.206303 -7.5417161 0.147202
1.215179 -7.5413809 0.28575301
1.225179 -7.5479612 0.433011
1.238029 -7.571775 0.59036499
1.250289 -7.591723 0.75556898
1.253123 -7.5545378 0.92141199
1.2620111 -7.5540218 1.097836
1.766994 -9.2554893 5.9593501
1.620295 -8.129384 5.8001251
1.2058409 -5.907382 4.1280789
5.058826 -23.531162 12.717308
5.170341 -23.520025 10.287611
5.1995349 -23.523193 9.6531048
5.2236972 -23.503616 9.0050764
1.938777 -8.675971 3.087976
5.2790642 -23.496082 7.7233191
5.3051229 -23.48517 7.0825
5.3383121 -23.505533 6.4571261
5.3886499 -23.475876 5.212719
1.806286 -7.745882 1.14012
1.814324 -7.7398529 0.95653403
1.82306 -7.7368789 0.78058898
1.82849 -7.7199612 0.610466
1.833661 -7.7020512 0.44833201
1.838871 -7.6845188 0.29558501
1.848709 -7.6863322 0.152366
1.855108 -7.6739321 0.018923
1.85886 -7.6507401 -0.103421
1.866927 -7.6453772 -0.216608
1.874703 -7.6389122 -0.317655
1.8775049 -7.6123252 -0.40703699
1.887413 -7.6145949 -0.484997
1.901804 -7.5974331 -0.60263997
2.0000789 -7.6875291 -0.55762899
2.0244069 -7.7078538 -0.41372499
2.0545311 -7.7859249 -0.325201
2.0639131 -7.7850099 -0.22167
2.073781 -7.7858591 -0.105838
2.0958741 -7.832407 0.019433999
2.100656 -7.8140631 0.15594999
2.120584 -7.8519979 0.30425701
2.1358399 -7.8723402 0.46190101
2.146245 -7.87463 0.62803501
2.166081 -7.9113722 0.80550998
2.1758239 -7.9110589 0.98723602
6.6948509 -23.698196 6.5968571
6.8201571 -24.03557 7.3494649
6.8939619 -24.083483 8.7015228
6.929409 -24.10203 9.3795576
6.872901 -23.801752 9.926857
2.61255 -8.8931427 4.6723642
2.8200641 -9.5180845 5.4775481
2.544842 -8.5528841 5.1220579
2.6360741 -8.8221521 5.4781871
2.094291 -6.9503779 4.590982
2.2728951 -7.3279219 5.3684258
2.340148 -7.4232912 5.3291602
2.0377901 -6.386847 4.3487558
2.270864 -7.0609269 4.55861
2.77227 -8.552125 5.1603899
2.8661699 -8.7725925 4.8763232
7.8337288 -23.606619 10.625464
7.986598 -23.974585 10.125476
8.0082941 -23.584227 6.6721568
2.728724 -7.8566351 1.000735
2.7443459 -7.8722558 0.81870401
2.7789459 -7.941977 0.64744502
2.8011651 -7.9758649 0.478692
2.829524 -8.0269365 0.31838799
2.866945 -8.1031837 0.16566201
3.0202119 -8.3517227 -0.54904598
3.0247271 -8.3041592 -0.68005198
3.056746 -8.272892 -0.76887703
3.0896189 -8.2444239 -0.61806202
3.1153071 -8.2548342 -0.45805299
3.13464 -8.2771034 -0.357443
3.1565809 -8.3060522 -0.244561
3.1599891 -8.2861366 -0.11649
3.184478 -8.3214626 0.021356
3.1895759 -8.3059864 0.171481
3.2147751 -8.3427906 0.33446199
3.2294281 -8.3520441 0.507074
3.2361579 -8.3407488 0.68841398
3.250634 -8.3494415 0.87988502
3.2626171 -8.3516674 1.078863
3.2809551 -8.3700266 1.288684
3.2932351 -8.3728724 1.503498
3.3088019 -8.3839989 1.725605
3.3318269 -8.4138222 1.9584709
3.8629961 -9.6573629 3.0596671
3.3746099 -8.2968941 3.8263769
2.349714 -5.738966 2.970269
2.4857221 -6.051188 3.297663
3.877537 -9.4393911 5.1441021
4.2113361 -10.118472 6.520751
3.5856669 -8.5316 6.0031452
3.8528979 -8.7396584 5.8702712
4.1447701 -9.1991701 4.5736461
10.896514 -24.109842 11.302741
3.9822719 -8.7572298 3.598037
4.031219 -8.8376932 3.3741
11.063853 -24.107601 7.8026872
4.3304019 -9.4069862 2.774178
4.299449 -9.3113832 2.4814489
3.8688591 -8.3534527 1.992314
3.8722911 -8.3355379 1.759639
3.8796289 -8.3261213 1.534978
3.8902929 -8.3238506 1.317062
3.906101 -8.3325052 1.107295
3.9170511 -8.3307829 0.90402502
3.927563 -8.3281136 0.70851499
3.939965 -8.3293982 0.52177298
3.9445901 -8.3142881 0.344257
3.9562459 -8.313982 0.17745499
3.963999 -8.3055058 0.022058001
3.9758601 -8.3056364 -0.120956
3.9860411 -8.3022041 -0.25347501
4.0003991 -8.3074741 -0.37237301
4.0148239 -8.3128242 -0.479258
4.026104 -8.3115892 -0.57095098
4.0891352 -8.3921833 -0.71833497
4.2581859 -8.537528 -0.669743
4.1291022 -8.2309666 -0.47806501
4.2692471 -8.4858351 -0.38363099
4.5330882 -8.9843693 -0.27697101
4.5389481 -8.9701414 -0.132055
4.5736818 -9.0128956 0.024225
4.5692201 -8.9783239 0.194162
4.6004162 -9.0138216 0.37857401
4.5980392 -8.9834919 0.571468
4.618608 -8.9979734 0.77825397
4.6687498 -9.0698271 1.001757
4.7250009 -9.1530771 1.239421
4.7906661 -9.253974 1.493721
4.810009 -9.2650805 1.7444659
12.697809 -24.049259 8.7219448
12.751446 -24.083351 9.465724
2.7642939 -5.1201582 3.0744469
2.7281129 -4.8367658 3.802104
3.267936 -5.6705279 3.6112781
5.1795058 -8.7982311 3.546365
5.2023482 -8.8137026 3.2823341
5.2471519 -8.8661709 3.0306001
5.304852 -8.9400311 2.7847879
8.6700373 -14.382783 2.0207031
6.0575161 -9.9704208 0.66062599
5.4526401 -8.8819418 -0.13690101
5.420979 -8.807478 -0.28464699
5.334342 -8.6443081 -0.41022399
5.3646169 -8.6709156 -0.52934003
5.4642329 -8.8091116 -0.64086199
5.6297388 -9.0292444 -0.818762
5.6258588 -8.9306793 -0.92016798
5.489584 -8.5816755 -0.52887303
5.5827951 -8.7051983 -0.417649
5.6304379 -8.757185 -0.28654501
9.4258146 -14.148261 4.5541959
6.0134988 -8.9363556 4.0285678
9.6431065 -14.2232 7.7894011
5.152328 -7.5617061 4.6124969
5.1192212 -7.494462 4.7955022
5.7581639 -8.4089222 5.6234488
5.6933918 -8.2731552 5.9751821
5.6792212 -8.2321424 6.14674
5.662107 -8.1870461 6.2955632
5.6294718 -8.1197243 6.4091229
5.5521469 -7.9687319 6.5544691
5.529283 -7.8580451 6.723145
5.6546149 -7.957593 6.6839061
5.9338169 -8.3096714 6.767695
5.9522538 -8.3151217 6.6333361
5.1118321 -7.1062379 5.3801651
4.9943781 -6.926034 5.0803871
5.7559628 -7.9240022 5.1748452
6.341855 -8.6460447 4.5806532
7.3276472 -9.5883474 0.232586
6.6940861 -8.6757393 -0.44254601
6.6089191 -8.5448914 -0.56081003
6.6206069 -8.5395317 -0.66801202
6.7921238 -8.7190027 -0.85044801
7.0201302 -8.9260788 -0.989995
6.843749 -8.6193542 -0.77261299
6.868845 -8.6099281 -0.57180101
7.4387298 -9.2801151 -0.327346
7.4140821 -9.2274303 -0.155487
8.6826077 -10.755091 0.266404
11.854637 -14.580336 1.445954
6.9653621 -8.2694712 4.9010429
10.941859 -12.899347 8.9374342
6.143127 -7.0415549 6.5385408
5.2576509 -5.9151702 5.0052338
6.2903128 -7.0277009 5.4137802
7.2916498 -8.0521908 4.9241629
13.663467 -14.572173 1.5370981
8.9039116 -9.3866501 -0.169948
8.3616314 -8.7539158 -0.62846798
8.3346214 -8.7054338 -0.74508101
8.5796309 -8.9199533 -0.95233297
8.6767883 -8.9377871 -1.085964
8.4399042 -8.6136665 -0.84656203
9.6057653 -9.6907406 -0.179234
14.291424 -14.219064 1.9797651
13.699719 -13.536061 3.2182961
13.621126 -13.427314 3.661809
10.952201 -10.647396 5.3057671
7.9019508 -7.5757599 5.5181608
6.1579461 -5.8355651 5.2141781
7.4626441 -7.0391579 6.6545601
8.1111298 -7.3198051 5.7728229
10.374715 -8.7889023 -0.84060001
10.523242 -8.7070618 -0.95881599
11.663202 -8.3765068 5.3706069
13.249848 -9.0354385 -0.991467
6.7077422 -4.1002049 4.9720941
6.4949861 -3.85727 5.1721039
13.321167 -7.499095 3.698657
8.9121284 -4.2429242 6.2426448
7.4691572 -3.545315 5.3631582
8.6370888 -4.0996861 6.2017798
7.6688852 -3.6183479 5.7226439
7.5821338 -3.534482 5.8534422
8.5000095 -3.962358 6.562047
7.6678309 -3.5312121 5.7799888
8.4570236 -3.8946531 6.3748789
7.4344029 -3.4028211 5.4191279
8.6091728 -3.9405279 6.2754478
7.5416188 -3.441323 5.3773069
8.6941195 -3.967221 6.199059
8.8028021 -3.1937871 4.485209
8.5917282 -3.1059361 4.6052952
8.2417679 -2.957814 4.831625
8.2530012 -2.9510469 5.0309582
8.9180489 -3.177175 5.6326032
8.7665911 -3.111764 5.7173738
8.6524143 -3.059943 5.8043399
7.9625549 -2.8055739 5.4763532
7.3235121 -2.561331 5.2359672
7.990922 -2.7947519 5.7131338
7.3715949 -2.5398071 5.4555678
7.6651411 -2.6012189 5.5421448
7.945251 -2.675729 5.5566921
8.5678892 -2.874357 5.862195
8.4775047 -2.833102 5.6530709
8.8456573 -2.94472 5.7299409
8.3488379 -2.768579 5.2332692
8.335619 -2.7534699 5.0389228
8.3593369 -2.7505431 4.8557801
8.5825472 -2.8129611 4.7721438
8.6423502 -2.8214519 4.582788
11.392691 -3.7193511 6.041214
8.7611656 -2.8490031 4.4126372
11.145482 -3.6100619 5.3105989
11.294231 -3.6437571 5.0697532
12.619912 -4.0552969 5.3113842
12.448648 -3.9843421 4.8885798
14.715278 -3.8395021 3.2912641
9.2153168 -2.3475771 3.303225
9.2924852 -2.3557739 3.5854261
12.734898 -3.1970651 5.609139
11.225754 -2.8043759 5.2449541
10.470589 -2.6028221 5.1677318
11.498601 -2.844229 5.970994
8.7691832 -2.1583171 4.771677
8.4540739 -2.0599821 4.994617
8.5499535 -2.07284 5.234292
6.8227172 -1.6457241 4.3135571
6.9115229 -1.658674 4.4953032
7.312305 -1.745887 4.876637
6.933424 -1.638453 4.8080282
6.489737 -1.501863 4.6609678
6.9778519 -1.580778 4.8986688
6.9461069 -1.556663 4.71805
6.864481 -1.53002 4.5620852
6.8023438 -1.5079 4.4065728
7.087605 -1.56251 4.4606929
7.1874342 -1.575788 4.3778458
7.3001299 -1.591634 4.2887101
9.7521448 -2.1143939 5.506052
9.8634768 -2.12657 5.331347
10.441674 -2.2385559 5.383122
10.672993 -2.2752171 5.226912
13.303162 -2.8036709 5.8079219
9.0915899 -1.905075 3.72206
9.2611551 -1.929408 3.5381341
12.936283 -2.6481569 3.88427
12.833204 -2.6115479 3.5082841
9.9726 -1.480202 2.965693
9.8359394 -1.424948 3.7171421
9.8322725 -1.412761 3.98019
7.5044641 -1.069407 3.2382779
7.402256 -1.046085 3.388742
7.061305 -0.98953998 3.415204
6.6308298 -0.92137599 3.374635
7.747025 -1.076475 3.9427011
6.3519821 -0.87512201 3.3879189
7.5897799 -1.036676 4.2267661
6.8901129 -0.932971 3.991014
6.964818 -0.934852 4.1809912
7.0381651 -0.93638998 4.3638239
7.220211 -0.95209002 4.6059489
6.7964411 -0.88818198 4.4461689
6.6849608 -0.857849 4.5484672
6.556457 -0.81044197 4.6225572
6.8366952 -0.81289202 4.7139311
6.6954861 -0.78034699 4.467783
7.1741018 -0.82769799 4.6845322
7.0039291 -0.79983598 4.4584212
7.013782 -0.79271102 4.3381672
6.7744842 -0.75770998 4.0557199
6.936657 -0.76770502 4.0059481
7.0664139 -0.77376002 3.9224041
7.0743942 -0.76633298 3.7597859
6.6946149 -0.71732903 3.393991
6.720192 -0.71218801 3.236798
7.3173261 -0.766891 3.3350711
7.4859309 -0.775774 3.2151
12.688717 -1.300074 5.1109052
12.898887 -1.306494 4.8489952
13.120566 -1.313557 4.5802841
7.3186402 -0.34843999 1.402747
7.1896281 -0.33392999 1.557639
12.448527 -0.54936898 3.3380189
13.003684 -0.54363298 4.1740742
12.136092 -0.493265 4.2190199
11.884115 -0.46922001 4.4482398
11.330313 -0.43417701 4.5433159
7.3844981 -0.26582301 3.3495209
7.3675389 -0.25664699 3.5309739
7.1334052 -0.240209 3.5979011
6.5161991 -0.20428599 3.5972681
6.6186752 -0.199816 3.8008471
6.3525548 -0.184398 3.781146
6.3130822 -0.175926 3.881573
8.3442039 -0.232527 5.1304002
9.0161238 -0.167518 6.309793
8.8527441 -0.123394 6.0618982
8.6734409 -0.090701997 5.626554
8.3514757 -0.077648997 5.282115
8.3309803 -0.067783996 5.120451
6.4745302 -0.045170002 3.8522179
6.7369251 -0.039188001 3.8670571
6.7574792 -0.031461 3.7286749
6.6241422 -0.023158001 3.5000391
7.1070681 -0.016593 3.5825961
7.7544022 -0.0091120005 3.7141321
11.164427 -0.013119 5.347434
10.971439 -0.00017 4.9732928
11.937343 0.013677 5.0996099
11.464841 0.026431 4.5939012
7.0012951 0.024259999 2.6185689
6.7776809 0.031355999 2.35429
6.8340211 0.039542001 2.1917861
6.6615939 0.046269 1.959632
6.8888669 0.055847999 1.845485
7.2388158 0.067079999 1.7515
6.848084 0.071401998 1.482126
6.997436 0.081084996 1.3397551
7.1680169 0.091375999 1.197919
6.9690838 0.096923001 0.99907702
12.206225 0.60926801 0.69205999
12.053503 0.62969202 1.185298
9.6396351 0.51479799 1.161531
6.9070182 0.37690899 0.991557
6.8128142 0.37969199 1.140232
6.7679381 0.38506499 1.297823
6.441771 0.37401199 1.3964601
6.495862 0.38471201 1.574422
6.666378 0.40250799 1.789075
6.5878921 0.405444 1.941571
6.7599139 0.42391801 2.172241
6.9185739 0.44193101 2.408103
6.675333 0.434174 2.5019159
7.0745192 0.46839601 2.8409209
7.3374209 0.49435699 3.1416359
7.1575408 0.49058399 3.2520859
7.275888 0.50719202 3.493392
6.7125258 0.47575101 3.3921909
6.7252312 0.48449799 3.56264
7.3376169 0.562895 4.5230041
7.274209 0.56652403 4.614501
6.7777162 0.53578299 4.4102521
6.7555699 0.54981601 4.5741992
6.973043 0.60013998 4.8971701
6.548522 0.59425497 4.5020752
6.5067921 0.605712 4.3313251
7.169775 0.67582297 4.6714711
7.1917248 0.686315 4.569067
7.4946771 0.72401798 4.627727
7.593504 0.74246198 4.5394201
7.9453878 0.78617901 4.582921
7.1560502 0.71647602 3.9683001
6.8701911 0.69591099 3.6486001
6.7431679 0.69096297 3.4169481
7.2277722 0.749098 3.480432
7.3263769 0.767914 3.3391991
6.889689 0.73023897 2.9597459
8.1855059 0.86758298 3.516417
6.9204278 0.74162102 2.7888479
7.2492738 0.78537399 2.7271659
6.9628358 0.76253098 2.4330399
6.5673952 0.72693998 2.119103
6.9017162 0.77205598 2.042882
6.7485528 0.76286501 1.81935
6.7104912 0.76645201 1.634154
6.5139742 0.75166702 1.419093
7.0444918 0.82118303 1.357807
6.6080871 0.77808702 1.111883
6.7460222 0.80226803 0.97381997
7.2857118 0.87503999 0.882945
8.7564058 1.061987 0.866202
7.5619888 0.92603499 0.58622199
6.968689 0.86160201 0.39761901
6.8549762 0.85562199 0.25842601
7.3485231 0.925901 0.14274999
6.6543822 0.84628803 0.016078001
7.251874 0.93083102 -0.096040003
7.7839899 1.008329 -0.21603
7.1958652 0.94063801 -0.29308
8.0602388 1.063146 -0.42207199
7.506362 0.99896699 -0.46815199
8.632267 1.148805 -0.53837103
7.063879 0.99021697 -0.62184101
6.7388468 0.97658801 -0.47800699
6.7657928 0.99654597 -0.35503599
6.4568939 0.95870602 -0.263623
6.5752492 0.98408097 -0.182987
6.85781 1.034521 -0.091100998
6.8799152 1.046025 0.01668
6.3072 0.96644998 0.122979
6.6909618 1.033204 0.25326699
7.3565421 1.144726 0.42159101
7.3876319 1.15836 0.575405
6.0760489 0.95993501 0.60408401
7.4640741 1.179224 0.742082
7.2595849 1.155556 0.884498
6.6169519 1.061151 0.96062398
6.847044 1.106204 1.159022
6.4281402 1.0461839 1.246865
6.343502 1.039978 1.3911721
6.356041 1.049612 1.558666
6.5985031 1.097451 1.791921
6.6260381 1.109928 1.976282
6.6910229 1.128803 2.1762111
6.6782761 1.134619 2.352978
6.9832282 1.1947629 2.6497469
6.8983359 1.188486 2.804842
6.7411499 1.169456 2.9228179
6.9381289 1.211917 3.1926351
7.7904792 1.3608021 3.5848501
6.8821611 1.218608 3.5231791
7.4005241 1.3192461 3.9718809
7.2330012 1.298051 4.0547771
8.0575647 1.455676 4.6999078
7.4770002 1.359759 4.521524
7.1777129 1.3139319 4.4847798
7.123086 1.312471 4.5808258
6.8737702 1.2747869 4.5348749
6.9163709 1.299288 4.7492909
6.6978431 1.290451 4.7727618
6.792448 1.341396 4.7404828
6.6460009 1.328509 4.4920921
6.7937222 1.366233 4.4951482
7.6003342 1.537617 4.9042101
7.4526148 1.516742 4.6743288
6.8844848 1.409434 4.1809912
7.8166919 1.609727 4.5809288
6.934298 1.436408 3.9074271
6.516943 1.357838 3.5173249
6.5644388 1.37569 3.3809371
6.6275339 1.396938 3.2441411
6.7350302 1.427754 3.1207969
7.561873 1.603036 3.5039301
6.5205622 1.390204 2.848176
6.3524699 1.362069 2.6032479
6.3056679 1.3596849 2.4125869
6.2213049 1.349056 2.2112279
6.2967091 1.373054 2.0668809
6.0995212 1.337467 1.8368731
6.021924 1.327783 1.651931
6.0967722 1.351702 1.510928
6.5183902 1.45311 1.445322
6.1029792 1.367946 1.197412
6.264833 1.411857 1.07315
6.4952812 1.4717081 0.95466501
6.4432659 1.467791 0.79514098
5.6711841 1.298828 0.57134402
6.580164 1.507005 0.66291898
5.816184 1.339137 0.45925
5.7757969 1.336903 0.33571199
5.6684952 1.318993 0.21771599
5.6552668 1.32284 0.111938
5.4912238 1.291186 0.013521
5.5184579 1.304345 -0.074486002
5.2799702 1.254451 -0.149367
5.7232642 1.366786 -0.237636
5.4244032 1.302065 -0.289608
5.691514 1.373174 -0.361958
6.1618819 1.50179 -0.48802
6.3121328 1.569484 -0.56703901
5.6401682 1.430225 -0.40847
5.8385301 1.494956 -0.312886
5.4373422 1.398952 -0.226741
5.4458299 1.407871 -0.154814
5.3896508 1.400027 -0.073146001
5.428144 1.416747 0.013446
5.6111889 1.4714839 0.111803
5.8075938 1.530189 0.22466999
5.673183 1.501812 0.33232
6.0732899 1.615278 0.48357001
6.0957832 1.628832 0.61962301
6.2222281 1.670352 0.77519
6.384304 1.721812 0.94785398
6.1584892 1.668574 1.066227
6.0348592 1.642592 1.197412
6.0676408 1.659085 1.361348
6.1529942 1.6900949 1.543851
6.0412841 1.666888 1.6788419
6.0314422 1.6717089 1.8411061
6.0791888 1.692553 2.0238211
6.1561251 1.721676 2.2204161
6.0884719 1.7103781 2.3652949
6.6698961 1.8820781 2.7769461
5.9720712 1.692656 2.6517501
6.7363601 1.917727 3.1748819
6.584136 1.8826669 3.279995
6.519403 1.872346 3.419198
6.5872622 1.900115 3.622438
6.5806332 1.906491 3.7803681
7.9427252 2.3111019 4.7481961
7.6071758 2.2230599 4.7153111
7.9286728 2.3270049 5.0785618
8.249423 2.431546 5.4392629
8.4338112 2.4965529 5.7054639
7.760704 2.31691 5.4658799
7.7588081 2.3950729 5.559659
7.1581378 2.2278781 4.9688692
8.1521912 2.5372641 5.6588979
7.4695849 2.3438449 4.9512482
7.718677 2.431865 4.9738379
7.7783308 2.460588 4.8538761
6.5165272 2.0780959 3.7740879
6.5301709 2.0908 3.622905
6.5212588 2.096307 3.4529581
5.8569851 1.890275 2.9478059
6.0070729 1.9464149 2.8623481
6.0235152 1.959482 2.7059641
5.9746518 1.951259 2.5184441
5.670289 1.859143 2.231827
5.8744631 1.933651 2.1482279
5.9619079 1.970108 2.0137429
6.2191129 2.0631111 1.92746
5.8808999 1.958504 1.66047
5.9124608 1.9766411 1.508341
5.8198709 1.9532 1.328562
5.7660551 1.9425991 1.1648819
5.9937711 2.027066 1.057327
5.9792848 2.0299051 0.90514302
5.4196382 1.846938 0.68893898
5.4709349 1.87151 0.56782502
5.4185162 1.860607 0.440837
6.3492641 2.180207 0.51656002
5.9985099 2.0675621 0.35928801
5.8268051 2.015949 0.23065101
5.4798799 1.903055 0.111803
5.3096442 1.850844 0.013478
5.2353201 1.831754 -0.072857
5.3203139 1.868436 -0.15519901
5.8548489 2.063796 -0.25071001
5.545249 1.961903 -0.30536899
5.2953091 1.880403 -0.34739599
5.190589 1.856796 -0.42418799
5.1532388 1.870486 -0.47793201
5.336678 1.965169 -0.39922601
5.3399038 1.980456 -0.29567301
5.3348179 1.985617 -0.22988801
5.5970368 2.0906141 -0.164444
5.1692882 1.93769 -0.072516002
5.365891 2.0184929 0.013741
5.3083081 2.0038781 0.109356
5.2658749 1.994846 0.210651
5.8308902 2.21663 0.35323799
5.5689168 2.1244521 0.45863599
5.3526292 2.049062 0.562841
5.5654788 2.137954 0.71737099
5.4993172 2.1198771 0.84483802
5.4476562 2.107228 0.97606999
5.6264138 2.1838861 1.15548
5.663846 2.2059929 1.315448
6.0336518 2.3580971 1.567367
6.8955808 2.704109 1.984181
6.0696549 2.3883541 1.918712
5.9110942 2.3339 2.0381739
5.7892561 2.2935641 2.1629939
6.0039158 2.3866739 2.41644
5.8060508 2.3158369 2.5046821
5.863667 2.3467109 2.698107
5.8732729 2.3584681 2.8689539
6.3108368 2.5426979 3.2588291
8.3159847 3.3618169 4.5215702
9.0888729 3.6865439 5.1823192
8.9750309 3.6525221 5.3466239
8.7647457 3.5788071 5.4341912
10.227678 4.1761489 6.341217
8.0789261 3.3097351 5.1944098
5.6624689 2.3274519 3.762712
5.5685101 2.296391 3.809516
5.522645 2.284991 3.876929
5.4940701 2.28812 4.016479
5.4511089 2.300005 4.1398339
8.2872562 3.49667 6.2937398
5.4977412 2.3498199 4.093617
5.4624891 2.3497751 3.9412839
5.4844432 2.3667669 3.874752
5.5354228 2.3963921 3.8148611
5.590415 2.4279189 3.7459559
9.0354614 3.961575 5.4437299
8.1703062 3.5935619 4.716084
8.3837872 3.6990941 4.6192489
5.5115652 2.4394591 2.8868971
5.5065479 2.444886 2.7310591
5.562799 2.4776051 2.601465
6.052094 2.703954 2.656064
5.6445689 2.5297439 2.3134489
5.7199721 2.5715261 2.178416
5.821094 2.625113 2.0479469
6.2016048 2.805377 2.0022449
6.3631659 2.8873761 1.871878
8.8692017 4.0245252 2.6090889
5.5483961 2.5254331 1.474948
5.6706161 2.5890131 1.34908
5.1836991 2.3739879 1.091548
5.426064 2.4926071 0.99782699
5.410367 2.493006 0.85391998
5.4677792 2.527169 0.72477698
5.0670881 2.3491139 0.54847401
5.2364559 2.4350221 0.44436601
4.8706279 2.271796 0.304335
5.2127109 2.438724 0.215287
5.1202278 2.402714 0.109009
4.988987 2.3481979 0.013216
4.6666541 2.203104 -0.067786999
4.9120798 2.325954 -0.14958701
4.854887 2.3057749 -0.21705601
4.6882482 2.233304 -0.269595
4.6812172 2.236634 -0.32074001
4.957798 2.3829341 -0.42326799
6.0649228 2.915066 -0.51778698
4.5949488 2.2348721 -0.44545001
4.570025 2.2490561 -0.35756001
4.6826382 2.3180039 -0.271254
5.0422039 2.503288 -0.227346
4.809731 2.3948359 -0.147881
4.9416418 2.4676881 -0.072554998
4.7818189 2.3948159 0.012819
5.1203489 2.571806 0.110435
4.5426621 2.2882569 0.19027799
4.9841561 2.5179069 0.31620699
4.5893841 2.325175 0.39587799
4.8506041 2.4645989 0.53430301
4.7804461 2.4359369 0.64557397
5.382164 2.7504351 0.86640602
5.2621999 2.6968379 0.98810202
5.5985241 2.8774109 1.205121
7.464407 3.8363991 1.606766
5.3202982 2.7422371 1.2953531
5.4603238 2.8224361 1.4871759
6.0364709 3.1290519 1.82142
5.4545779 2.8354609 1.80837
6.0727758 3.165791 2.196367
8.1448832 4.2459979 2.9457941
5.8875999 3.0779531 2.3076971
5.7860732 3.033433 2.443414
5.698328 3.004328 2.7519269
8.4205933 4.452085 4.3176742
8.1147594 4.3024621 4.3992462
5.6735959 3.0250471 3.3972621
5.5654449 2.9756961 3.4822869
5.5545082 2.9781439 3.61765
7.999938 4.301281 5.404047
8.0383329 4.3580918 5.9313102
6.4095011 3.4942751 4.92662
7.9187942 4.4371629 6.0163422
7.9248209 4.4526348 5.8964801
5.5390601 3.1461091 3.6564801
5.5151839 3.141032 3.502095
5.5995169 3.197674 3.407073
5.718101 3.2742131 3.3215201
8.4854126 4.8718772 4.6865101
5.5941701 3.2291801 2.7593911
5.6084728 3.2461209 2.5965531
8.0438271 4.680656 3.2326789
5.4324312 3.1695459 2.017103
5.3294358 3.1177509 1.816272
6.549665 3.8418169 2.034122
5.5479188 3.262887 1.557255
5.475688 3.228966 1.375731
5.295835 3.1312101 1.177856
5.0202122 2.976115 0.97524601
4.6791711 2.7812819 0.780276
4.7717781 2.843838 0.66839099
4.537251 2.7112091 0.51905698
4.6459742 2.783499 0.41674599
4.528337 2.7201779 0.299133
5.3799138 3.2317209 0.355387
4.4564948 2.684067 0.19461399
4.911839 2.9660971 0.110589
4.7424822 2.871346 0.013288
4.6199398 2.804486 -0.070992
4.6503382 2.8303399 -0.14983401
4.9162521 3.00001 -0.232592
4.6222281 2.8279581 -0.28131199
4.5729551 2.8051219 -0.33166099
4.5031052 2.7766831 -0.40707999
4.5354538 2.8257971 -0.46586001
4.4793248 2.8197899 -0.371566
4.7393498 2.9988739 -0.291163
4.768755 3.025238 -0.228072
4.4796939 2.849159 -0.14612
4.5164709 2.8799281 -0.070362002
4.5952282 2.9376559 0.013073
5.0455232 3.233789 0.115503
4.505331 2.8949511 0.200334
4.5776458 2.948931 0.30834901
4.653471 3.0054359 0.42625999
4.68818 3.0355711 0.54847401
4.5444002 2.949966 0.651905
4.7232432 3.0738699 0.80780399
4.7943978 3.1281049 0.95662099
5.9203048 3.8627031 1.181272
5.2300172 3.4209859 1.196472
5.5340199 3.6290281 1.432207
5.3147912 3.4940929 1.5389121
6.2073569 4.0808911 1.797357
5.7553682 3.793231 1.8465199
5.3675609 3.5465879 1.892467
9.5342979 6.331635 3.9755521
5.6450171 3.7772319 2.9016039
5.5752611 3.7399409 3.04318
5.5530782 3.7344351 3.2052641
10.502156 7.4412508 8.3492203
5.4902029 3.8996451 4.2590461
5.4810848 3.960664 3.2389579
5.457562 3.953325 3.05474
5.4878259 3.9849899 2.8972819
5.58957 4.068799 2.770251
10.378197 7.610075 4.1273489
9.8525877 7.2599459 3.2785039
5.9393559 4.3871112 1.78654
4.6327929 3.4303429 1.24755
4.936182 3.6638861 1.176916
5.1767588 3.85179 1.078259
4.4426899 3.3136289 0.79446602
4.34554 3.249043 0.652861
4.6619301 3.494051 0.57212502
4.2663131 3.2052889 0.41060901
4.1726408 3.142514 0.295798
4.3059368 3.2507501 0.201829
4.1720181 3.157275 0.100839
4.5331988 3.4388981 0.013638
6.0023069 4.5533662 0.018058
4.4396801 3.376087 -0.073264003
4.4328618 3.3790491 -0.153411
4.3873048 3.3523879 -0.22298799
4.358089 3.3380909 -0.28499299
4.200551 3.2251849 -0.32740399
4.1965628 3.2376499 -0.40784699
4.1850491 3.2599249 -0.46247301
4.120501 3.240536 -0.36799401
4.9500899 3.8929601 -0.442083
4.2820768 3.38375 -0.28333399
4.289814 3.3979671 -0.221011
4.4020309 3.4951849 -0.154704
3.9298279 3.1277201 -0.065975003
4.167285 3.324626 0.012778
4.4125209 3.528682 0.108893
4.1137629 3.2976091 0.19723099
4.0828772 3.2806499 0.29658899
4.2855368 3.4517021 0.423421
4.5632291 3.684113 0.57593697
4.2710028 3.456389 0.66110402
4.4149399 3.5813811 0.81489903
4.746943 3.859853 1.022385
4.7361512 3.8602271 1.169771
4.7850318 3.9093421 1.337235
5.7409792 4.6903439 1.604385
5.6112399 4.5952291 1.754793
5.5048108 4.518662 1.907846
5.4027982 4.4454198 2.058121
5.3406382 4.404685 2.2201869
5.2806058 4.3654728 2.379884
5.1984029 4.3076739 2.5250361
5.1440811 4.2727451 2.679496
5.0827379 4.2317619 2.8253911
5.0033259 4.1754789 2.9540019
4.9544158 4.1444321 3.0938139
4.9286928 4.1326389 3.2422969
4.947825 4.158462 3.415014
4.9932909 4.2065778 3.602582
4.9823389 4.2072392 3.7430999
4.9682732 4.205255 3.8726699
4.9749832 4.2208462 4.0098591
5.0083351 4.259141 4.1580219
6.3936262 5.4500141 5.449687
6.4710331 5.5942369 5.985302
4.9076648 4.2826509 4.4597039
4.8630199 4.2636132 4.2865748
4.8436279 4.256556 4.1827731
4.8097901 4.2367148 4.053791
4.8403168 4.2735968 3.968493
4.8705158 4.3103209 3.869602
4.87642 4.3256402 3.741607
4.8321648 4.2964201 3.5677979
4.8871899 4.3555031 3.4589281
4.954 4.4253769 3.3485279
8.7206793 7.8083301 5.6066189
5.562355 4.9920602 3.387917
10.124623 9.1078186 5.8177428
5.9915142 5.4023771 3.2325799
6.1407261 5.5498419 3.0956919
5.2198558 4.7286048 2.4464929
5.2407708 4.7586279 2.2702711
5.260242 4.7874489 2.092268
5.3014631 4.8362331 1.9223371
5.3532138 4.8948278 1.755028
3.912497 3.5858171 1.148558
5.4393082 4.9851441 1.596771
5.2836528 4.8537869 1.373602
4.5769768 4.2144022 1.039691
4.0633831 3.7502091 0.79262102
3.9574549 3.660965 0.64867997
3.971417 3.682436 0.53185999
4.0241408 3.7400119 0.42273101
3.9689779 3.6973441 0.307161
3.982872 3.7189231 0.203848
3.9273059 3.675585 0.103671
3.7589309 3.5261879 0.012354
3.780751 3.554909 -0.068167999
3.971931 3.7433679 -0.15021899
4.1721392 3.941201 -0.231785
3.8274269 3.6239769 -0.27363899
3.7175429 3.528131 -0.316852
4.4263692 4.220397 -0.470604
4.1116261 3.956898 -0.497473
3.9025991 3.7907741 -0.38192999
4.56949 4.4385548 -0.44719499
3.9224241 3.827764 -0.284527
3.728632 3.647099 -0.21064
3.5275891 3.4584661 -0.135968
3.7478311 3.6829369 -0.069022
3.864984 3.8068819 0.013003
3.8513169 3.802242 0.104307
3.6900821 3.651521 0.194203
3.909359 3.8774891 0.31179699
3.9377639 3.9147451 0.427257
3.8329079 3.81935 0.531371
3.8628969 3.858171 0.656923
4.0756822 4.0801601 0.82667601
4.1809411 4.1952538 0.98975003
5.1041598 5.1216331 1.208303
5.8806982 5.9145312 1.5968
5.923656 5.9715891 1.820348
6.056222 6.1194048 2.083081
6.0083518 6.085022 2.290813
6.0418239 6.1331429 2.5325079
5.879149 6.0097442 3.1443851
5.838429 5.9820142 3.349371
7.712173 7.9018378 4.424293
8.7323341 9.0096703 6.0096531
6.4518571 6.672245 4.6786661
6.3333712 6.5649428 4.8197951
5.7943659 6.0342202 4.8019609
5.7567272 6.0089879 4.951025
5.6870079 5.9500241 5.0586638
5.5041318 5.7720881 5.0442538
4.597115 4.8546672 4.5121059
4.3261199 4.6112132 4.4241929
6.0151958 6.4116001 6.1515608
4.527164 4.870645 4.5529199
4.5211082 4.8868461 4.4125371
3.370877 3.6520619 3.223881
4.5510259 4.9306531 4.3525658
5.387301 5.850297 5.0298219
3.553982 3.868432 3.2286229
5.769671 6.2948122 5.0803871
6.0230041 6.586534 5.123054
4.6352568 5.080791 3.794862
6.0751081 6.6590381 4.97366
8.2826633 9.0999708 6.5016079
6.4219999 7.0721998 4.815506
5.105865 5.662323 3.2571349
4.5202351 5.0245829 2.7081361
4.5488939 5.0682588 2.547106
4.5521908 5.083807 2.370368
4.5771189 5.1236 2.2033911
4.6385732 5.2045379 2.0507841
4.7073331 5.2940631 1.897754
4.7569022 5.3623319 1.734333
4.8199062 5.4460759 1.573926
4.8969641 5.5461192 1.416474
3.6327419 4.1239471 0.918383
3.830543 4.3586831 0.83178401
3.6555951 4.1693769 0.66719598
3.3711791 3.854003 0.50283301
3.3939061 3.8890841 0.397183
3.8908989 4.4690652 0.33554301
5.0471311 5.8107119 0.28792101
3.616895 4.1738849 0.106446
3.659143 4.2325549 0.013411
3.444941 3.9941471 -0.069284998
3.4921019 4.0583549 -0.147358
3.7299311 4.3449392 -0.23126
3.615073 4.221046 -0.288519
3.3909359 3.9686661 -0.322714
3.4137101 4.0141511 -0.40546799
3.5950179 4.2673669 -0.48644301
3.4488831 4.1327028 -0.377868
3.487128 4.198319 -0.28333399
3.4203489 4.1276588 -0.216491
3.362272 4.0671711 -0.14523999
3.856672 4.6762791 -0.079621002
4.681829 5.676796 -0.096657
3.7861199 4.6016049 0.014283
3.455292 4.2094831 0.104962
3.407479 4.1610732 0.201193
3.458957 4.233952 0.30959201
3.6477909 4.4757018 0.444289
3.367152 4.1411748 0.52413899
3.354948 4.1359639 0.64079499
3.3358021 4.1221452 0.76012701
3.4857061 4.3176241 0.92728299
3.4524529 4.2866058 1.053753
3.515141 4.3748388 1.214552
4.8209219 5.9999738 1.6657259
4.593359 5.7438951 1.970208
4.511734 5.6552711 2.128108
4.7859721 6.01334 2.4648049
3.982553 5.015821 2.2246809
4.1733479 5.2686639 2.5138271
4.0867772 5.171711 2.641186
4.023376 5.1036439 2.776284
3.9542019 5.0278912 2.8995049
3.909173 4.9825411 3.0333371
3.8510101 4.920157 3.14957
3.818306 4.890058 3.2781341
3.7857151 4.8599539 3.3991909
3.7310359 4.8012438 3.4902079
3.6973729 4.7693558 3.5904269
3.647356 4.7161331 3.6642721
3.52351 4.5669398 3.6480911
3.5747509 4.6445069 3.8018291
3.3347609 4.3535709 3.700979
3.431282 4.5229578 3.972429
3.3203149 4.4191618 3.78459
3.314328 4.4325972 3.6683669
3.5253019 4.7261839 3.8246851
3.553921 4.7761102 3.7651501
3.6977601 4.9814939 3.812979
3.5917649 4.8504548 3.5909381
3.593272 4.864285 3.4712911
3.7018411 5.0234642 3.4431551
3.68365 5.0109472 3.2860751
3.7941451 5.1738458 3.234194
3.780194 5.1673889 3.0665989
3.8528221 5.2795181 2.962672
4.0096741 5.534843 2.5562141
3.8675721 5.3517699 2.293587
4.3618188 6.0504689 2.392122
4.299448 5.9785681 2.1662059
4.4678001 6.2279272 2.0532701
4.5188861 6.3146009 1.878724
4.0846782 5.721869 1.521469
4.2324591 5.94348 1.3969181
3.1970191 4.5004959 0.92250299
3.0865531 4.3556919 0.76523602
3.2225051 4.5587678 0.671736
3.5552509 5.0418992 0.60584301
3.2008791 4.55055 0.428101
3.1901591 4.5465298 0.314511
3.19119 4.5592461 0.208184
3.3088679 4.7390871 0.111398
3.3262579 4.775794 0.01395
3.383193 4.8695831 -0.077887997
3.250706 4.6905141 -0.15707
4.0729198 5.876904 -0.196798
3.2563441 4.710319 -0.23126
3.321151 4.8160028 -0.303709
3.1519079 4.5819702 -0.343817
3.0394289 4.4404988 -0.41406101
3.140878 4.6347651 -0.48809299
3.077889 4.587553 -0.38781199
3.309058 4.9569569 -0.309412
3.205373 4.8137279 -0.23356
3.177397 4.783742 -0.158061
3.373235 5.0914159 -0.080225997
4.139226 6.247571 -0.098443002
3.1305261 4.7370138 0.013609
3.45351 5.2389712 0.120937
3.2254989 4.9054608 0.219623
3.2289481 4.9231448 0.33339399
3.0889599 4.721664 0.43416199
3.2714059 5.013237 0.58785999
3.6634631 5.628304 0.80804199
3.2007849 4.9299998 0.84256798
3.788332 5.8349681 0.99723297
3.2731099 5.0542331 1.006233
4.331255 6.722363 1.7306629
3.976429 6.203095 1.97383
10.542742 16.488413 5.7569828
4.4646139 7.0908499 3.7982979
3.2944801 5.2594609 3.128413
3.1224661 4.997736 3.1136899
2.950628 4.7349348 3.078403
5.2983508 8.5023737 5.527792
2.746063 4.4180808 2.985918
2.937433 4.7382479 3.316875
4.8914328 7.9106498 5.7163272
3.250159 5.2699709 3.915885
3.209223 5.2171578 3.973254
3.1774011 5.1923971 4.1082211
3.140229 5.1856141 4.2418818
3.1054511 5.182353 4.1365528
3.1326151 5.2553349 4.0550919
2.853081 4.8245201 3.444876
2.8653669 4.8581572 3.3557351
3.0970371 5.2649031 3.5061381
3.0543971 5.2062531 3.3305891
4.1591649 7.1462669 3.9603579
3.198144 5.5841789 2.063827
4.2825069 7.5383248 2.097662
3.448782 6.103724 1.3422
3.436909 6.0992289 1.1698999
4.1825891 7.422533 1.4237241
3.1958439 5.6868529 0.93508297
3.0181921 5.385375 0.74281597
3.00506 5.3765669 0.60486603
2.9912541 5.3664842 0.472752
2.9216239 5.255919 0.340518
2.7800679 5.0149632 0.21450201
2.8153291 5.0925188 0.11215
3.057126 5.5450859 0.015177
2.9097631 5.2923141 -0.079333
2.8993969 5.2880092 -0.165984
3.2131679 5.8764448 -0.27048299
3.017709 5.5342278 -0.32724699
2.8369811 5.217207 -0.36714101
2.9096539 5.3805761 -0.47068101
2.8930249 5.4097452 -0.53481799
3.222827 6.0943489 -0.48396
3.247556 6.175786 -0.362243
3.036546 5.7908201 -0.26406699
2.809274 5.3725562 -0.16686501
3.0849249 5.9164591 -0.087646998
2.7932241 5.3722172 0.014513
2.991714 5.7703509 0.125273
2.8256111 5.4654908 0.230165
3.118664 6.0495362 0.38540801
2.8754089 5.5936279 0.48395401
2.9330781 5.722137 0.63144898
2.864326 5.6040249 0.75727099
3.8664889 7.5864921 1.220574
3.1650469 6.2280402 1.167428
5.0965381 10.05763 2.1586511
3.7910719 7.5030098 1.81929
3.775826 7.4944348 2.030405
4.6267438 9.2097301 2.760982
4.952394 9.8579502 2.9553111
3.150351 6.3257499 2.4546959
3.905829 7.8427119 3.0433509
4.5910559 9.245491 3.86077
4.3494539 8.7845688 3.9277461
3.4801569 7.0700822 3.572052
3.1471031 6.4122682 3.421252
3.305238 6.754282 3.7905569
3.2339029 6.6279821 3.896667
3.073745 6.3183579 3.876991
3.6153381 7.4316492 4.5601149
2.7863319 5.761539 3.807734
2.3542311 4.9410262 3.693706
2.7571771 6.0190892 4.0690279
3.309705 7.247498 4.740365
3.384047 7.4331112 4.6879601
3.086648 6.8008199 4.1209641
3.5044911 7.7453289 4.4918418
3.3015139 7.3193679 4.0475821
3.0118971 6.6980252 3.5175819
3.2495151 7.2489371 3.6009519
4.4410701 9.9690084 4.3729649
4.4599771 10.042791 4.1098399
4.7784519 10.793723 4.1002388
4.6462131 10.528015 3.6906409
4.1027141 9.3257723 2.9970169
3.3094189 7.6183858 1.590219
2.672183 6.171041 1.12375
2.5910749 6.0028319 0.93721199
2.6196761 6.088532 0.79753
3.0054071 6.9850311 0.91496098
2.6569049 6.1948538 0.66194099
2.445708 5.7207451 0.478737
2.4443109 5.7359142 0.35306901
2.3949211 5.6381512 0.229156
2.501471 5.9080658 0.123654
2.605104 6.1727772 0.016059
2.7214041 6.4692988 -0.092191003
2.628438 6.2686772 -0.187086
2.5645339 6.1362338 -0.26858601
2.5694931 6.1682129 -0.34689701
2.61217 6.2912512 -0.42113301
2.7480669 6.6621771 -0.554537
2.5743461 6.3242168 -0.59526497
2.5029669 6.2315922 -0.471425
2.419091 6.063457 -0.33891201
2.541069 6.3907371 -0.27774599
2.566057 6.4754629 -0.191709
2.621716 6.6384382 -0.093754001
2.386059 6.0623178 0.015616
2.4176409 6.1635709 0.12760399
2.2964621 5.8746848 0.23595899
2.3292561 5.9790349 0.36335799
2.40433 6.1930161 0.51119
2.4968569 6.4535379 0.679533
2.6627281 6.9060669 0.89059103
2.486316 6.470922 0.99368501
2.360559 6.164988 1.103147
3.530659 9.2854338 2.1498971
3.382242 8.92628 2.3095441
2.8351829 7.508563 2.1500471
3.904536 10.376986 3.2614429
2.7326119 7.2880578 2.4962599
3.242991 8.6798792 3.218569
2.978091 7.9991541 3.192378
3.678689 9.9161615 4.2379489
2.4516561 6.6321831 3.020638
3.1930971 8.6688166 4.187624
4.0572858 11.134302 6.2614832
3.3551731 9.3762541 6.2982349
3.2131701 9.4972658 6.3409972
3.2448831 9.6648321 6.0656838
2.6568429 8.0056028 4.4568038
2.7646911 8.3630447 4.4400969
2.8964839 8.7959232 4.4355321
2.259052 6.8870711 3.2855279
2.8327579 8.6360998 4.119915
3.301271 10.104041 4.5409751
3.283447 10.089103 4.251339
3.2172301 9.9247332 3.902106
3.160234 9.7876387 3.5726149
2.3593619 7.3363228 2.471523
2.25841 7.0504589 2.1777761
2.8358331 8.8886137 2.4993739
2.2084999 6.95013 1.764434
3.390867 10.71406 2.432066
3.007586 9.5415163 1.915333
3.1651781 10.123303 1.5203969
2.124202 6.8496871 0.70425999
2.0986919 6.79527 0.54724801
2.046958 6.6551619 0.39428401
2.0305419 6.629138 0.259361
1.991502 6.5287471 0.13155399
1.991316 6.5828099 -0.090338998
2.0692999 6.8693771 -0.197459
2.1069419 7.023818 -0.29614699
2.09568 7.0158291 -0.38012901
2.0260341 6.8115029 -0.439336
2.0343621 6.8980069 -0.55338597
2.239466 7.7254491 -0.70122099
1.991719 6.991962 -0.51036
1.907944 6.7573538 -0.36452401
1.909498 6.7929711 -0.284969
2.051692 7.3314471 -0.209537
1.93858 6.9583821 -0.094884001
1.9111609 6.890861 0.017139999
1.90281 6.8918161 0.137798
1.979121 7.200748 0.27936
2.060421 7.5307102 0.44211301
2.1120491 7.7547722 0.61844498
2.392518 8.8656101 1.104906
2.388737 8.8926382 1.3199
2.5474479 9.5275631 1.648046
2.592634 9.7418194 1.929999
2.589256 9.7747841 2.1883941
2.32476 8.8175755 2.2063069
1.859455 7.0857811 1.962445
1.903334 7.2874331 2.2155919
2.473937 9.5173702 3.153765
2.0765381 8.0268068 2.879945
2.5355201 9.8009901 3.516506
2.69099 10.451974 4.0366249
2.4975131 9.7474041 4.0318909
2.4802899 9.7271318 4.2883711
2.7923541 11.004307 5.1462808
2.2038829 8.7277584 4.3115549
2.103497 8.3711357 4.3509698
2.52528 10.099255 5.5004621
2.395834 9.6291122 5.4751329
2.5253439 10.251203 6.2814569
2.2480879 9.1715536 5.803771
1.9378361 7.9456892 5.1725392
1.914834 7.8912091 5.2673769
1.792158 7.9044881 5.2575822
1.801748 7.989779 5.1800218
2.1077321 9.5007696 5.5860262
2.2809989 10.338602 5.8418159
2.146697 9.83846 5.0761318
2.4891789 11.471991 5.6226029
2.1585829 10.004383 4.6392908
2.110611 9.8374968 4.298192
2.012933 9.4895716 3.6281641
2.074755 9.8373365 3.4922249
2.0056579 9.564683 3.1342199
1.900227 9.1145563 2.7388
1.941815 9.3685246 2.5630291
1.8923531 9.1835146 2.268626
2.2744 11.168766 2.1821561
2.0825641 10.287783 1.7540261
2.0667651 10.271032 1.501809
2.05337 10.266147 1.259729
1.854993 9.3306332 0.93422401
1.5951459 8.0725842 0.63317502
1.56982 7.993258 0.461279
1.5591559 8.037652 0.1578
1.54159 7.9967399 0.01952
1.528229 7.9772339 -0.106692
1.5534689 8.1603041 -0.228631
1.7147419 9.0647192 -0.37257501
1.7344919 9.2277594 -0.48744899
1.468092 8.5167551 -0.44866899
1.411437 8.2452469 -0.33783099
1.383882 8.1410894 -0.227283
1.347694 7.9843602 -0.106363
1.404985 8.3830547 0.020373
1.419274 8.5291147 0.16664501
1.330301 8.0521412 0.30530399
1.4307801 8.72328 0.50057203
1.393405 8.5576706 0.66716301
1.704491 10.783739 1.824404
1.511143 9.7066574 2.1259961
1.43413 9.2828522 2.272624
1.549327 10.184371 3.030318
1.479605 9.8026009 3.1794181
1.693105 11.305896 3.970958
1.413554 9.5910826 3.8845999
1.14873 8.3294888 5.0026679
1.089937 10.271019 4.138639
1.055301 10.055738 3.781599
1.003754 9.783246 3.1540699
0.96506202 9.7398996 2.3680999
0.87575197 9.7610931 0.55496001
0.87936801 10.063778 0.194701
0.84844398 9.8414669 0.023676001
0.85983801 10.110629 -0.13328899
0.82679498 9.8576422 -0.272266
0.66212702 10.15414 -0.41095001
0.44360399 10.292479 3.8530631
0.29508501 8.7337399 5.0160232
0.27908301 8.5550299 5.092659
0.098405004 8.4184322 5.1743832
0.089488998 8.5006714 5.0578899
0.084500998 9.0227957 5.1793079
0.087442003 10.661304 5.8828812
0.077169999 10.961636 5.7919769
0.0128 10.426147 4.1776929
-0.091349997 15.897046 3.8463399
-0.75103599 11.139419 5.6279931
-0.84560502 6.1898122 -0.54463202
-1.403097 5.7272701 -0.51406097
-0.71702498 -2.5667629 0.71392202
-0.80969697 -2.9114709 0.888946
-0.857508 -3.0972531 1.030692
-0.77960497 -2.8285649 1.019153
-0.91350597 -3.3293829 1.291244
-0.80564398 -2.949625 1.225189
-0.976924 -3.593025 1.590657
-0.67482698 -2.4933059 1.170867
-1.009553 -3.7471991 1.858794
-0.915021 -3.4119949 1.78072
-0.89595097 -3.3563681 1.835512
-0.94521499 -3.557411 2.0310121
-0.890746 -3.368072 1.999738
-0.81643999 -3.101608 1.908213
-0.93947601 -3.5858231 2.2782581
-0.960289 -3.682595 2.4069381
-0.926673 -3.5705781 2.3928771
-0.87234002 -3.393425 2.3645761
-0.782471 -3.1032209 2.2393291
-0.82900399 -3.3530159 2.3648751
-0.90929902 -3.7145891 2.534709
-0.86324102 -3.5441451 2.3662109
-0.87744802 -3.6206441 2.356159
-0.81178802 -3.366704 2.1285031
-0.72394001 -3.0176549 1.846344
-0.840828 -3.52281 2.078892
-0.87811798 -3.6979649 2.097199
-0.76921499 -3.256063 1.767772
-0.83844 -3.5675161 1.847339
-0.59236598 -2.5336111 1.246251
-0.60228002 -2.589493 1.205134
-0.76220697 -3.2943499 1.4445159
-0.69246298 -3.0087171 1.2370909
-0.89191598 -3.8753281 1.593415
-0.670753 -2.929858 1.124146
-0.64223498 -2.8202701 1.004716
-0.82712603 -3.651654 1.200794
-0.91825998 -4.0758281 1.229003
-0.91306198 -4.074718 1.118625
-1.3031681 -5.815639 1.5965559
-1.686159 -7.5657291 1.875432
-0.84180099 -3.79777 0.84185302
-0.671731 -3.047168 0.59739
-0.74919599 -3.4173279 0.58462
-0.58325398 -2.675169 0.392479
-0.65531498 -3.0224681 0.372125
-0.69072002 -3.20362 0.32183301
-0.61743599 -2.879848 0.226633
-0.69924599 -3.2799201 0.189905
-0.61112201 -2.8828771 0.110241
-0.609339 -2.8909321 0.056942001
-0.572474 -2.7316501 0.0066900002
-1.295092 -6.1797328 0.015134
-0.64372098 -3.089375 -0.041453
-0.56818002 -2.7427051 -0.077091001
-0.566984 -2.752928 -0.113512
-0.605775 -2.9585519 -0.15678
-1.066517 -5.2087741 -0.27602401
-0.694987 -3.4143331 -0.21540999
-0.63801903 -3.1719041 -0.24895801
-0.60556298 -3.084192 -0.27401
-0.59528798 -3.107712 -0.22212701
-1.060773 -5.6078691 -0.296296
-0.54579502 -2.9037421 -0.119322
-0.53405398 -2.8594539 -0.080062002
-0.75786102 -4.0839181 -0.054561
-1.051591 -5.6667562 -0.075707003
-0.57025599 -3.092859 0.0075380001
-0.51631498 -2.818568 0.055227
-0.71628302 -3.910197 0.076615997
-1.039475 -5.6745071 0.111186
-0.55341297 -3.04089 0.115625
-0.75226003 -4.160769 0.23943099
-0.578646 -3.221772 0.251874
-0.65479797 -3.6701119 0.366106
-0.52253401 -2.948457 0.36029801
-0.55516303 -3.1537781 0.45902801
-0.54665202 -3.12656 0.53039402
-0.49050799 -2.8246591 0.548877
-0.47506699 -2.7546229 0.604949
-0.49503201 -2.8903041 0.70948899
-0.70899302 -4.139544 1.016143
-0.48785299 -2.868222 0.77938902
-0.66828799 -3.929045 1.067649
-0.56591803 -3.3505759 0.99957001
-0.53534698 -3.192039 1.038021
-0.51950902 -3.1196761 1.098559
-0.474105 -2.867444 1.087013
-0.62325799 -3.7967999 1.541715
-0.484568 -2.9733901 1.286983
-0.62686199 -3.8465281 1.664906
-0.48845601 -3.0191929 1.386379
-0.59262598 -3.6901269 1.790109
-0.548666 -3.4417739 1.756863
-0.51694298 -3.267025 1.747684
-0.48833701 -3.1095171 1.7367949
-0.56217402 -3.606838 2.09532
-0.47805101 -3.0905869 1.860661
-0.45770699 -2.9818439 1.854128
-0.58197701 -3.820833 2.444355
-0.57720602 -3.819159 2.505528
-0.49022201 -3.295079 2.2482209
-0.470451 -3.26578 2.3086979
-0.451289 -3.2386839 2.2388909
-0.52095801 -3.802917 2.544101
-0.49610099 -3.652817 2.3912449
-0.453684 -3.3696611 2.1503689
-0.44258699 -3.3162191 2.0562439
-0.47831899 -3.6157751 2.1700039
-0.39280799 -2.995966 1.734401
-0.44202399 -3.4018359 1.892841
-0.49016899 -3.806742 2.027986
-0.45183599 -3.5413549 1.799625
-0.483215 -3.8224311 1.845402
-0.44289899 -3.536314 1.615515
-0.478834 -3.859405 1.66137
-0.357914 -2.912302 1.17572
-0.49163699 -4.0003839 1.614988
-0.40336299 -3.3137031 1.2485059
-0.39898899 -3.309653 1.15795
-0.62691802 -5.2003469 1.819448
-0.385928 -3.2327099 1.044129
-0.480223 -4.0623999 1.2033221
-0.51157999 -4.3709931 1.178916
-0.65272498 -5.5769491 1.504179
-0.331588 -2.8617301 0.69702601
-0.64069098 -5.5293961 1.346783
-0.31942299 -2.784848 0.60664201
-0.367167 -3.2341101 0.623151
-0.383145 -3.4099619 0.573412
-0.32216099 -2.897346 0.41787899
-0.40759599 -3.665709 0.52869803
-0.31705001 -2.8817 0.34883001
-0.42432499 -3.8567419 0.466858
-0.309304 -2.841466 0.280687
-0.39103001 -3.6312101 0.281028
-0.33839399 -3.1769099 0.180916
-0.53973901 -5.0671721 0.28856099
-0.33670399 -3.1960649 0.120223
-0.29495201 -2.8311491 0.054861002
-0.412756 -4.0067849 0.0096549997
-0.31782499 -3.1205859 -0.041203
-0.503941 -4.9479742 -0.065330997
-0.32173699 -3.1956279 -0.088398002
-0.57147598 -5.6761441 -0.157015
-0.56705201 -5.6981869 -0.23126
-0.55069602 -5.5994081 -0.29209599
-0.30989999 -3.1888599 -0.198071
-0.33366799 -3.517765 -0.271898
-0.32063699 -3.5550311 -0.31118101
-0.30300301 -3.542315 -0.249578
-0.295975 -3.5569 -0.185295
-0.43924299 -5.2786231 -0.27498701
-0.29112601 -3.5481751 -0.143776
-0.251775 -3.1126511 -0.085950002
-0.29696199 -3.724859 -0.049084
-0.39534 -4.958837 -0.065343998
-0.23841 -3.034641 0.0072960001
-0.282386 -3.6484079 0.070527002
-0.240126 -3.1496501 0.118167
-0.285685 -3.8051779 0.21608201
-0.28715399 -3.884886 0.29974699
-0.23267999 -3.198122 0.31489399
-0.248578 -3.4720061 0.41883501
-0.236256 -3.3543191 0.48201501
-0.227799 -3.2884121 0.55083197
-0.226529 -3.325752 0.63819402
-0.39779401 -5.8401551 1.120693
-0.22669201 -3.38586 0.73439997
-0.508555 -7.595757 1.647536
-0.37373599 -5.6804628 1.377355
-0.35527101 -5.4963269 1.475456
-0.327894 -5.165319 1.522496
-0.48676601 -7.6680331 2.26018
-1.454947 -23.34617 7.5019112
-1.427882 -23.345528 8.1243534
-1.346913 -23.347574 9.9906149
-0.197816 -3.4991529 1.588679
-0.158296 -3.049839 1.685102
-0.69588101 -23.23815 14.703543
-0.669254 -23.246149 14.293174
-0.079415001 -2.9988739 1.7219549
-0.56124502 -23.218527 12.271628
-0.53559899 -23.269793 11.733126
-0.481464 -23.248528 10.54069
-0.37357801 -23.21517 8.0649624
-0.1139 -7.6245852 2.445565
-0.078520998 -5.696104 1.675733
-0.10518 -7.6299782 2.2446589
-0.073303998 -5.8038788 1.554896
-0.064538002 -5.6233659 1.360658
-0.087292001 -7.6060252 1.840392
-0.032760002 -3.173363 0.68680799
-0.078162 -7.5713091 1.638652
-0.029759999 -3.2459099 0.62145799
-0.025811 -3.220243 0.53814101
-0.045178998 -5.6366582 0.94195199
-0.024676999 -3.5961559 0.51550198
-0.021317 -3.7349989 0.449417
-0.016239 -3.56581 0.35017499
-0.012271 -3.6083131 0.277652
-0.0075460002 -3.3596089 0.190244
-0.0042980001 -3.9332459 0.147138
0.000245 -3.9612639 0.076347001
0.0044160001 -3.6339869 0.0087099997
0.0087620001 -3.6996701 -0.048597999
0.013632 -3.8695109 -0.106502
0.024398999 -5.21769 -0.210721
0.020923 -3.5891061 -0.186332
0.034986001 -5.0093141 -0.30969501
0.037746999 -4.0628142 -0.31263599
0.051743001 -3.7205269 -0.32438201
0.067282997 -3.632436 -0.25503999
0.082731999 -3.7630219 -0.152008
0.081721 -3.5317171 -0.097230002
0.091329999 -3.5888281 0.0086049996
0.090962999 -3.4191549 0.065922
0.096133001 -3.463243 0.12960599
0.105634 -3.6536181 0.20697901
0.108536 -3.6096931 0.27788201
0.110317 -3.5332739 0.34714499
0.123628 -3.8184431 0.45969099
0.18229499 -5.4363451 0.77970898
0.25979099 -7.7474098 1.111174
0.18733899 -5.4008179 0.90305501
0.120315 -3.3568389 0.64308202
0.114407 -3.0922489 0.66967499
2.2556679 -26.311401 10.581482
0.52287197 -5.4342031 0.91228497
0.50975901 -5.234479 0.75388402
0.51501799 -5.2258072 0.631836
0.77244103 -7.7461362 0.76446301
0.36529601 -3.620862 0.28003001
0.370491 -3.6302979 0.20664001
0.56104702 -5.435298 0.204408
0.53845602 -5.1580081 0.099951997
0.51564598 -4.8848448 0.011773
0.81692898 -7.7389789 0.018653
0.82452703 -7.7254539 -0.102055
0.59751701 -5.5377479 -0.153301
0.58663201 -5.3215532 -0.277942
0.416078 -3.73472 -0.232317
0.420883 -3.7001309 -0.286551
0.43680501 -3.6881371 -0.32377401
