# .PCD v0.7 - Point Cloud Data file format
VERSION 0.7
FIELDS x y z
SIZE 4 4 4
TYPE F F F
COUNT 1 1 1
WIDTH 1541
HEIGHT 1
VIEWPOINT 0 0 0 1 0 0 0
POINTS 1541
DATA ascii
0.63686597 11.963042 6.0389628
0.57964802 11.131617 5.8896151
0.50912797 10.235138 5.8822279
0.38633999 8.3530502 5.2885289
0.24832501 8.2859564 5.3773069
0.26398301 9.9680729 5.9327431
0.19908699 10.203518 4.6260791
0.182019 9.9199142 4.2384791
0.18434399 10.725325 4.2982039
0.010231 11.024334 0.624273
-0.057298999 5.3628402 -0.41268
-0.075043999 4.8948569 -0.42677701
-0.116935 5.8534241 -0.41099101
-0.50286102 10.504537 4.4926538
-1.371536 12.9029 0.250083
-0.73238897 6.5292039 -0.34108999
-0.65974897 5.8205452 -0.36214301
-0.59004802 5.099803 -0.39503399
-0.55212802 4.585361 -0.40263301
-0.68478101 5.4727511 -0.387182
-0.857144 6.7234559 -0.35187399
-1.833948 13.748647 0.26732901
-1.31243 5.975327 -0.31760401
-1.190773 5.3915272 -0.34134901
-1.036023 4.6396842 -0.36580399
-0.98022801 4.2958732 -0.38413399
-1.174943 5.0411501 -0.363372
-1.452168 6.1657691 -0.32885399
-1.813941 5.461915 -0.29878399
-1.639323 4.9170308 -0.32043099
-1.446725 4.306036 -0.34953901
-1.353537 3.9675729 -0.36546201
-1.60228 4.6263418 -0.34369501
-1.143941 -3.861114 1.078775
-1.529462 -5.162353 1.442335
-1.040231 -3.5260029 1.0814101
-0.89077502 -3.0323119 1.01359
-1.170859 -4.0028329 1.448668
-0.88449103 -3.0368271 1.1829979
-0.82811302 -2.855546 1.191342
-0.861772 -2.9844871 1.327054
-0.90597498 -3.1512139 1.4862911
-0.92601901 -3.2350061 1.611703
-1.040674 -3.651474 1.913959
-0.97290999 -3.4287169 1.883163
-0.93118501 -3.2961731 1.889943
-0.9691 -3.4455781 2.054498
-1.007786 -3.5990779 2.2236919
-1.03223 -3.702831 2.36256
-0.93454802 -3.3674481 2.2102351
-0.98973 -3.582346 2.410836
-0.93970901 -3.4321439 2.4014969
-0.91874802 -3.5144451 2.4076419
-0.86591899 -3.3280549 2.2307041
-0.88180101 -3.40522 2.2246671
-0.96444499 -3.7421801 2.3751271
-0.88908303 -3.4663179 2.1290989
-0.95798302 -3.752938 2.223259
-0.80041999 -3.1508679 1.793803
-0.88544798 -3.5025189 1.9088579
-0.91696298 -3.644906 1.894603
-0.66977799 -2.6754 1.3209831
-0.87803298 -3.524529 1.64648
-0.79058301 -3.189208 1.4036601
-0.87945002 -3.56531 1.471417
-0.91605502 -3.7322321 1.437323
-0.736206 -3.014529 1.077888
-0.79685003 -3.2792661 1.082303
-0.75210601 -3.1107769 0.94143599
-0.713889 -2.9677191 0.81768501
-0.71058798 -2.969064 0.73865002
-0.96939498 -4.0504432 1.007677
-0.69502801 -2.918931 0.649369
-0.99975401 -4.1986961 0.93407601
-0.68892998 -2.9082329 0.57219303
-0.78825301 -3.344722 0.57423699
-0.75942999 -3.2391579 0.47690701
-0.70381999 -3.0176589 0.37284201
-0.67749298 -2.9200161 0.29437
-0.78815401 -3.4148669 0.26967299
-0.991023 -4.3166041 0.25079501
-0.677679 -2.967474 0.113868
-0.95533597 -4.1833 0.160521
-0.710473 -3.1277261 0.061817002
-0.672391 -2.9759769 0.007313
-0.87388903 -3.8886721 -0.052354001
-1.314561 -5.8495932 -0.078754999
-1.272529 -5.6933112 -0.16056401
-0.66978002 -3.0129349 -0.124649
-0.906555 -4.0780449 -0.168714
-1.266922 -5.69912 -0.23578
-0.66853499 -3.023808 -0.160772
-0.69060099 -3.1408319 -0.19881199
-1.263316 -5.7455201 -0.363686
-0.69280499 -3.185904 -0.25087601
-0.65617198 -3.086045 -0.27505201
-0.66407502 -3.195698 -0.22913
-1.103271 -5.3714828 -0.28468201
-0.86296999 -4.2262778 -0.174202
-1.106249 -5.4177032 -0.22331101
-0.818097 -4.0302482 -0.113187
-0.57811803 -2.8650019 -0.038392
-1.197968 -5.9368172 -0.079556003
-0.61360198 -3.059058 0.0074780001
-0.655505 -3.2876661 0.064611003
-0.842206 -4.2240582 0.083013996
-0.64146799 -3.2367401 0.123437
-0.84836102 -4.2806921 0.16325
-0.675942 -3.4314561 0.198046
-0.63907599 -3.2641959 0.25593999
-0.78981799 -4.058979 0.40607801
-0.67505401 -3.4906809 0.42779401
-0.66621798 -3.4664791 0.50599498
-0.57508999 -3.011066 0.51226401
-0.56498998 -2.9768281 0.58008999
-0.83033699 -4.4026642 0.96961099
-0.793468 -4.2340002 1.042246
-1.014834 -5.4498549 1.4850301
-0.61628902 -3.3309469 0.99646598
-0.935691 -5.0572648 1.5129009
-0.63061303 -3.4305291 1.118644
-0.74826199 -4.097127 1.446699
-0.731884 -4.0337868 1.533308
-0.66357797 -3.68154 1.4989409
-0.63340902 -3.537544 1.535265
-0.67050803 -3.7698181 1.735657
-0.59247798 -3.3535831 1.631142
-0.60439098 -3.4442129 1.762715
-0.66752303 -3.8299479 2.054148
-0.64065999 -3.7011011 2.0725601
-0.63095897 -3.670265 2.137634
-0.52587903 -3.576371 2.074909
-0.489333 -3.382091 1.805613
-0.49887699 -3.476408 1.770367
-0.50415802 -3.601913 1.5537291
-0.61467803 -4.39151 1.8943321
-0.549752 -3.960952 1.602342
-0.58534402 -4.2534409 1.605822
-0.64036602 -4.7342119 1.532143
-0.68032497 -5.0737052 1.505846
-0.721852 -5.4310579 1.467693
-0.59525001 -4.5184612 1.1026829
-0.75735998 -5.7490158 1.402988
-0.717834 -5.4979758 1.199958
-0.44501001 -3.4393449 0.66395402
-0.42522201 -3.316488 0.558743
-0.402329 -3.1669149 0.457609
-0.49446201 -3.9284451 0.47641501
-0.39812499 -3.192796 0.31596899
-0.43526 -3.5237241 0.273202
-0.42728299 -3.492322 0.19923399
-0.403438 -3.329299 0.12545601
-0.400271 -3.3354449 0.064746
-0.406524 -3.4209199 0.0082569998
-0.90060699 -7.5786538 0.018293001
-0.41294101 -3.5094841 -0.046417002
-0.47319099 -4.0619831 -0.112555
-0.577869 -4.9605641 -0.137454
-0.51076603 -4.4290118 -0.180053
-0.45543501 -3.989682 -0.20847
-0.42995301 -3.8054769 -0.23676001
-0.446495 -4.0353718 -0.312406
-0.37667701 -3.5545399 -0.31161499
-0.357719 -3.531193 -0.24915799
-0.37837401 -3.823148 -0.199449
-0.38057899 -3.8912461 -0.15789901
-0.49106601 -5.0209308 -0.20374
-0.37875101 -3.91925 -0.108373
-0.37509099 -3.9287951 -0.051842
-0.34345201 -3.64183 0.0087679997
-0.33083501 -3.551964 0.068754002
-0.322723 -3.5087249 0.13181099
-0.38032901 -4.1880288 0.238131
-0.341952 -3.8143821 0.29468399
-0.335962 -3.7968299 0.37431499
-0.315501 -3.613091 0.43639499
-0.30105099 -3.494206 0.50273103
-0.31081799 -3.656925 0.61329901
-0.31900501 -3.805299 0.73108298
-0.64605099 -7.7065129 1.480594
-0.48764601 -5.8988519 1.28097
-0.457169 -5.609024 1.361599
-0.43639901 -5.4313712 1.459672
-0.62547201 -7.7845478 2.0920839
-1.862545 -23.520725 6.9405499
-1.841452 -23.600639 7.592001
-1.766448 -23.696638 9.5214367
-1.7400039 -23.710707 10.156399
-1.7125961 -23.711809 10.776432
-0.97029799 -23.682344 13.078383
-0.886778 -23.644329 11.332896
-0.80279797 -23.584427 9.4556017
-0.71901101 -23.516644 7.5455818
-0.69075102 -23.478666 6.9095082
-0.161017 -5.6967788 1.526691
-0.218793 -7.74086 2.0744879
-0.207458 -7.6523118 1.852151
-0.198397 -7.6434178 1.654727
-0.089368999 -3.6034269 0.69009101
-0.086576998 -3.661196 0.61198097
-0.113059 -5.0263381 0.72068101
-0.172405 -7.6646962 1.098971
-0.081162997 -3.8036921 0.45777899
-0.110265 -5.167542 0.62191999
-0.076961003 -3.8128791 0.374511
-0.075923003 -3.9894819 0.30703601
-0.097283997 -5.1119599 0.39342299
-0.064382002 -3.6016541 0.20398299
-0.066582002 -3.981658 0.14896999
-0.062856004 -4.0377612 0.077830002
-0.055025 -3.8175919 0.0091509996
-0.052912001 -3.9903049 -0.052420001
-0.045834001 -3.786289 -0.104218
-0.062761001 -5.1846571 -0.142708
-0.042817 -3.9095781 -0.15789901
-0.038288001 -3.9075501 -0.20287
-0.047917001 -4.8901792 -0.25388601
-0.041641999 -4.8176222 -0.297847
-0.029993 -4.732914 -0.36419299
-0.0064440002 -3.7437949 -0.32638001
0.010672 -3.688906 -0.25896201
0.024355 -3.832798 -0.154792
0.027271001 -3.6325221 -0.099981003
0.034800999 -4.0175028 -0.052774999
0.038819 -3.954798 0.0094799995
0.043761998 -3.9890189 0.076885998
0.044751 -3.6911471 0.138091
0.064763002 -4.8777552 0.276236
0.056573998 -3.9200029 0.30166501
0.074516997 -5.163198 0.39733601
0.084959 -5.4511132 0.53537798
0.082171001 -4.9088998 0.59074098
0.129613 -7.7430582 0.93180501
0.097884998 -5.470201 0.78425002
0.120079 -5.6225252 1.217091
0.35169199 -5.6802211 3.2666869
0.45525801 -5.5732789 0.801561
0.401198 -4.842361 0.58464801
0.66933799 -7.7516909 0.44058701
0.487064 -5.4211478 0.013046
0.46005899 -4.990943 -0.137949
0.71979898 -7.711165 -0.31277201
0.52226198 -5.5258999 -0.288156
0.74997002 -7.651607 -0.59159303
0.784114 -7.6357322 -0.66917402
0.81381798 -7.5796752 -0.53514999
0.829234 -7.5584092 -0.39475
0.84381503 -7.6101198 -0.309221
0.55377901 -4.9421878 -0.136876
0.85198498 -7.603518 -0.210582
0.59712601 -5.2738452 -0.069718003
0.61554998 -5.3808908 0.012981
0.873999 -7.6401501 0.018432001
0.64783698 -5.6056409 0.108758
0.87751901 -7.5930419 0.14731701
0.891406 -7.635767 0.28758499
0.901528 -7.645699 0.43595099
0.91339701 -7.669971 0.59435499
0.92389101 -7.682425 0.75986898
0.92851502 -7.6462731 0.92678797
1.0530829 -7.3240762 4.402389
1.380402 -9.5224323 5.9137311
1.315838 -8.2676744 5.7319679
0.97214198 -6.018476 4.0407281
1.551839 -9.4001656 5.8556089
1.485585 -7.8631749 0.962865
1.495083 -7.8636298 0.786062
1.4966429 -7.8225722 0.61284399
1.500744 -7.7951331 0.44951999
1.5126311 -7.8082719 0.297528
1.5157501 -7.7761788 0.152693
1.518468 -7.7424798 0.018911
1.529027 -7.7489042 -0.10375
1.535206 -7.733099 -0.216993
1.5442491 -7.7318678 -0.31842199
1.546454 -7.6966028 -0.407556
1.5536931 -7.6865759 -0.48481199
1.564815 -7.6505251 -0.60087597
1.600477 -7.6446352 -0.68089902
1.63296 -7.6238918 -0.54733503
1.650095 -7.6178389 -0.404652
1.66488 -7.6434031 -0.31592
1.675509 -7.6496911 -0.215535
1.68356 -7.644124 -0.102817
1.697505 -7.665267 0.018818
1.7093199 -7.6765361 0.151576
1.7173049 -7.6706161 0.294052
1.730531 -7.688015 0.44624099
1.742797 -7.7009158 0.60755098
1.755085 -7.7138019 0.77687502
5.4815912 -23.587626 4.6362109
5.5284858 -23.665209 5.2594652
5.56569 -23.700817 5.8903842
5.788166 -24.146618 8.6250696
2.280587 -9.0071735 5.710567
1.758404 -6.9112458 4.5102701
1.926864 -7.3247972 5.2996302
1.980314 -7.3889751 5.237638
1.759559 -6.4459682 4.2259059
1.9015369 -6.9345012 4.4193282
2.009074 -7.293613 4.5010719
2.4518321 -8.9009752 5.4930148
2.467788 -8.878665 5.0847759
6.8677268 -24.166622 10.732713
6.9350138 -24.085457 8.7061167
6.9632502 -24.078857 8.0387869
6.9727478 -24.007732 7.353981
2.3802941 -7.9213109 0.81225401
2.383492 -7.8988309 0.63486302
2.3883359 -7.8818998 0.46636701
2.3972759 -7.8785939 0.30807
2.402658 -7.863606 0.158474
2.412183 -7.8622618 0.019711999
2.416647 -7.84448 -0.107821
2.414968 -7.8069181 -0.224916
2.4261889 -7.8112159 -0.33032599
2.4300539 -7.7918692 -0.423731
2.4376979 -7.7846789 -0.50431001
2.4507151 -7.763299 -0.62642401
2.4823871 -7.738781 -0.70851701
2.5557899 -7.8427668 -0.57905698
2.568368 -7.8199401 -0.42730901
2.595978 -7.8733101 -0.33480501
2.63027 -7.9157209 -0.109568
2.6611509 -7.9778419 0.020158
2.6768751 -7.9941578 0.16248199
2.693327 -8.0125322 0.31621999
2.708766 -8.0277395 0.47976699
2.7338929 -8.071372 0.65573102
2.8672609 -8.4330416 0.87470502
2.8930669 -8.413105 1.486686
8.4962368 -23.984186 9.5165291
3.8058751 -10.665259 4.8375778
1.931659 -5.3934231 2.59688
8.7360573 -24.215578 12.976839
3.507024 -9.6860886 5.4429998
3.1643081 -8.5537062 5.9160719
3.3493669 -8.6225672 5.8503079
3.760195 -9.4528408 4.8726921
3.4625909 -8.6175566 3.7213161
3.50179 -8.6860924 3.5027521
9.770421 -24.154638 9.0506468
3.455653 -8.3755684 1.73463
3.457376 -8.3523598 1.510585
3.467382 -8.3492241 1.29592
3.4713881 -8.3316441 1.086031
3.4793561 -8.3236656 0.88594401
3.470742 -8.2761745 0.69056201
3.4885039 -8.2916203 0.50939202
3.5035679 -8.3005819 0.337042
3.5021081 -8.2704029 0.17309999
3.520905 -8.2881107 0.021584
3.519207 -8.2575912 -0.117909
3.5257621 -8.2465057 -0.24684399
3.5396531 -8.2526064 -0.36264801
3.5461171 -8.2413807 -0.46577799
3.5528619 -8.2308159 -0.55422902
3.5601981 -8.1957111 -0.68756998
3.607497 -8.2006102 -0.78103602
3.6546769 -8.2047424 -0.63052702
3.6748681 -8.1990108 -0.466452
3.695308 -8.219161 -0.36393899
3.7125831 -8.2321386 -0.24855
3.72278 -8.2293329 -0.118644
3.7482989 -8.2603159 0.021741999
3.7650361 -8.2717552 0.175162
3.7805381 -8.280426 0.340518
3.805809 -8.3103523 0.51758897
3.8102701 -8.2947292 0.70237702
3.8240459 -8.299428 0.89737898
3.8473959 -8.3247862 1.103472
3.865937 -8.3395548 1.3176301
3.880352 -8.3453674 1.537945
3.8989019 -8.3599854 1.766032
4.3110991 -9.2159662 2.201932
4.3023291 -9.1695995 2.4506431
4.312923 -9.1647434 2.7133701
4.3878198 -9.2959518 3.0238271
4.3887329 -9.2700367 3.2893579
4.3781571 -9.220089 3.5453811
2.8634119 -5.9235692 3.3165679
2.4919381 -5.06498 3.570051
2.5028551 -5.0723181 3.6690421
2.5276711 -4.9481239 3.6827309
12.756705 -24.003571 9.4420986
4.8758831 -9.0478878 2.2243531
4.8692179 -9.0104952 1.960837
4.859436 -8.9675598 1.704414
4.8609142 -8.9455538 1.4593821
4.8677788 -8.9334898 1.224129
4.8916888 -8.9526901 1.001855
4.7582002 -8.5663862 -0.128718
4.7345738 -8.4545231 -0.50305402
4.8233171 -8.5896215 -0.60902297
4.8984261 -8.6762724 -0.76666898
4.9680328 -8.7051058 -0.87379098
5.0304041 -8.7203236 -0.70671701
4.9159279 -8.47645 -0.50870597
5.0433741 -8.6730547 -0.40518001
5.8338809 -9.8739681 0.649432
8.4631805 -14.286278 1.277705
14.611824 -24.279202 6.1326232
8.9733477 -14.83264 4.6439872
5.5251961 -9.0853729 3.4102931
10.045829 -16.475903 6.702919
6.2824669 -10.276929 4.5049901
4.984561 -8.111515 4.0671949
5.3335762 -8.6569958 4.6091518
5.3368311 -8.6398401 4.8640518
3.877357 -6.2608652 3.712234
5.868588 -9.4272957 6.127337
4.6112471 -7.3504639 5.3330388
6.1855378 -9.5621433 7.79742
6.212966 -9.5317698 7.3805318
5.4495082 -8.2973366 5.9061551
5.496798 -8.3482637 5.7373619
4.9555321 -7.48839 4.7445812
9.5895557 -14.382127 7.8356409
5.9512029 -8.8586044 3.9914351
6.348639 -8.9930372 -0.57148999
6.022233 -8.5097208 -0.644503
5.9344869 -8.344696 -0.78792101
6.0988579 -8.4922409 -0.91148299
6.136909 -8.4622278 -0.73381799
6.5835681 -8.5873966 4.3357701
5.8731451 -7.5695848 5.0622568
7.2523079 -9.3247776 6.5181761
6.2172709 -7.955863 6.0073938
5.8513999 -7.4343009 6.1370201
5.8926282 -7.2763171 6.2058382
6.9813251 -8.5799704 6.9957819
5.9681129 -7.2657208 5.1881628
6.818213 -8.2227087 4.8420038
6.8943448 -8.2949381 4.607759
7.3570051 -8.4260569 -0.45174599
7.3510041 -8.3995399 -0.57947397
7.6231699 -8.6901817 -0.714661
7.4770718 -8.4839363 -0.87016499
7.563004 -8.5017061 -0.99199301
7.6857109 -8.5594807 -0.80755699
8.2378664 -9.1317663 -0.63847399
8.5985937 -9.4873848 -0.35240999
8.319253 -8.823801 4.2124572
10.693197 -11.236993 7.0313931
7.0621228 -7.2849059 6.4168978
7.1313348 -7.1215591 6.5375562
6.2907338 -6.1954122 4.6651621
14.109191 -13.327623 1.493444
9.7868891 -9.1380939 -0.17588399
10.026314 -9.318265 -0.55278897
9.2872572 -8.5515738 -0.97143602
9.5957308 -8.7538099 -1.132341
9.5808887 -8.6593065 -0.90657502
10.062472 -9.0312519 -0.54605001
13.56691 -11.895765 2.586448
10.703401 -9.1464939 6.0145621
11.644198 -8.6677275 -1.1169749
11.801225 -8.6998549 -1.278161
12.78772 -9.3359098 -1.1114759
11.602114 -8.0450764 4.9041429
11.886802 -8.2017717 5.7867298
6.7026372 -4.321846 4.744967
12.378512 -7.8002019 5.4721971
16.663132 -9.6052446 -0.77674598
7.3426609 -3.8872099 5.3892798
7.3259168 -3.8566189 5.5872688
7.2060142 -3.7508831 5.6843171
7.2985439 -3.756108 5.6201081
7.3342299 -3.752969 5.4605632
8.2267046 -3.320658 5.6108441
8.1273146 -3.2695701 5.6826072
7.6102128 -3.041055 5.5307698
7.1224408 -2.8078721 5.3569598
7.4049358 -2.879611 5.4398899
8.1620646 -3.1522529 5.7992239
8.180398 -3.148437 5.6858721
8.3589983 -3.2060511 5.662158
7.7331729 -2.9454491 4.9234152
7.8456788 -2.9778881 4.816895
11.534402 -4.3320808 6.2109141
26.040594 -8.6918221 -2.393306
12.592779 -3.785321 4.9180059
12.544048 -3.7548101 5.246665
11.285748 -3.3639221 5.0308609
11.120402 -3.3006141 5.2581658
8.5045853 -2.513489 4.247622
8.3787794 -2.465755 4.4027362
8.3448963 -2.445282 4.5946188
8.1739807 -2.3849061 4.6982851
8.1818991 -2.3769331 4.890573
8.1127119 -2.3466311 5.0246539
8.2481823 -2.375464 5.2754421
8.1964741 -2.350292 5.3927598
8.097044 -2.3116181 5.462203
6.6749368 -1.888905 4.6816039
6.41395 -1.782966 4.658102
8.6174717 -2.352525 6.1161332
6.613153 -1.78889 4.540709
6.5480232 -1.763133 4.3988228
6.578918 -1.763279 4.3076868
8.303853 -2.225596 5.4371252
8.1411009 -2.171855 5.1785722
8.1856756 -2.1735909 5.0389709
8.3220139 -2.199475 4.9408522
8.2998505 -2.1833191 4.7354851
10.973123 -2.8729489 5.9933271
11.17118 -2.910959 5.8192992
10.871526 -2.8194289 5.3793998
12.420592 -3.205812 5.8146992
8.7216072 -2.2402971 3.8468051
8.972661 -2.2937069 3.710902
8.9192648 -2.269052 3.4421489
14.518725 -3.6040821 3.6194069
13.586223 -2.6619101 3.349674
12.539989 -2.441946 3.422375
12.838737 -2.484673 3.8467369
8.9935589 -1.718873 3.1805069
9.2708664 -1.760731 3.529376
8.977416 -1.694201 3.6606891
9.2364244 -1.73199 4.0145531
8.4542389 -1.57517 3.89821
10.432148 -1.943689 4.810214
6.7717438 -1.253558 3.2985699
6.8914909 -1.2674609 3.532181
6.7946239 -1.241501 3.649534
6.6480408 -1.206742 3.7281921
8.1066923 -1.461805 4.7282839
7.1016002 -1.272053 4.2924571
6.6230102 -1.1784019 4.13448
6.5132618 -1.151085 4.1831441
6.416357 -1.126277 4.2257662
7.019125 -1.215308 4.8074679
6.6302061 -1.1162961 4.7045388
7.0266042 -1.149533 4.8749409
10.120948 -1.655759 7.0217452
6.686974 -1.078041 4.4893298
6.2909541 -1.006713 4.1327062
6.4488382 -1.02431 4.1296921
6.635705 -1.046093 4.1287198
6.032506 -0.93666798 3.5041471
7.0146408 -1.089164 4.0746469
6.1474152 -0.9472 3.4320431
7.3364 -1.1303999 4.0958419
7.0497699 -1.077868 3.7681949
6.4095688 -0.97237003 3.2679541
6.9768538 -1.050155 3.3793499
7.1361871 -1.065676 3.2706649
9.1540432 -1.356145 3.9532681
9.4318638 -1.3861279 3.8198819
13.374853 -1.933898 4.6941428
9.4977951 -1.339574 2.5694981
17.332342 -2.424067 4.2343602
12.016594 -1.045146 3.5481639
12.905727 -1.107366 4.154223
12.897274 -1.091562 4.4959559
9.524292 -0.79495603 3.5745659
11.109992 -0.90132499 4.7617569
6.9290738 -0.55404299 3.1509359
6.9158659 -0.54489797 3.3227611
6.6833639 -0.51877397 3.379137
6.3818631 -0.487919 3.381845
7.0004082 -0.527026 3.8736091
8.1135941 -0.61083198 4.4895802
6.8872671 -0.51046997 3.9641321
7.8386669 -0.58098501 4.5117321
6.838088 -0.49883401 4.0792398
7.441412 -0.534163 4.5853138
6.1280398 -0.42557901 3.9846821
7.991672 -0.53636599 5.4054651
6.052175 -0.33564299 4.0175252
8.8835154 -0.49266401 5.8970098
5.9947052 -0.325477 3.8943441
6.890676 -0.35806999 4.2407742
7.0611429 -0.358711 4.2065568
7.1081572 -0.352828 4.0851021
6.6726689 -0.32343701 3.686161
7.0557222 -0.33379599 3.732223
6.8970461 -0.31825501 3.4804161
10.877209 -0.476612 4.9353099
11.872485 -0.478789 4.444036
12.547409 -0.4914 4.3617539
12.077751 -0.44492799 3.5552189
7.0681262 -0.25215399 1.894649
6.8258691 -0.235579 1.652496
7.1435609 -0.238242 1.546852
6.7124381 0.080232002 1.1217721
6.705627 0.087935001 1.283908
6.436326 0.091885999 1.3930759
6.6318359 0.102377 1.604758
6.8079839 0.11293 1.824007
6.3691082 0.113045 1.873841
6.7120018 0.12693501 2.1530011
6.4770002 0.13001201 2.2502749
6.603652 0.140223 2.4703879
6.7318702 0.150773 2.6980939
6.701118 0.157867 2.863497
9.505125 0.223924 4.0616951
11.247617 0.278038 5.1000409
7.6255889 0.19737101 3.6536551
9.6162853 0.248896 4.6074581
7.3321118 0.198292 3.6973801
7.193378 0.202896 3.802299
6.4457011 0.18930499 3.558136
6.3481412 0.19381499 3.6455281
7.2092881 0.228494 4.2914338
6.404088 0.21041501 3.9381239
8.1028996 0.27564701 5.1276388
6.2136221 0.21860801 4.0331159
7.9843922 0.28090701 5.1824808
8.5208931 0.31958899 5.75453
6.5792089 0.27737901 4.6076512
7.9490108 0.39063099 5.2749348
8.4283514 0.42399299 5.4741759
8.3779354 0.431207 5.305634
8.7264099 0.45931301 5.3707399
6.3306069 0.340579 3.7719419
6.4341869 0.35364199 3.6987939
6.502161 0.364959 3.5934031
6.8225412 0.39088601 3.610759
9.0668402 0.53004301 4.5782871
6.5468812 0.39035299 3.141331
7.5209899 0.448434 3.6087289
6.9856548 0.42465299 3.172405
6.4707851 0.40090299 2.7696061
6.4774642 0.408865 2.6006441
7.3686719 0.465119 2.958456
7.0420618 0.45271 2.6392381
6.5709872 0.430096 2.287353
6.5966921 0.43946901 2.1203239
6.2272682 0.42211899 1.836026
6.2300181 0.42958 1.672891
6.1761932 0.433072 1.4979939
6.8603678 0.48904899 1.488472
6.4437709 0.46687999 1.2369
7.2911201 0.528274 1.39955
6.4685569 0.47622401 1.083863
11.946173 0.90740103 1.441551
11.241845 0.97216898 -0.45570099
11.05493 1.111405 -0.779966
10.882823 1.119645 -0.56796497
9.0656242 0.94332403 -0.36809599
8.9044447 0.93700099 -0.24643099
8.4893417 0.90329802 -0.112143
8.4999323 0.91440398 0.020491
7.939702 0.86347198 0.153927
11.280111 1.240003 0.42451701
8.3368149 0.93605798 0.64552701
9.5534601 1.0838929 0.94419301
8.1968107 0.93961102 0.99273098
9.8973293 1.134544 1.198684
6.2764668 0.72687203 0.905711
6.4734788 0.757303 1.089138
6.2628932 0.74003798 1.207378
6.5391412 0.780388 1.425227
6.3958411 0.77081698 1.558666
6.178947 0.75189 1.667457
6.723443 0.82606798 1.99265
6.5043311 0.80682302 2.102001
6.3709259 0.79778397 2.2302589
7.5294461 0.94285703 2.6358211
6.8670812 0.868011 2.588793
6.7291389 0.858522 2.718179
6.7320018 0.86682999 2.8996401
6.7839489 0.88152498 3.10098
7.465034 0.97885102 3.606138
7.0058522 0.92691398 3.56234
7.1355982 0.95250899 3.8037
6.6797409 0.899562 3.719013
6.8579078 0.93166101 3.972595
7.824718 1.072268 4.6989489
7.0772009 0.97820199 4.3910518
7.1225638 0.992899 4.5482211
7.065794 0.99335802 4.628479
6.6555371 0.95144302 4.5372791
7.1012182 1.048844 5.0227232
6.493803 0.98996902 4.4975548
6.9266772 1.072431 4.6456771
7.1428342 1.1143889 4.6894302
7.139256 1.122321 4.5706701
7.0220122 1.112254 4.3695841
7.0930748 1.131952 4.2735381
7.0703421 1.136741 4.1104898
7.0811601 1.146925 3.958154
6.4522152 1.052743 3.454257
7.275104 1.187006 3.894798
6.663187 1.095118 3.4038939
6.6483989 1.100614 3.227726
6.5331092 1.089321 3.0023069
6.7473559 1.133106 2.9228179
6.1560168 1.041149 2.5017059
6.2066698 1.057127 2.3547859
7.2509642 1.234993 2.7509871
6.4027562 1.098184 2.2565091
6.161108 1.064101 2.005192
6.1303582 1.066119 1.830382
6.1826172 1.082612 1.68143
6.1748562 1.088642 1.517042
6.468792 1.1482069 1.4218431
6.1646118 1.101608 1.198916
6.9291458 1.2465301 1.176493
7.0559359 1.277796 1.027882
7.001286 1.276306 0.856305
6.7502851 1.238647 0.67396301
6.6720972 1.232306 0.522084
6.1947761 1.151595 0.35679999
6.1174932 1.144576 0.23281901
6.0593648 1.140991 0.118836
7.274775 1.369855 0.142673
6.12006 1.159777 0.01493
6.7419038 1.285728 -0.090154998
6.7590508 1.297141 -0.18942501
6.5887952 1.272398 -0.27100801
6.9004588 1.340896 -0.364939
6.7813959 1.325941 -0.42717999
6.3154402 1.2500629 -0.49538499
6.6694598 1.352367 -0.59326798
6.0800691 1.262284 -0.43592101
6.4924068 1.363629 -0.34440801
5.6760068 1.199038 -0.23428699
5.6849098 1.207813 -0.159959
5.5688009 1.189911 -0.074800998
5.90909 1.269796 0.014487
6.0316191 1.303462 0.118933
6.114892 1.328889 0.23409
5.7362161 1.25357 0.33249
6.3444118 1.3942111 0.49983501
6.4370079 1.422393 0.64737898
5.8772478 1.305859 0.724419
6.6726208 1.490723 0.98006397
6.4197931 1.442065 1.099521
5.8928599 1.330888 1.156608
5.893085 1.3381391 1.307833
6.0872359 1.389657 1.510693
5.9698339 1.370083 1.640805
5.883604 1.357484 1.776198
5.877285 1.363223 1.934953
5.9567218 1.388937 2.124604
5.9083152 1.384882 2.26966
6.3092299 1.486593 2.597296
6.0912118 1.442688 2.6741431
6.312089 1.5027421 2.9412041
6.1065111 1.461301 3.0074179
6.1807208 1.486647 3.2044859
5.9952378 1.449396 3.25898
6.0109048 1.4605809 3.413202
6.5270019 1.594012 3.8566029
6.239635 1.5315191 3.822562
6.4253669 1.585016 4.0674572
8.1745253 2.0265689 5.3264799
8.0690145 2.01037 5.3941779
6.5248022 1.641731 4.5406351
7.4210882 1.867249 5.1643639
7.3816319 1.893831 5.3323078
6.486824 1.696409 4.5907722
7.984293 2.1078489 5.473269
7.972065 2.114522 5.3500972
6.086544 1.621968 3.9837689
6.1047859 1.634431 3.884191
6.1312981 1.649158 3.777566
6.3045092 1.7035969 3.7485759
6.2781711 1.704313 3.5895381
5.9156642 1.613279 3.239826
6.0449538 1.6560889 3.1594729
6.1338449 1.688098 3.0471599
6.5216608 1.8029751 3.067126
5.8365302 1.620869 2.5877149
5.8877559 1.642458 2.4492619
5.735148 1.607064 2.227623
5.7567911 1.620347 2.077354
5.7461829 1.624562 1.915102
5.8629608 1.664929 1.7928489
5.727562 1.6336761 1.595521
5.744494 1.645718 1.445787
5.7539258 1.6556489 1.295776
6.441608 1.861634 1.28372
5.9182811 1.717838 1.029802
6.105834 1.779964 0.91167098
5.7818298 1.6928051 0.72489703
5.9187598 1.740356 0.60584301
5.330986 1.574252 0.427717
5.3698592 1.592519 0.317168
5.1315012 1.528313 0.200296
5.0451889 1.508993 0.101494
5.058722 1.5194401 0.01266
5.0258989 1.5159431 -0.068956003
5.614861 1.700712 -0.16147199
5.4584398 1.660253 -0.230413
5.7019391 1.741549 -0.30951601
5.534493 1.697441 -0.35788599
5.5104761 1.7040811 -0.443829
6.3992009 1.978914 -0.51540899
5.9303331 1.86415 -0.54193997
5.4885678 1.753337 -0.404479
4.8479881 1.5611219 -0.264411
4.8525491 1.56881 -0.20595901
5.0791302 1.648577 -0.146973
5.1595049 1.681296 -0.071281001
5.6674099 1.854084 0.014293
5.1636219 1.695917 0.10475
5.0868731 1.677253 0.200371
5.6888442 1.88306 0.339331
5.3761959 1.786507 0.435927
5.0517149 1.685196 0.52296603
5.6440048 1.8900599 0.71617597
5.720706 1.923144 0.86512899
5.5558629 1.874908 0.97986102
5.5218801 1.870582 1.116181
5.5177741 1.876344 1.261299
5.6469111 1.927572 1.443671
5.8628802 2.0088279 1.660212
5.66817 1.949468 1.763217
6.1773691 2.1326301 2.0958929
5.5936871 1.938393 2.056354
5.7864671 2.0127239 2.2913799
5.5202951 1.927336 2.342886
5.6375852 1.975631 2.551966
5.7196522 2.011848 2.748399
5.7013488 2.0128591 2.8959689
5.6064339 1.986671 2.9983261
5.7688532 2.051765 3.2351539
6.2273312 2.222986 3.648478
5.9634242 2.136585 3.6360691
8.6187325 3.133193 5.9487238
6.8649988 2.5499451 5.124198
7.5832672 2.8568881 5.5483599
7.651547 2.9130909 5.310914
6.2804389 2.4078031 4.133956
6.2731209 2.413353 3.9989641
6.2315679 2.405674 3.8342011
6.1428819 2.3796451 3.6349511
5.9664531 2.319268 3.382313
5.5713449 2.17314 3.0145299
5.3750281 2.1037569 2.764648
5.5273929 2.1707931 2.6918371
5.324183 2.0981319 2.4447169
5.572948 2.2036409 2.4012811
5.4970431 2.1810081 2.211859
5.5045781 2.191406 2.0579939
6.057373 2.419626 2.091923
5.5700321 2.2324581 1.765192
5.5796709 2.2438519 1.611047
5.6343222 2.2734311 1.470009
5.3804159 2.178246 1.256222
5.197669 2.1112959 1.074061
6.191803 2.5234909 1.117322
5.0970478 2.0842221 0.78935802
5.0887151 2.0877211 0.66182101
5.5981712 2.304328 0.59450603
5.4860349 2.2656209 0.456718
4.927249 2.0415599 0.302017
5.308567 2.206779 0.21506201
4.8676372 2.030123 0.101648
5.3790751 2.2507589 0.013976
4.9943151 2.0965791 -0.071149997
5.837966 2.458724 -0.174348
5.258235 2.2217529 -0.230534
4.9365692 2.092597 -0.278357
4.7393999 2.0155189 -0.31839499
5.2889051 2.2637191 -0.442678
5.1788721 2.2451489 -0.49208799
5.1460271 2.2593601 -0.39453501
5.0249929 2.2201581 -0.28520101
5.3393192 2.366446 -0.23586001
5.3955288 2.398855 -0.16251799
4.9084878 2.189153 -0.070597999
5.083437 2.2742569 0.013348
4.9302659 2.2126119 0.104153
4.953413 2.2299111 0.20321199
4.9863968 2.251724 0.30981901
5.2177262 2.3634911 0.44075999
4.733295 2.150681 0.51055402
5.025773 2.290617 0.66456801
4.9514298 2.2636881 0.78041798
5.20894 2.3887291 0.95761001
5.242198 2.4113491 1.10471
5.2573318 2.4257181 1.253049
7.7599778 3.5804319 1.849538
5.1962771 2.4048669 1.38535
5.3602548 2.4882491 1.583101
5.2869081 2.4616711 1.715524
5.8642559 2.7388 2.075737
5.320755 2.492501 2.0409319
5.2134738 2.449636 2.154408
5.3159871 2.505357 2.3547881
5.3383722 2.5234909 2.5225019
5.2868109 2.5066359 2.6522031
5.1988058 2.472322 2.757304
5.8910141 2.8183091 3.4505191
7.8945651 3.776824 4.6240511
7.8480649 3.7658041 4.8031211
7.5085239 3.6136169 4.7830439
5.371295 2.6081419 3.7763751
7.5038471 3.643647 5.275701
5.2722721 2.5676439 3.8040049
5.1495972 2.5227201 3.8699169
5.123354 2.539475 4.0010939
5.150527 2.582839 3.9450359
5.1894999 2.617502 3.8523381
5.2276349 2.6443591 3.8001959
5.334053 2.7059779 3.7827899
7.839632 4.0230122 4.862061
7.661212 3.9427049 4.5525742
9.096036 4.6945052 5.1598568
5.3191791 2.753083 2.8687539
5.4008322 2.803304 2.7583079
5.5174599 2.871994 2.6572499
5.3405328 2.7877891 2.4139271
5.2651472 2.7562251 2.222719
5.3177581 2.7916529 2.0862131
5.8332939 3.0709431 2.114217
5.1802258 2.7348261 1.7231441
4.9385548 2.6145909 1.496933
4.9877071 2.648036 1.366302
4.9873929 2.655302 1.222802
5.0529079 2.697732 1.096625
5.0389929 2.69783 0.95513803
5.0662332 2.7199919 0.82426399
4.7250152 2.5438831 0.645693
4.832305 2.608892 0.53928697
4.370863 2.366329 0.38245201
4.7249861 2.5651591 0.30444801
4.6191859 2.514673 0.19674499
4.6826911 2.5563121 0.102823
4.3244429 2.3672681 0.011817
5.1812119 2.844105 -0.077638
6.6827211 3.668323 -0.100138
4.366344 2.4034171 -0.137178
4.3292789 2.3895731 -0.199705
4.2385759 2.345937 -0.25150099
4.1811042 2.3204861 -0.29562601
5.3537011 2.9875629 -0.471755
5.1982069 2.9325759 -0.52031398
5.3933082 3.0757821 -0.43585101
4.278882 2.4534309 -0.256064
5.590529 3.2055061 -0.334557
4.4307551 2.5473571 -0.206403
4.4098058 2.542135 -0.140095
4.4185228 2.554013 -0.067038998
4.453124 2.58092 0.012337
4.5668688 2.6539459 0.101802
5.3595662 3.1146071 0.119472
4.5001369 2.622165 0.194838
4.2499352 2.482995 0.27872401
4.4710121 2.619139 0.39871699
4.104454 2.4108169 0.46745399
4.2107811 2.4798541 0.58799303
4.4016342 2.5991549 0.73274201
4.4311771 2.6235471 0.86053097
4.3444118 2.578999 0.96725601
5.2146931 3.1038389 1.313333
4.9960761 2.9815819 1.407691
5.140789 3.0759709 1.6048369
5.131794 3.078691 1.7603951
5.1455998 3.09512 1.925791
4.958632 2.9905081 2.0114009
5.4037018 3.267493 2.3617921
5.3976269 3.272402 2.5292301
5.3081808 3.226614 2.6537139
10.591258 6.4548311 5.6223068
8.082572 4.951725 4.7781448
5.3178129 3.2749469 3.446053
5.2194958 3.222769 3.5210731
5.1770902 3.20491 3.6226389
5.1843019 3.2177119 3.750145
7.5841289 4.7561808 6.041501
7.4468808 4.7671628 6.0539889
5.1259532 3.332032 3.6374669
5.161809 3.3638771 3.536505
5.2063799 3.4015601 3.43156
5.3282871 3.490046 3.365494
5.2200122 3.4451971 2.835099
4.7107182 3.1327 2.1158741
5.03023 3.353627 2.0999939
4.675642 3.125078 1.803635
5.497581 3.6836879 1.94665
5.5654888 3.738579 1.796061
4.919374 3.3128569 1.43497
4.7768621 3.224957 1.2473381
4.4703279 3.0255871 1.033445
4.7126341 3.1975729 0.95167702
4.2053499 2.860517 0.72905302
4.0644612 2.7716041 0.59193498
4.0668421 2.7801549 0.48377499
4.118001 2.822154 0.38414001
4.7391009 3.2559161 0.32559201
4.4112139 3.038197 0.200371
4.2634912 2.943773 0.099855997
4.2427578 2.9367421 0.012368
4.3737168 3.0349109 -0.069927998
5.615839 3.896817 -0.089787997
4.220376 2.9357891 -0.141498
4.0938249 2.85482 -0.201561
4.2299318 2.9570439 -0.26793599
4.1881518 2.935097 -0.316174
4.1761408 2.9411719 -0.39304
4.2182112 3.0002439 -0.451269
4.4188361 3.1739781 -0.38192999
4.1402302 2.988477 -0.26508501
4.1761889 3.0218191 -0.208179
4.4188638 3.2052431 -0.15024699
4.5118518 3.28071 -0.073278002
4.1609292 3.032939 0.012342
4.1550231 3.0360429 0.099180996
4.159842 3.046983 0.192894
4.2740722 3.1382909 0.300264
4.3457551 3.1987121 0.41521201
4.2066932 3.1038971 0.51338798
4.177093 3.0895591 0.62514597
3.9988539 2.9649291 0.71358597
4.2478199 3.157177 0.88442999
4.6893492 3.493808 1.119565
4.7399621 3.5401001 1.2803349
4.44661 3.329061 1.343961
5.1865449 3.8830309 1.567602
5.0920639 3.8214459 1.705495
9.0793276 6.8302598 3.342154
4.4957209 3.3984549 1.957588
5.2207909 3.984796 2.977123
5.1515179 3.941407 3.1067729
5.0960188 3.9083309 3.237345
5.4935179 4.2436652 3.9845419
5.2783799 4.0970879 4.1067281
5.181519 4.0315509 4.152142
5.2589869 4.2208128 4.4694409
5.051959 4.0739732 4.1045699
6.6338181 5.3750858 5.0798759
5.038723 4.1215782 3.2814579
5.063313 4.1515112 3.136147
5.0775061 4.1730132 2.979187
5.1188612 4.216979 2.8332479
5.2816138 4.3613582 2.7445869
10.302743 8.52775 5.00208
8.9660168 7.4388981 4.0467548
4.33075 3.610131 1.658519
4.3584828 3.6418431 1.521516
4.5587049 3.8181391 1.438732
5.3507781 4.4815388 1.688712
4.641037 3.896271 1.311429
4.596849 3.8682909 1.150215
3.906131 3.2947979 0.85393798
4.3706861 3.695338 0.82043302
4.988266 4.2174911 0.93636
4.3574648 3.6928539 0.68726599
3.7712049 3.2035401 0.48592499
3.9756219 3.385139 0.401786
3.871495 3.3042481 0.28822199
4.0025129 3.4241071 0.197044
4.0848312 3.5027599 0.10371
5.4836311 4.7022371 0.13922399
3.9715459 3.413625 0.012552
4.0339141 3.4753809 -0.069940999
3.957577 3.4176359 -0.14391901
3.751682 3.247442 -0.20039099
3.920922 3.4019041 -0.269492
3.7611279 3.270932 -0.30815199
3.658006 3.1961949 -0.37378299
3.7207711 3.281646 -0.43250999
3.6709239 3.2681191 -0.345025
3.688241 3.2989261 -0.25689301
4.0412388 3.6231151 -0.21919499
3.8975241 3.5024381 -0.14422201
4.6893711 4.2140169 -0.17352299
4.006032 3.6083729 -0.070821002
4.0845642 3.687705 0.01319
3.532429 3.196676 0.091820002
4.0080142 3.635529 0.202427
4.098434 3.7262261 0.31366301
3.7208371 3.3908291 0.387362
3.780581 3.453316 0.50283301
4.1725111 3.8202109 0.68069601
4.0229182 3.691854 0.78268898
3.7203491 3.422148 0.84470803
3.9794199 3.6689899 1.036265
4.3089271 3.9820681 1.2697591
5.2829762 4.8822289 1.556793
4.2462158 3.9332621 1.400401
3.678158 3.414942 1.344523
4.484436 4.1635208 1.6392519
5.0333629 4.6840558 2.022563
4.9647999 4.631031 2.1774321
4.9005561 4.5817552 2.330337
4.8271189 4.5236068 2.474242
4.764513 4.4753499 2.619241
4.7122731 4.4365869 2.7648909
4.6686659 4.4057651 2.909827
4.6316791 4.3810501 3.0536399
4.574986 4.3374972 3.177928
4.5217328 4.2969861 3.295886
4.5399542 4.3243542 3.4595799
4.5196662 4.3150458 3.5867851
4.5102329 4.316072 3.714164
4.4606738 4.2785769 3.798842
4.4719419 4.2993622 3.923368
4.4679742 4.305552 4.0249529
4.4194412 4.278614 4.1512942
4.3745751 4.2747302 4.2797198
4.3531041 4.2934532 4.1862688
4.3648858 4.3251228 4.0727711
4.3965192 4.3665938 4.0195112
4.4472899 4.4272852 3.968802
4.5303349 4.520452 3.9334109
5.0954199 5.0843048 4.4240398
4.9844928 4.9851789 4.1942849
8.4952106 8.5956306 5.7884812
5.459897 5.5372782 3.524986
5.224761 5.3482852 2.5971019
5.1754231 5.3100972 2.3780739
4.9270482 5.0670128 2.079004
4.9831948 5.1366858 1.917161
3.4818921 3.597487 1.211329
5.027822 5.1947398 1.749149
4.4095631 4.5665498 1.3738281
3.9467919 4.0968218 1.089103
3.5397611 3.682864 0.85360801
3.72774 3.887465 0.77204698
3.568248 3.7298069 0.62108397
3.3821001 3.5434561 0.48103899
3.5547481 3.733007 0.39664599
3.558645 3.7458069 0.292575
3.4076381 3.595207 0.185306
3.3481891 3.5407181 0.093920998
3.6095729 3.826019 0.012608
4.1407161 4.3890109 0.014463
3.5397229 3.760716 -0.067840002
3.4056709 3.6267321 -0.136931
3.9478519 4.2138972 -0.233197
3.8597159 4.1294169 -0.29344401
3.8030579 4.0782919 -0.34474301
3.4925289 3.762764 -0.39503399
3.8591759 4.1967182 -0.49703899
3.609612 3.9621029 -0.376257
3.9532399 4.3595872 -0.30552399
3.4609311 3.825588 -0.20834
4.176847 4.6169348 -0.25143701
3.3160059 3.6739559 -0.136215
3.4926889 3.8787661 -0.068562001
4.2875772 4.761519 -0.084165998
3.2766271 3.647326 0.011752
3.4052479 3.799372 0.098333001
3.4617031 3.871392 0.194278
3.4766891 3.8972471 0.29574099
3.2652941 3.6688559 0.37792599
3.5794599 4.0312619 0.52941602
3.4240489 3.865262 0.62132299
3.4827881 3.940789 0.75388402
3.583776 4.0645552 0.905527
3.578227 4.06777 1.037205
4.8743291 5.541193 1.412901
4.8093381 5.4801421 1.577945
4.7584229 5.4348369 1.747738
4.7513571 5.4393802 1.934757
5.2718372 6.063601 2.5768831
5.0860252 5.8636141 2.6961961
5.2629681 6.0818572 3.0081141
5.3035049 6.143117 3.2519209
5.1660032 6.0120049 3.593107
6.9420199 8.0788689 4.8283801
6.7204061 7.8393779 4.9456959
7.7579899 9.1352491 6.8793588
5.6397839 6.6566682 5.1908302
4.3535519 5.1506319 4.1449518
4.522645 5.363297 4.4370408
5.5017061 6.524343 5.3975711
5.174016 6.1502328 5.213501
3.301929 3.9434741 3.471066
5.4012222 6.4506469 5.6778922
4.1213498 4.968823 4.5170689
3.08319 3.7525189 3.3252871
5.8591261 7.1649499 6.1345701
5.2465811 6.4311061 5.3838382
5.1050129 6.2724252 5.11481
4.4340301 5.473927 4.1912169
5.7258778 7.085546 5.2290888
4.439055 5.5062342 3.902596
5.800776 7.195322 5.0997529
4.8358798 6.0127292 4.0769949
4.639977 5.7829018 3.7374411
5.6514621 7.0435362 4.5521789
4.0060582 5.004725 3.070487
4.0022569 5.011888 2.9073491
4.0167341 5.042026 2.753891
4.0370679 5.0796361 2.5999
4.0698848 5.1331501 2.4500699
4.161335 5.2610412 2.330009
4.2240162 5.353044 2.1868999
4.2493672 5.3980441 2.02087
4.333674 5.5183249 1.8796411
4.404561 5.6220121 1.727984
3.51613 4.4987588 1.235705
4.5206518 5.784008 1.588733
3.378932 4.333591 1.05206
3.310075 4.2554569 0.90091199
2.9948189 3.859396 0.700248
3.0776639 3.9756899 0.60495698
3.208745 4.154973 0.51553798
3.4343801 4.4578328 0.433011
4.0374041 5.2405601 0.50904101
3.2938991 4.2857828 0.30608699
3.4846351 4.5448632 0.21424
3.2229829 4.2137351 0.102245
3.1470981 4.1244349 0.012435
3.2256241 4.2375379 -0.069954
3.1194029 4.107892 -0.141966
3.0396659 4.0125489 -0.20329601
3.144182 4.1605411 -0.27073601
3.1405859 4.1658401 -0.32252899
3.6999669 4.9078331 -0.379976
3.2383349 4.316309 -0.41521201
3.190609 4.2941122 -0.46638101
3.599339 4.8914981 -0.42632699
3.1311641 4.276022 -0.275143
2.9928899 4.097158 -0.20491
3.1177731 4.2785368 -0.145707
3.167798 4.3578191 -0.070768997
3.1436291 4.3351421 0.012835
3.441561 4.7576232 0.113171
4.208631 5.8180232 0.138395
3.3822291 4.6870489 0.216221
3.102514 4.309958 0.30071601
3.0723851 4.2785821 0.40531501
3.1075399 4.3381591 0.524041
3.250376 4.5487032 0.672692
3.000422 4.2092409 0.74097198
2.996769 4.214458 0.86415702
3.017324 4.2538109 0.99847001
3.0784199 4.3506498 1.153423
4.3610468 6.1633549 1.633998
3.0894001 4.376935 1.296223
3.9633939 5.6289082 1.844191
3.8333781 5.4577022 1.961889
3.676753 5.2476678 2.054971
4.3827071 6.2552452 2.4495349
3.88112 5.5530572 2.3533061
3.9072061 5.6042228 2.5551629
3.8276341 5.503715 2.6861911
3.5839441 5.1918068 3.0216739
3.5313759 5.1283779 3.138767
3.46717 5.0476689 3.235621
3.4275949 5.002502 3.3460491
3.3649721 4.9233518 3.423003
3.360656 4.9293261 3.5495219
3.3364201 4.906003 3.6464691
3.2941861 4.8560119 3.711164
3.1764719 4.6942229 3.676661
3.1716161 4.7105708 3.832437
3.072937 4.6100979 3.876687
3.1166611 4.7230792 3.8744171
3.2818961 4.998703 3.963383
3.144778 4.8019962 3.7234631
3.1517911 4.824914 3.6448841
3.285897 5.0430031 3.6993539
3.2693541 5.0303702 3.569463
3.321764 5.1240158 3.5051429
3.259495 5.0407891 3.3122311
3.340749 5.1796241 3.256644
3.406548 5.2951431 3.173877
4.7525482 7.3873658 4.4279432
6.1186562 9.5351534 5.4264851
3.5391181 5.5293779 2.975884
3.3665011 5.286696 2.5113771
3.913883 6.1779261 2.5403371
3.744308 5.9254599 2.247978
3.9684789 6.2963881 2.189347
3.495116 5.5740132 1.5918241
2.8426459 4.545167 1.160192
2.774848 4.448256 1.0037349
2.8517611 4.5833902 0.90206599
2.8629711 4.613338 0.77828997
2.9952109 4.8389711 0.68475699
2.88852 4.67873 0.53997099
3.8374181 6.215724 0.71735603
2.8471169 4.6236639 0.41782099
2.8518529 4.643434 0.308575
2.950294 4.816246 0.21128701
2.917016 4.7743702 0.107833
2.9036789 4.7649632 0.013375
2.9010201 4.7730589 -0.073368996
2.844878 4.6929688 -0.15104499
2.8531821 4.7190161 -0.222706
3.287637 5.4518638 -0.330513
2.749599 4.5716472 -0.32980999
2.716156 4.5398698 -0.40707999
3.1707251 5.2996521 -0.475207
3.191658 5.3913369 -0.54619497
2.7145081 4.6343021 -0.37702799
2.8223729 4.8442221 -0.29105899
2.6596119 4.5770688 -0.213788
2.63691 4.5501509 -0.14474399
2.9416111 5.0895581 -0.077218004
2.8560431 4.9547749 0.013708
2.974834 5.1747489 0.11504
2.7620251 4.8175001 0.207735
2.9829071 5.216783 0.34029201
2.821193 4.947299 0.43822801
2.810745 4.9422998 0.55834502
2.8477869 5.0209861 0.69455302
2.8861189 5.1023822 0.840298
3.134922 5.557282 1.066227
2.8017681 4.9802008 1.093992
2.6360071 4.6983271 1.165903
3.755374 6.7482462 2.27175
5.6744151 10.252661 4.0703788
5.6070051 10.271188 5.6048918
3.0531471 5.6083732 3.21889
5.098865 9.392128 5.646687
4.3389339 8.014534 5.0287352
2.8511691 5.281085 3.4449069
2.6738679 4.9803209 3.4741991
2.5514579 4.7655849 3.418782
4.1978459 8.0872879 6.2387271
2.532649 4.921082 3.590132
2.5718651 5.0115709 3.5625679
3.0442441 5.9490671 4.1072521
3.4083779 6.6797652 4.4617009
4.7127609 9.2626457 5.965364
6.1345248 12.196917 6.5392561
5.509994 10.986951 5.5715251
3.2113609 6.4220839 3.0673871
4.2173791 8.4339199 4.0283031
5.1457381 10.350449 4.3231788
3.4813521 7.0230689 2.722774
3.5167251 7.115171 2.545428
3.6551621 7.416923 2.4323249
2.973711 6.0696669 1.635329
2.9124169 5.9620638 1.436015
2.835428 5.8216062 1.23972
2.60325 5.360703 0.99584901
2.6918089 5.5594778 0.88542002
2.7097681 5.6131959 0.74998403
2.659647 5.525744 0.60222697
2.4476249 5.1003828 0.43531299
2.5514319 5.3325772 0.33475101
2.6602621 5.576654 0.23113699
2.3828859 5.0101719 0.106928
2.6474309 5.5830932 0.01481
2.563374 5.4220762 -0.078781001
3.0010021 6.347753 -0.092230998
2.5456679 5.4008608 -0.164333
2.488569 5.295651 -0.236304
2.5599091 5.4639282 -0.31324899
2.67504 5.726984 -0.39077401
2.7949941 6.0202012 -0.51072901
2.6546309 5.7881269 -0.55514097
2.4439139 5.3946638 -0.41575301
2.4828689 5.5146999 -0.31397501
2.7343161 6.0920668 -0.269676
2.7451711 6.1353068 -0.18499599
2.751873 6.1695099 -0.088737004
2.431278 5.4678092 0.014343
2.532656 5.7136812 0.120455
2.4083641 5.4675031 0.33831301
2.3414409 5.332365 0.448125
2.6046989 5.9506602 0.63789898
2.480021 5.6837711 0.74616098
2.576201 5.9229722 0.92585999
2.5534179 5.8892722 1.072655
3.697381 8.5549316 1.784272
2.693023 6.251008 1.473031
3.323256 7.7386041 2.0376949
2.8802581 6.7283702 1.960633
3.3022051 7.7140489 2.247858
4.5622382 10.691812 3.4194779
3.524626 8.2867889 2.8880761
3.9726119 9.3400536 3.2551551
3.038615 7.1672101 2.704071
2.7917039 6.6061459 2.6823261
3.8461859 9.1607094 4.2443709
3.198617 7.6431952 3.755774
3.68349 8.801815 4.3251061
2.572129 6.1864982 3.377336
2.9505949 7.096787 3.8742809
2.8544791 6.8881512 3.939647
3.029665 7.3349881 4.3789468
2.9563251 7.2286968 4.7999969
2.9454679 7.2260771 4.9352121
2.8662419 7.055162 4.939765
2.286814 5.6666079 4.1238842
2.2118349 5.631001 4.1422029
2.1008911 5.3852839 3.8313439
2.7861681 7.1664348 4.9876552
3.0136559 7.7782879 5.275701
2.619848 6.808774 4.3405199
2.926235 7.6314659 4.6914449
2.6870601 7.0321498 4.1538148
2.565891 6.785852 3.474817
3.4420249 9.1349449 4.4250169
3.5974391 9.5811415 4.3720479
2.6800909 7.1886148 2.8693919
2.7583749 7.4249458 2.7513211
4.0296879 10.885732 3.722707
4.8093939 13.038482 4.0880222
3.8314669 10.424579 2.9752359
3.6308999 9.9144049 2.554585
3.589643 9.8370953 2.2662339
2.2002671 6.0514669 1.2327631
2.187752 6.0388641 1.073315
2.2575059 6.254066 0.95310402
2.2082369 6.1399088 0.785106
2.0771179 5.7964578 0.60466999
2.0199051 5.6574678 0.46224201
2.0173881 5.671226 0.340857
2.1982231 6.202374 0.24616501
2.2613809 6.4042072 0.130899
2.176038 6.1853752 0.015716
2.1848831 6.2336178 -0.086767003
2.2495 6.4419532 -0.187802
2.3641591 6.795639 -0.29057801
2.325259 6.7089038 -0.36862001
2.339613 6.7757611 -0.44316101
2.117492 6.1789341 -0.50259697
1.865607 5.5275302 -0.50858998
2.271488 6.8346992 -0.50559801
2.1605339 6.5516629 -0.358147
2.0502341 6.2415361 -0.26531801
2.073411 6.3368912 -0.18351001
2.0183129 6.192842 -0.085557997
2.116888 6.5209851 0.016433001
2.1279931 6.5812311 0.13330799
2.0478871 6.3586898 0.24990299
1.999631 6.2336431 0.37070799
1.991212 6.2322922 0.50344098
1.931124 6.0685129 0.62538999
1.9776829 6.2398782 0.78761399
2.1073761 6.7031059 1.174185
1.859182 5.9377351 1.1912071
1.9253 6.1740541 1.399633
2.8729241 9.2506647 2.343643
2.696717 8.7186871 2.4447751
2.652458 8.6109886 2.65047
2.420074 7.8891549 2.646512
2.4938071 8.1632967 2.9649291
2.2127609 7.2735181 2.8434689
2.9662499 9.7502956 3.8117261
2.2564449 7.4481902 3.118392
2.4353459 8.0724726 3.6020589
2.4588211 8.1846304 3.8738511
2.5328741 8.4668303 4.232935
2.535558 8.5117722 4.4770069
2.4283869 8.1867199 4.51193
2.6814809 9.3579865 6.5695729
2.5612099 9.432703 6.1817098
2.5618629 9.4786634 6.0346861
2.189357 8.1757288 4.8582139
2.2024591 8.2630806 4.718576
2.2967319 8.657135 4.7324352
1.765231 6.6850739 3.485368
2.5780711 9.8094778 4.858005
2.595268 9.9217424 4.648787
2.579061 9.9068031 4.3732271
2.535145 9.7846785 4.0501161
2.539084 9.8469419 3.803319
1.7901191 6.9758701 2.5016179
2.2169199 8.6808996 2.8734169
1.9457051 7.6559472 2.3236761
1.760399 6.9606838 1.923372
2.4413011 9.652998 2.66731
2.4146249 9.5943556 2.393733
2.4024 9.5928144 2.140167
2.0300989 8.1463795 1.60733
2.5476611 10.274064 1.76886
1.726546 6.9974742 1.033132
1.635249 6.6607351 0.82524502
1.653371 6.7684708 0.68422401
1.723672 7.0919652 0.56159502
1.599476 6.6144571 0.385351
1.5584199 6.5108442 0.12903
1.642648 6.8980942 0.016996
1.671385 7.0550981 -0.095238
1.634951 6.9372439 -0.19616599
1.567801 6.6870718 -0.277383
1.622041 6.9547348 -0.370745
1.340482 5.8394051 -0.461014
1.193007 5.3099899 -0.47445801
1.435427 6.530653 -0.469394
1.5503041 7.1723819 -0.29634899
1.496438 6.9623008 -0.19600099
1.467882 6.868288 -0.092257001
1.4637671 6.9277329 0.13646799
1.471413 7.004106 0.26773399
1.5080169 7.2621541 0.57072502
1.570061 7.6052709 0.76260602
1.61659 7.8768229 0.96752399
1.8444591 9.040451 1.322596
1.850701 9.1251106 1.5559109
1.8177871 9.0165358 1.760955
1.928354 9.6809969 2.388324
1.984709 10.024102 2.7374339
1.447899 7.4488339 2.6358211
1.808663 9.3627729 3.566509
1.899659 9.8955116 4.0374699
1.853109 9.7754316 4.510066
1.8385971 9.7608051 4.7573538
2.3002269 12.28985 6.3027401
2.263459 12.171439 6.5413179
1.81811 9.8401937 5.521512
1.844738 10.049526 5.8648038
1.716321 9.4737148 5.9173961
1.336373 7.78791 5.5289512
1.308586 7.8441639 5.4449739
1.080803 6.9765382 3.5587389
1.925786 12.430873 6.341002
1.529355 9.9481668 4.8208551
1.479797 9.7006884 4.4481368
1.449643 9.7300682 3.6793089
1.420244 9.6092892 3.3741
1.3852021 9.4479303 3.062453
1.336207 9.1879749 2.73118
1.219906 8.8949776 1.080297
1.095029 8.0538006 0.79817998
1.111935 8.249795 0.64054
1.07489 8.0455112 0.45964
1.065864 8.0490561 0.303734
1.059141 8.0702848 0.156875
1.2526931 9.7197628 -0.128731
0.685507 5.6276441 -0.43623301
0.60645503 5.1788349 -0.45456901
0.69762403 6.2065458 -0.43844199
0.81609899 8.1069412 0.62696099
0.85664302 8.609868 0.84968501
0.86892599 8.8373337 1.06847
1.085199 11.445861 2.2011471
1.016654 10.85706 2.3599379
0.89011902 9.6260052 2.3389399
0.872199 9.5520601 2.5694981
0.85350603 9.4688101 2.7966521
0.85408902 9.7282124 3.3921471
0.78908801 9.1093054 3.419729
0.908252 10.77631 4.6199379
0.88106698 11.068362 5.866724
0.59637201 8.2160454 5.3435659
0.47226301 8.2257929 5.344655
0.469506 10.005916 4.5406179
0.482889 10.553343 4.513082
0.41199401 9.2390184 3.705694
0.41475299 9.81355 3.411834
0.37558401 9.1384277 2.9332731
0.37597799 9.6975269 2.5997729
0.29796901 9.7296143 0.95591998
0.118821 6.2559261 -0.386825
0.088771001 5.3255148 -0.40984201
0.059030998 4.9120131 -0.42825401
