# .PCD v0.7 - Point Cloud Data file format
VERSION 0.7
FIELDS x y z
SIZE 4 4 4
TYPE F F F
COUNT 1 1 1
WIDTH 1541
HEIGHT 1
VIEWPOINT 0 0 0 1 0 0 0
POINTS 1541
DATA ascii
6.8681459 -0.85291499 3.972595
6.4045882 -0.78779799 3.5605509
6.4254808 -0.78280503 3.4201529
6.6277232 -0.79963398 3.3651831
6.707418 -0.801359 3.235502
6.5132198 -0.77049798 2.9729941
9.6864233 -1.12309 3.907289
12.787278 -1.467592 4.8139639
10.104012 -1.1477489 3.5322559
9.7162647 -1.092292 3.135747
9.9816427 -1.098673 2.6900809
12.735191 -0.73217797 3.4172001
11.86567 -0.66837001 3.4959559
12.670119 -0.69891 4.0696301
11.90674 -0.62907898 4.4594498
7.112133 -0.34263399 3.4104519
7.187552 -0.337906 3.6271591
6.821259 -0.31275001 3.6079559
7.2047768 -0.32194301 3.9794109
6.4412699 -0.28033501 3.7007849
7.2505441 -0.31555599 4.1657481
7.1892738 -0.30451801 4.281208
6.4038172 -0.26380199 3.9391711
6.2069292 -0.248475 3.9287131
9.1609211 -0.36672899 5.79846
6.139842 -0.23864201 3.98577
8.2080822 -0.29994801 5.543077
8.3849821 -0.26741001 5.8700681
6.035429 -0.15039299 4.001503
6.136035 -0.14577299 3.9814169
8.1263046 -0.193056 5.272819
6.0928688 -0.13767201 3.8544149
6.45292 -0.138303 3.966923
7.3327861 -0.157161 4.5078192
6.4097748 -0.12993599 3.8143809
6.7600889 -0.129187 3.880996
6.5253539 -0.117114 3.6011331
6.6577268 -0.11176 3.518259
7.2722902 -0.113622 3.666321
7.3847642 -0.106805 3.5374529
10.729129 -0.142718 4.8638859
9.5640726 -0.116103 4.0860519
6.7949028 -0.050925002 2.179265
6.8227901 -0.043214001 2.0070419
6.9778671 -0.036084998 1.8692909
6.9717822 -0.027961001 1.68683
6.9793959 -0.019890999 1.51047
6.94977 -0.011728 1.330541
6.8233848 -0.0035949999 1.140232
12.008643 0.48201501 1.44609
6.8095298 0.28125599 0.976942
7.3454351 0.31193101 1.2285759
6.4715419 0.28988299 1.40196
6.3197899 0.290436 1.530682
10.100595 0.46418899 2.4464099
6.6904168 0.31518301 1.79425
6.512187 0.31436199 1.917865
6.6003962 0.32631001 2.1194079
6.97193 0.35279101 2.4248371
6.5429921 0.33870101 2.4504199
7.589684 0.392883 2.842418
6.6926289 0.354247 2.6854479
7.0889611 0.383477 3.0328159
6.7468958 0.37282801 3.0629971
7.7081399 0.42594501 3.4993889
9.3584051 0.52804899 4.4895291
6.993701 0.40276399 3.531281
7.0285039 0.412954 3.720077
6.738461 0.40377301 3.7248099
6.7141171 0.41013601 3.861083
8.8320999 0.54981899 5.2649708
9.3161421 0.59080797 5.7372718
7.3713121 0.476062 4.6716938
7.2772889 0.478484 4.7307892
7.088912 0.482629 4.7951622
6.67066 0.48529899 4.6798868
6.719521 0.520239 4.6145
7.2063742 0.57477599 4.7915282
7.1346059 0.57738602 4.6431718
7.4023328 0.60770202 4.697351
8.4427404 0.71286398 5.0410161
6.247592 0.53482097 3.5992301
6.4260831 0.557625 3.5591021
6.886724 0.60565102 3.6528039
7.0025411 0.62404001 3.543885
7.4535241 0.67295098 3.5845389
6.8388538 0.625458 3.1129529
7.5000639 0.68593001 3.4139271
7.2402959 0.67065901 3.1062801
6.4453549 0.60457098 2.5939491
6.8608799 0.651582 2.5775831
6.5689268 0.63156003 2.292275
6.5953932 0.64183098 2.125211
6.2907491 0.61955702 1.859449
6.5908098 0.65684497 1.774325
6.28197 0.63343 1.527624
6.3541632 0.64816099 1.382288
6.4245901 0.66289097 1.236523
6.6305561 0.69192201 1.114025
6.4597359 0.68167698 0.93111002
8.3243618 0.88822901 1.007305
9.7166147 1.0481941 0.959732
11.345006 1.237183 0.87814403
11.539511 1.2719671 0.65740299
7.9324079 0.89302301 0.15385
7.6049318 0.86509597 0.018346
8.067194 0.927167 -0.106665
8.4927082 0.98607397 -0.23531599
7.8924251 0.92566198 -0.32092401
9.0732536 1.074833 -0.474332
8.1977749 0.98078603 -0.51041901
8.6580257 1.0562429 -0.671152
8.5114002 1.078511 -0.74794602
8.3999052 1.1040469 -0.59474301
7.5059128 1.004287 -0.393143
7.5305128 1.016477 -0.30688101
7.081944 0.96429998 -0.196716
7.0789261 0.97227103 -0.093859002
6.5187292 0.90303999 0.015774
7.1076312 0.99304199 0.138318
6.6011348 0.93009001 0.24938001
6.5436921 0.92974401 0.37426999
8.4119873 1.2051719 0.65389001
7.025672 1.0232069 0.85427397
6.6069078 0.97006202 0.957219
6.6239858 0.980425 1.11897
6.509418 0.97118998 1.260028
6.637959 0.99825698 1.4527251
6.5288939 0.98960602 1.597703
6.5169592 0.99546802 1.766045
6.6050591 1.016773 1.96584
6.7081919 1.040632 2.1771269
7.3693428 1.151957 2.590868
6.5839181 1.037011 2.4928081
6.9299531 1.0997699 2.811537
6.7278762 1.075708 2.910639
6.6613059 1.072996 3.0584559
7.1958122 1.167676 3.4916639
7.5595012 1.2356991 3.861227
7.2794752 1.198602 3.898068
7.4542379 1.236279 4.1692748
7.2258048 1.207013 4.2050762
7.489233 1.259966 4.518456
7.5287628 1.275604 4.6931791
7.1689658 1.223205 4.599534
7.059515 1.212976 4.6464372
6.482986 1.129416 4.441062
6.6280031 1.186435 4.7114191
6.5563679 1.205065 4.564219
6.8063631 1.267367 4.5887728
7.2020211 1.349691 4.7531018
7.207201 1.359323 4.6385541
7.7548919 1.471957 4.8513122
7.0400791 1.344746 4.2643352
7.331347 1.409204 4.2852249
6.684443 1.292917 3.756696
7.5053849 1.451705 4.21807
6.6974511 1.303499 3.6051531
7.7738061 1.522366 3.9931159
6.4277058 1.266504 3.1378751
6.2958498 1.248117 2.9094141
6.3787041 1.272249 2.778641
6.5073061 1.305755 2.659411
6.090766 1.229528 2.3239579
6.1857848 1.256194 2.1925249
6.2666841 1.280198 2.051306
6.0480242 1.242844 1.816272
6.2016058 1.281919 1.696438
6.306283 1.311191 1.558431
6.0643768 1.268239 1.34083
6.1281662 1.2890151 1.198916
6.7142339 1.420431 1.146825
6.7881122 1.444294 0.99482101
5.9746742 1.278481 0.73517001
6.4282098 1.383335 0.64571798
6.0340662 1.305846 0.475054
5.5607219 1.210176 0.32225701
6.8182249 1.4838459 0.39513201
5.433517 1.1891 0.20807201
6.1360121 1.3503129 0.121091
6.321074 1.398733 0.015517
5.9031239 1.3134381 -0.079438001
5.7428122 1.284776 -0.16196699
6.1306939 1.3790261 -0.253777
5.3368502 1.206971 -0.28406
5.5991201 1.273127 -0.35498601
5.6962252 1.309122 -0.449736
5.9307132 1.392054 -0.53108299
5.7574401 1.379627 -0.415613
5.3422861 1.293276 -0.28535599
5.724196 1.392766 -0.237918
6.1591129 1.506161 -0.174513
5.5872302 1.373196 -0.075576
5.6375508 1.392504 0.013919
5.458293 1.35496 0.108392
5.5411782 1.382365 0.213642
5.6701579 1.421535 0.33102
5.79814 1.460786 0.460094
5.5657759 1.409116 0.56381798
6.271543 1.595547 0.77865499
6.065917 1.550743 0.89748102
6.2754092 1.612062 1.082709
5.9056592 1.524388 1.167702
5.7757611 1.498021 1.291334
6.0044231 1.564768 1.501286
6.039144 1.581857 1.6723731
5.9200559 1.558009 1.80075
5.8751969 1.553507 1.949001
6.0547991 1.608519 2.1761191
6.1084461 1.6303639 2.364594
6.190887 1.660078 2.568285
6.3878822 1.720852 2.8261759
6.2130709 1.681497 2.917671
6.2782831 1.70698 3.116276
6.4123278 1.751421 3.3507781
6.3011112 1.728906 3.452388
6.3736539 1.756778 3.647995
6.3088741 1.746805 3.7575369
6.2511539 1.7386481 3.860399
6.2270179 1.739725 3.9737301
7.841825 2.1908751 5.0042081
8.0134554 2.2589071 5.4007082
7.3876262 2.101018 5.1833839
7.2053599 2.0854139 5.2486048
7.2463918 2.1338141 5.1721039
8.1526194 2.421262 5.6367989
7.3999281 2.2164249 4.8855019
7.6452999 2.2996061 4.9068151
6.2927208 1.900736 3.9110191
6.2685542 1.901379 3.760026
9.1625633 2.7791901 5.4959202
6.3730431 1.941164 3.6760161
6.2262859 1.904364 3.4402421
6.4114599 1.969153 3.3809371
5.99231 1.848034 3.003531
5.8109522 1.799492 2.7574821
5.8957582 1.833266 2.6376071
5.958827 1.860465 2.501334
6.0157962 1.885918 2.3579381
5.8766499 1.8498009 2.1400249
6.213171 1.963658 2.0897851
5.8285089 1.84953 1.798775
6.1433892 1.957312 1.727231
5.734067 1.834234 1.456605
5.777843 1.855633 1.313333
5.7628498 1.858209 1.159241
5.7850971 1.872799 1.016122
5.8499112 1.9012851 0.88173097
5.779274 1.885757 0.73146701
5.4731188 1.792892 0.56557697
5.283195 1.737469 0.427948
5.7850981 1.909983 0.34498399
5.3318372 1.767202 0.21012799
5.1351919 1.708652 0.104307
5.292541 1.767833 0.013375
5.5365329 1.856479 -0.076706
5.3091698 1.7871079 -0.154181
5.378613 1.817436 -0.229283
5.4029641 1.832655 -0.29619199
5.7549419 1.959505 -0.37584201
5.4963422 1.885704 -0.447128
5.6946259 1.983351 -0.52569902
5.3787761 1.901403 -0.40048701
5.0905652 1.812835 -0.28053501
5.2586379 1.8795691 -0.22553
5.4902101 1.969528 -0.160537
5.138607 1.85014 -0.071741
4.9817052 1.8001831 0.012696
5.201458 1.88643 0.106639
5.6445131 2.0545311 0.22470701
5.3040729 1.944581 0.434699
6.1587539 2.257925 0.50474501
5.328455 1.960539 0.55756301
5.4028821 1.995047 0.69300002
5.249887 1.94549 0.80255401
5.5717368 2.072119 0.99337602
5.6626921 2.11343 1.157172
5.7012811 2.135385 1.3175631
5.7072401 2.145174 1.475183
5.609818 2.1159251 1.606131
6.0625958 2.2947471 1.906859
5.706017 2.1673639 1.957551
5.6606679 2.157661 2.10426
5.770328 2.207134 2.310647
6.047205 2.321099 2.595437
5.6397548 2.1722209 2.5818219
5.4328742 2.0997829 2.6402299
5.6640382 2.196698 2.9097919
6.2587242 2.4356971 3.3854389
8.2112684 3.2065451 4.6576872
8.8655481 3.4858019 5.4680419
8.68188 3.4368939 5.738843
7.618969 3.0263541 5.1848321
5.4218922 2.175545 3.9426391
5.3159351 2.1617579 4.0154271
5.3349009 2.198401 3.950685
5.4495468 2.260468 3.910346
5.5280032 2.300535 3.8840041
7.4682651 3.107995 5.247242
8.629674 3.603085 5.9144511
8.3656015 3.5042529 5.5744271
8.7736616 3.687161 5.6622591
8.892993 3.7494619 5.5397282
6.0285339 2.5500059 3.6117611
6.1108699 2.593199 3.507514
8.1464701 3.4570229 4.6759071
5.8350358 2.484154 3.1968329
5.3256011 2.2745769 2.7737191
5.774044 2.4740369 2.8474851
5.556613 2.388521 2.583787
5.7850928 2.494693 2.524395
5.4380941 2.3525469 2.216063
5.7261519 2.4850681 2.1682439
5.986661 2.6063869 2.0940609
5.8622532 2.560322 1.881743
5.5349889 2.425055 1.6188101
5.357512 2.354713 1.415922
5.4123468 2.386313 1.2801239
5.3408618 2.3622129 1.1180609
5.340899 2.3696461 0.97640002
5.476778 2.4375451 0.859312
5.2137828 2.3277581 0.68702698
4.9083638 2.198236 0.52814603
5.1640792 2.3199601 0.43562001
5.0299988 2.2667551 0.312419
4.9799962 2.251179 0.204446
5.1347299 2.3283169 0.108662
5.2603989 2.3926661 0.013852
5.1589322 2.353745 -0.074486002
4.7365661 2.167697 -0.143369
4.6729569 2.1451499 -0.207654
5.1777802 2.384172 -0.29593301
4.9781919 2.2992859 -0.33900401
4.9296741 2.290777 -0.41828099
5.2150698 2.452924 -0.50242299
4.9610419 2.3616419 -0.38571101
5.038517 2.4128959 -0.29002199
6.4814391 3.1038971 -0.37307799
4.6393881 2.22838 -0.207856
4.7856131 2.305455 -0.146203
4.7276092 2.284286 -0.068968996
4.8216372 2.3366251 0.012842
5.7945929 2.816453 0.124174
4.989799 2.4324491 0.207661
4.7035322 2.2996581 0.29647601
4.9953008 2.4495089 0.428101
4.9966378 2.4573629 0.54681301
5.2436519 2.5864079 0.70351303
5.2924652 2.6181381 0.84639901
5.4762769 2.716984 1.021561
5.3533039 2.6637199 1.144762
5.1500869 2.570075 1.245646
5.2967501 2.650949 1.433089
5.4689951 2.745028 1.6392519
5.9966588 3.0186031 1.974871
5.5023479 2.7778039 1.976791
5.4974079 2.78333 2.140353
5.733254 2.9111121 2.40488
5.6686778 2.886622 2.548944
5.572381 2.8457429 2.6729641
9.4871674 4.85888 4.8316832
8.0650358 4.1423821 4.3426571
8.1508732 4.210434 4.8473582
5.5374169 2.8767519 3.5818069
5.4143939 2.8208439 3.632354
5.3446231 2.792393 3.706161
5.3361912 2.7958851 3.81005
5.3606191 2.816637 3.9280839
7.0231628 3.71104 5.360713
6.5702391 3.5108969 5.2124872
6.985579 3.7746899 5.4365001
5.336328 2.915642 3.8458631
5.3220272 2.9158731 3.7297239
5.366601 2.948406 3.6430919
5.4473252 3.0009999 3.569859
5.573185 3.078795 3.513206
7.753624 4.2951002 4.683382
7.6929932 4.2732172 4.4360452
5.4615569 3.0586929 2.6741431
5.6485658 3.1720531 2.595809
6.8181 3.828825 3.13327
5.5799408 3.1420479 2.395071
5.5136909 3.1131959 2.1994159
5.3115678 3.007215 1.957551
5.675674 3.2220719 1.9198411
5.3121219 3.0238609 1.637441
5.2285452 2.9843349 1.456605
5.4187641 3.101259 1.351195
4.6008978 2.64029 1.015581
4.528399 2.6056831 0.87305701
4.5699892 2.636687 0.75629598
4.278914 2.475389 0.59480202
4.6469631 2.695519 0.52755898
4.54985 2.6462569 0.40500799
5.405694 3.1440279 0.48119199
4.4511452 2.595783 0.29178399
4.5038972 2.633564 0.19517501
4.9197321 2.8844011 0.109915
4.4939981 2.6418171 0.012495
4.581861 2.700635 -0.069862999
4.914721 2.9045391 -0.157125
5.0776839 3.0088129 -0.238362
4.7452402 2.8192749 -0.286549
4.7024231 2.8012431 -0.33838701
4.6277008 2.7713201 -0.415059
4.5904608 2.7781031 -0.46777001
4.3699732 2.6724999 -0.35959101
4.5685291 2.8085461 -0.278409
4.4349952 2.7335589 -0.210398
4.5060301 2.7845709 -0.14579
4.3689561 2.706893 -0.067511
4.3313441 2.6905589 0.012222
4.7577009 2.9630809 0.108026
4.8111491 3.0041311 0.212184
4.3971219 2.7527139 0.293762
4.4133191 2.7700059 0.400942
4.392695 2.7641799 0.50967401
4.7854218 3.0190771 0.68081498
4.5509911 2.8785839 0.771905
5.441947 3.442131 0.92302197
4.9236188 3.122293 0.97425699
5.2912688 3.364063 1.200421
5.2030559 3.3164849 1.335331
5.1466279 3.2889321 1.47777
5.834888 3.738224 1.856353
4.8754258 3.1315229 1.704518
5.6301489 3.616287 1.96838
4.9548769 3.1907029 1.8900599
4.8767691 3.148427 2.0163231
5.5096111 3.602529 3.1529939
5.4098802 3.546298 3.260752
5.3591642 3.521961 3.388386
9.3479891 6.2371569 7.28965
9.1614151 6.20544 7.7424812
7.7082658 5.2735958 6.3946528
7.6260781 5.3089638 5.333631
5.311079 3.7157199 3.424825
5.3237171 3.733794 3.2778571
5.3799052 3.7825351 3.149971
5.4933829 3.8718641 3.046483
4.8576021 3.457674 2.0711191
9.39534 6.720614 3.398031
5.6510882 4.0522461 1.8628221
4.9775572 3.578038 1.483178
5.13592 3.700933 1.37002
4.9465661 3.573235 1.1682661
4.5479412 3.29333 0.938326
4.4307318 3.2163081 0.78481698
4.3936501 3.197201 0.653817
4.624752 3.373596 0.56215698
4.3106599 3.1521571 0.410916
4.0688281 2.982589 0.285678
4.3540921 3.1994801 0.20212799
4.5135999 3.324784 0.108045
4.2861171 3.1649041 0.012771
4.2692208 3.160099 -0.069770999
4.2185369 3.1301861 -0.14457899
4.070353 3.027571 -0.20487
4.3376799 3.234246 -0.280898
4.3322811 3.23807 -0.33437601
4.2468848 3.1896501 -0.40869099
4.5063019 3.4173789 -0.49304301
4.2896142 3.2845731 -0.379269
4.1228909 3.172147 -0.270062
4.1332588 3.1877761 -0.210802
4.1036739 3.172569 -0.142764
4.133584 3.203383 -0.068694003
4.3363199 3.368566 0.013161
4.2550869 3.3134069 0.103941
4.1324668 3.2256429 0.196109
4.1320729 3.233068 0.29709801
3.9469991 3.0956709 0.38598099
4.430583 3.4832721 0.55345899
4.1804771 3.294507 0.64043701
4.12148 3.255794 0.752891
4.766346 3.7742119 1.015957
4.9718828 3.946372 1.215275
4.7472739 3.777102 1.31291
5.7354298 4.563314 1.586194
4.6246471 3.688318 1.4312069
5.4882231 4.4188161 2.4474781
5.24933 4.2365251 2.5229349
5.2364559 4.2361951 2.698838
5.2477679 4.2554331 2.8862829
5.1346622 4.173604 2.9994171
5.0880141 4.1455169 3.143491
4.9900279 4.0753279 3.2476981
4.8992491 4.0106778 3.3454061
4.8354139 3.9678161 3.4513681
4.8032269 3.950742 3.569859
4.7496972 3.915978 3.6625209
4.6915808 3.877218 3.74072
4.6522851 3.8538411 3.82074
4.6181951 3.834661 3.8937991
4.5616908 3.8056691 4.0092068
4.4878111 3.7795341 4.1054358
4.497364 3.8234229 4.0416422
4.5342188 3.872936 3.9523339
4.568706 3.9115751 3.901418
4.6088262 3.955204 3.8410521
4.6167121 3.9712989 3.742815
4.6510839 4.0102701 3.6538291
4.6687179 4.0349312 3.541981
4.689342 4.0622859 3.423347
4.716671 4.0955539 3.3005581
4.7675338 4.1494479 3.1860299
4.8537998 4.2344408 3.0851741
4.8817019 4.2687721 2.9395521
4.9231992 4.315167 2.7967119
4.9763188 4.3719501 2.6542039
5.0287681 4.4283829 2.50612
5.1076059 4.5083599 2.366431
5.1526518 4.5587721 2.206445
5.2081332 4.6186461 2.0476799
5.2861338 4.6988058 1.894649
3.8940921 3.4695301 1.261889
4.3476801 3.8827269 1.26151
3.9231701 3.5118201 1.00806
4.3416719 3.8955281 0.97475201
3.6234031 3.258667 0.69854498
4.4249239 3.979506 0.85306799
3.999146 3.6050041 0.64784402
3.6921549 3.336045 0.488662
3.7024889 3.3531971 0.38437
3.958627 3.593555 0.30275199
3.677891 3.346504 0.18601599
3.8635221 3.5236261 0.100781
3.852016 3.5213311 0.012509
3.793788 3.4761939 -0.067589998
4.2274299 3.8825819 -0.157978
3.779269 3.4790759 -0.207452
3.718179 3.430819 -0.26264799
3.769258 3.4860699 -0.317408
3.595078 3.3404951 -0.377619
4.3533158 4.082891 -0.52031398
3.7561729 3.5557771 -0.36309201
3.953969 3.7604749 -0.28328201
3.782465 3.6057341 -0.211044
3.8847229 3.7118311 -0.147881
4.7736921 4.561235 -0.181722
3.8259349 3.664176 -0.069587
5.0246992 4.8122559 -0.091389999
3.726773 3.5775089 0.012382
3.7219319 3.581183 0.099546999
3.8266349 3.69049 0.19887599
3.6451869 3.5236731 0.28709099
3.7027669 3.5876689 0.39672199
3.883111 3.7711551 0.53156602
3.6752579 3.5775931 0.61714202
3.743768 3.6527669 0.74976897
4.096293 4.0060148 0.95744503
5.0970058 4.9962611 1.366456
3.7019999 3.637275 1.123175
5.253912 5.1620541 1.594021
5.1966658 5.1176772 1.76467
5.529192 5.4576941 2.0812161
7.8242168 7.8132591 4.4306169
9.3353386 9.3439312 5.6425309
8.7638826 8.7923374 5.6272612
5.5898819 5.6341472 4.0007682
6.1854281 6.263443 4.8572302
6.0454941 6.135973 4.9443369
5.817183 5.9179878 4.9372201
5.8202438 5.934866 5.1089311
5.0644069 5.188199 4.7030349
4.9430041 5.1828861 4.9037528
5.0183959 5.2987761 4.734055
6.0654578 6.4043369 5.7217898
5.6251211 5.9532242 5.1800218
5.6756539 6.0207071 5.0853691
5.9525108 6.3290982 5.1693549
5.865592 6.2512031 4.9204421
6.1559658 6.5759678 4.9702778
5.305799 5.694253 3.923346
7.3809929 7.9769158 4.6427231
4.923542 5.4085898 1.769608
4.9525552 5.4531631 1.594232
3.9245241 4.3313222 1.119001
4.9434099 5.455821 1.409516
3.6840999 4.0754738 0.91805297
3.5514319 3.937891 0.76012701
3.302443 3.6703761 0.59408599
3.7654459 4.1947451 0.55355603
3.78216 4.223217 0.43623301
3.4484229 3.8595769 0.293084
4.3021588 4.8263679 0.24186601
3.4217279 3.847652 0.099238999
3.4484129 3.886735 0.012454
3.5960431 4.0626192 -0.071268
3.4546249 3.912004 -0.14364401
3.3501589 3.8025949 -0.204668
3.400667 3.868968 -0.267418
4.1694102 4.7435741 -0.327869
3.7081549 4.2287011 -0.34770501
3.7069249 4.247148 -0.43377799
3.9909761 4.6157079 -0.53195202
3.4095409 3.980474 -0.367924
3.4189711 4.0103011 -0.27358699
3.332617 3.918215 -0.207735
3.360564 3.9603779 -0.142956
3.61601 4.271472 -0.073514
3.5081141 4.1537852 0.013032
3.775794 4.481288 0.11294
3.3442709 3.9784989 0.194427
3.3744919 4.0239239 0.29738101
4.017314 4.7904592 0.35403001
3.2961669 3.939817 0.39526501
3.3333459 3.9936659 0.51084697
3.322674 3.9902861 0.62478697
3.453635 4.1573768 0.77474302
3.477319 4.195786 0.91063601
3.7143929 4.4924459 1.115992
4.7313919 5.722476 1.421551
3.383857 4.1023731 1.150885
4.6258268 5.6080589 1.573292
4.5375071 5.5140109 1.727749
4.4608302 5.4335618 1.8832639
4.3597078 5.3229752 2.0239739
4.3157539 5.2818208 2.18751
4.2418332 5.20367 2.3319781
4.1319542 5.0809059 2.449369
4.078022 5.0265121 2.5935769
4.0388551 4.9900622 2.7424991
4.0190411 4.977385 2.8999181
3.9903989 4.9536819 3.0467279
3.9502599 4.9155211 3.178828
3.8990641 4.8633661 3.29355
3.8412759 4.8027129 3.393394
3.8140459 4.7800322 3.5101211
3.817214 4.795424 3.6466711
3.7410209 4.7109179 3.6972599
3.1735809 4.0059018 3.232235
3.7262149 4.7034731 3.795084
3.6866641 4.6646781 3.8567929
3.6164091 4.5976849 3.9476731
3.292217 4.2257838 3.7482669
3.5003121 4.5361881 3.923003
3.547672 4.6197128 3.860625
3.5530751 4.6378822 3.789856
3.5297949 4.6185889 3.67642
3.5992579 4.7208419 3.6485629
3.633492 4.777235 3.570997
3.647603 4.8073568 3.463824
3.6688421 4.8470378 3.3542621
3.670465 4.8608971 3.2183361
3.7104011 4.9256802 3.108608
3.7704141 5.017458 3.0061231
3.8203549 5.0962219 2.8871191
3.888761 5.2000561 2.773927
3.975317 5.3286839 2.6638751
3.6487501 4.9028029 2.2857749
4.1623688 5.606544 2.425493
3.8390231 5.1835699 2.0687139
3.9397919 5.332562 1.9503191
4.1055908 5.570509 1.853765
3.1723621 4.3147712 1.295753
4.5798192 6.244246 1.675879
3.0441699 4.1606331 0.98699999
3.042912 4.1690588 0.86250901
3.294328 4.5245419 0.80227
3.3980811 4.6784568 0.69574797
3.4141901 4.7121301 0.57144099
3.3612871 4.650466 0.44152701
3.3066959 4.5861559 0.32016501
3.215656 4.47082 0.206016
3.236587 4.510972 0.107005
3.3233161 4.643219 0.013686
3.2270081 4.5197358 -0.072949
3.1001899 4.3528042 -0.147083
3.121563 4.3935981 -0.21766099
3.1725531 4.4763608 -0.28483799
3.0653131 4.3357229 -0.32826799
3.7365711 5.285181 -0.40015301
3.0130401 4.2828422 -0.402937
3.571995 5.1278229 -0.544806
3.202837 4.6437101 -0.396005
3.137953 4.5723271 -0.28789699
3.715477 5.4138389 -0.34088299
3.1201971 4.5577841 -0.223069
3.746155 5.4721441 -0.26782
3.57288 5.2320518 -0.174376
3.2981961 4.841886 -0.076954998
4.024374 5.9079442 -0.093898997
3.2484491 4.7807722 0.013854
3.16096 4.6636648 0.108585
3.0011251 4.438931 0.20044599
3.262342 4.8373852 0.33039799
3.228946 4.7998919 0.445133
3.2928419 4.9071631 0.58033502
3.1694031 4.7350779 0.68559402
3.1313889 4.6900692 0.80837202
3.004267 4.5110002 0.90569198
2.896704 4.3604522 1.002231
4.2212839 6.3704162 1.653881
4.2634168 6.4502459 1.870728
3.6229899 5.495059 1.763199
4.162663 6.313592 2.025841
4.1438632 6.300981 2.2184141
4.027462 6.1395178 2.3548639
3.408879 5.2362261 2.503566
5.0633612 7.8172302 4.2218909
4.3602581 6.7489009 3.8484759
3.3016319 5.136457 3.2262781
3.1345551 4.8890138 3.2044959
3.391336 5.3030572 3.613169
2.998987 4.7015691 3.317898
3.311517 5.2048421 3.7915111
3.087997 4.8659902 3.6448841
3.2364969 5.1131182 3.9253631
2.751791 4.3697791 3.4850509
3.213809 5.1034532 4.0701809
3.195755 5.127461 4.22755
3.1366839 5.085146 4.0907922
3.138839 5.1151948 3.977747
2.753402 4.498775 3.421428
3.1541269 5.1535201 3.9193771
3.186842 5.220572 3.8683131
7.9801531 13.141352 9.147356
3.316283 5.4754181 3.674401
3.0816431 5.1013832 3.288558
5.4754791 9.0879822 5.6060429
4.218564 7.0202508 4.1286058
4.752553 7.9506269 4.198771
3.322607 5.692708 1.426496
3.306047 5.6794891 1.258148
3.3674099 5.8003788 1.120783
3.029567 5.2324219 0.86668998
3.09954 5.367651 0.745803
2.948724 5.1201882 0.58023697
2.8459229 4.9549732 0.439686
2.874768 5.0186939 0.32751399
3.0083389 5.2660408 0.22687501
2.967133 5.2079549 0.115522
2.7452481 4.8315301 0.013319
2.9050469 5.1266131 -0.077402003
3.5212541 6.2140498 -0.093819998
3.2370961 5.7281008 -0.181089
2.949893 5.2340641 -0.24264
3.0259261 5.3835711 -0.320611
3.2805309 5.8524661 -0.41477701
3.0829201 5.5299878 -0.487176
3.045505 5.5230541 -0.54984301
2.9837129 5.470932 -0.43746099
2.7348149 5.0423841 -0.29779899
3.182467 5.8840408 -0.27015999
2.8230169 5.2339649 -0.163673
2.7334449 5.0820241 -0.075799003
2.8516109 5.3165021 0.01446
2.78455 5.2059922 0.113788
2.683491 5.031085 0.213305
2.812609 5.28793 0.33916101
2.774173 5.2303219 0.455567
2.847213 5.3831129 0.59802401
2.962486 5.6168208 0.76407999
3.038847 5.7778649 0.93579298
3.9594491 7.5494952 1.424548
3.103334 5.9338732 1.282028
3.7922549 7.333735 2.4286561
3.5790491 6.9610438 2.7188361
3.3665841 6.6043429 3.166779
3.1546481 6.2063909 3.15589
3.2666769 6.4453459 3.460994
3.322397 6.5742159 3.7131341
3.306778 6.5622368 3.882652
3.143975 6.2572632 3.8639469
2.3603051 4.7944088 3.6064401
2.237184 4.598156 3.5779951
4.0939922 8.5914888 6.1734819
2.5844419 5.4398708 3.8089809
3.300271 6.9884639 4.5982208
4.394465 9.3335352 5.921555
3.02402 6.4617491 3.7695971
3.23755 6.9390378 3.8598771
3.4112451 7.3335419 3.8739631
3.3719659 7.2711778 3.6331551
3.980684 8.6100245 4.0522671
3.199048 6.9405432 3.062228
2.529525 5.5047841 2.2658069
4.6038589 10.049773 3.8397081
4.3747311 9.5789862 3.377311
4.1947122 9.2131233 2.9778271
4.855885 10.698288 3.1473119
3.4976361 7.7296972 2.0527451
2.844697 6.3258362 1.327909
2.708149 6.0409451 1.106279
3.380748 7.5412812 1.381036
2.594151 5.8047118 0.91138703
2.6193669 5.8794889 0.77447402
2.5218351 5.6783028 0.61014301
2.5461221 5.7509928 0.48395401
2.635983 5.9727249 0.36969
2.4829209 5.643652 0.23065101
2.374424 5.4141202 0.113942
2.550024 5.8329329 0.015259
2.6217289 6.015985 -0.086202003
2.6589701 6.1208749 -0.18367501
2.755125 6.3624368 -0.28000599
2.796932 6.4796162 -0.36638999
2.767312 6.431551 -0.43285701
2.5746801 6.022357 -0.50397801
2.7137971 6.4303279 -0.60846603
2.5443611 6.1079588 -0.46449199
2.4562111 5.9351878 -0.333469
2.67312 6.4806271 -0.283113
2.5128131 6.1121202 -0.181887
2.5026419 6.107574 -0.086700998
2.5588939 6.2655911 0.016222
2.2002039 5.4052768 0.112477
2.3085029 5.6902609 0.229716
2.378037 5.881259 0.359231
2.4585519 6.100801 0.50612599
2.5125909 6.2558508 0.66203898
2.4853251 6.2088099 0.80469698
2.773483 6.9286852 0.89799702
2.4362409 6.1067719 0.94246203
2.5129721 6.320436 1.136606
2.838026 7.1379871 1.283626
3.033433 7.6553521 1.576492
4.0185418 10.175984 2.367764
3.772964 9.7521677 3.9108641
3.654177 9.4778528 4.0702009
2.8418291 7.4221511 3.602603
3.020252 7.9156852 4.0579848
3.434778 9.0335741 4.8717728
4.2859011 11.31156 6.391356
3.683686 9.8253832 6.2431092
2.800873 7.4971452 4.9188581
1.952059 5.3000669 3.811739
1.882677 5.2619152 3.826396
2.194001 6.1320381 4.4591389
3.45013 9.8588343 6.2144752
3.843883 11.066381 6.464067
3.8415289 11.101162 6.2068238
2.9816909 8.6816273 4.3966541
2.787499 8.1469793 3.9031639
3.3653331 9.8732557 4.4561191
2.6792719 7.8904629 3.3389561
2.3475709 6.9400501 2.7401271
2.8892951 8.5415316 3.372437
2.5926781 7.7237172 2.6129191
3.049859 9.1561317 2.585283
3.0860071 9.3006458 2.3709221
3.3993781 10.285011 2.344285
2.0175941 6.1282411 1.235207
2.076472 6.3318119 1.113531
2.0793531 6.3655391 0.95991498
2.039129 6.2670698 0.79299003
2.0698481 6.3866711 0.65930301
2.0962629 6.4938669 0.52507597
2.204232 6.9106321 0.13980199
2.012223 6.3340368 0.015930001
2.132899 6.7410059 -0.092873998
2.0989039 6.66047 -0.192204
2.103724 6.7028961 -0.283719
1.989656 6.365303 -0.346223
1.963047 6.3059039 -0.40829799
2.1994369 7.2426949 -0.659881
2.1572361 7.2242351 -0.52926701
1.945501 6.570807 -0.355762
1.955573 6.6330972 -0.27928001
2.001657 6.8185768 -0.19558799
1.899212 6.4975371 -0.088921003
1.941847 6.6721482 0.016656
2.0236199 6.9833589 0.14013
1.9302649 6.6902361 0.26048201
1.9668 6.846693 0.403386
1.8942339 6.6230798 0.53006297
1.971643 6.9241271 0.70699602
2.9719601 10.483277 1.311098
2.890729 10.242096 1.5255049
2.683717 9.5937748 1.9072469
2.6789479 9.6631956 2.4261861
1.96671 7.1259298 1.980299
1.943303 7.073122 2.1577401
1.919701 7.0191398 2.333792
2.714514 10.016599 3.881438
2.7067339 10.034071 4.1643028
1.82981 6.8784528 3.4091561
2.4242899 9.1131649 4.5167432
2.360575 8.9152937 4.6489568
1.975433 7.6033049 4.6738949
1.897472 7.6300101 5.5014329
1.8790669 7.7086968 5.4325452
2.387475 9.9959412 6.4997492
2.274189 9.6204844 5.8816118
1.915641 8.1886415 4.6403108
1.9102499 8.2085419 4.4530668
2.202486 9.564909 4.7011971
2.2351971 9.7587519 4.5381398
2.189589 9.6109476 4.210979
2.267653 10.007214 4.1114869
2.1719911 9.6369438 3.6947229
1.629425 7.2690001 2.5875871
1.618475 7.2596221 2.3854029
1.568934 7.0760722 2.1320591
1.9007241 8.8143616 1.506794
1.982195 9.2442331 1.355232
1.753125 8.2225437 1.011606
1.669525 7.8752542 0.79055703
1.645767 7.807847 0.61399502
1.680476 8.0186777 0.463936
1.587267 7.6179528 0.29109901
1.529941 7.3858032 0.145371
1.510552 7.3350549 0.01795
1.52678 7.4576612 -0.099992998
1.582058 7.7736421 -0.21834099
1.4990979 8.0841084 -0.426842
1.4569221 7.9596982 -0.22271501
1.455606 8.0050325 -0.106876
1.4158601 7.8381252 0.019091001
1.382476 7.704495 0.15086301
1.390187 7.7995338 0.29637
1.419224 8.0162964 0.46099699
1.400232 7.9629259 0.62212801
1.59885 9.1547279 0.91262501
1.808237 10.425024 1.273109
1.768925 10.269247 1.493721
1.770811 10.352007 1.755015
1.835422 10.805169 2.0982921
1.999452 11.854253 2.601706
1.682013 10.043306 2.4638121
1.567425 9.4256544 2.559665
1.490401 9.027153 2.6913891
1.604003 9.7859106 3.1803341
1.845454 11.341371 3.991302
1.7748131 10.9876 4.1627369
1.613577 10.138838 4.385798
1.645027 10.414242 4.7792501
1.613003 10.367581 5.2890439
1.46456 9.6340847 5.593493
1.2149251 8.1835461 5.2324052
1.072443 8.2042856 5.2329388
1.4044451 11.808644 4.7649961
1.335171 11.338286 4.2699318
1.1540101 9.9996252 3.2282801
1.074707 9.5061264 2.5627711
1.101105 9.8418531 2.396085
0.96969801 9.2495718 0.91330898
0.93596703 9.0287828 0.69846499
0.90881699 8.8672686 0.50475597
0.89855897 8.9724436 0.173794
0.93955499 9.8421965 -0.399288
1.009773 10.709013 -0.55842501
0.53653002 6.2312222 -0.54523998
0.716712 9.4811287 -0.124896
0.708848 9.9938421 0.56734103
0.58880198 9.5575876 2.316834
0.57067502 9.4402981 2.533531
0.57910901 9.9644318 3.2011011
0.54248798 9.5253744 3.3140531
0.55196798 10.105696 4.0553231
0.50251698 9.6103334 4.3622632
0.53625798 10.990388 5.8139338
0.48163599 10.112607 5.5862489
0.372096 8.4312468 5.1869502
0.20684201 8.4948692 5.2225561
0.210012 10.067595 5.5562959
0.143868 10.362035 4.152401
0.102893 12.748078 3.4151299
0.056301001 12.281809 2.351388
0.040796001 11.920636 1.992027
-0.41023499 14.08181 -0.18505201
-0.71081001 13.270252 6.36517
-0.93315798 10.969147 5.8167372
-1.406431 12.821698 0.24859899
-0.72884899 6.1195312 -0.47420999
-0.68294799 5.5158 -0.484532
-1.490532 6.6428308 -0.42088601
-1.286253 5.6707649 -0.44743499
-1.189832 5.1349611 -0.45952001
-1.4651819 6.1923609 -0.44670501
-2.025305 6.00559 -0.39182299
-1.75383 5.1610308 -0.41943201
-1.639823 4.753005 -0.438328
-1.206479 -4.134707 1.153816
-0.96787 -3.33127 1.020453
-0.88355899 -3.0542531 1.019698
-0.86386502 -2.9991391 1.0841219
-0.90604699 -3.1592929 1.229239
-0.758479 -2.6563201 1.10691
-0.76974499 -2.7076111 1.20252
-0.73124897 -2.5835309 1.2171071
-1.047015 -3.699146 1.742676
-0.71502203 -2.53739 1.2626669
-1.027645 -3.6467919 1.814732
-0.98581201 -3.5138719 1.839687
-1.040349 -3.7247889 2.0434029
-0.92720503 -3.334569 1.90975
-0.84498298 -3.0525169 1.818035
-0.90618002 -3.288367 2.0293939
-1.0174069 -3.708698 2.3636069
-0.93579799 -3.426712 2.246583
-0.98969799 -3.6406369 2.447298
-0.85850197 -3.187073 2.227524
-0.83026898 -3.139957 2.2725799
-0.86959702 -3.351243 2.3705239
-0.93392301 -3.633647 2.486644
-0.923917 -3.6120059 2.4184549
-0.895693 -3.5185781 2.296293
-0.86511302 -3.414953 2.1651559
-0.771635 -3.0607929 1.878046
-0.79836297 -3.182307 1.883249
-0.80502498 -3.224648 1.833901
-0.89061201 -3.585084 1.9518369
-0.86207098 -3.487417 1.810879
-0.664774 -2.7026601 1.333079
-0.67641902 -2.763752 1.28977
-0.66493797 -2.7305059 1.200555
-0.77162403 -3.1845901 1.312968
-0.91800201 -3.80791 1.464998
-0.747347 -3.1158259 1.1129971
-0.79304898 -3.323277 1.09574
-1.1612819 -4.8663592 1.60452
-0.98281902 -4.139667 1.251579
-0.99340898 -4.2058949 1.157697
-0.67166197 -2.8584261 0.71043003
-1.3951271 -5.937314 1.4756531
-1.785318 -7.5978689 1.888366
-0.75195497 -3.2168031 0.71494001
-1.415143 -6.0538721 1.345484
-0.693174 -2.9808829 0.58591998
-0.73377901 -3.1720901 0.544074
-0.69279498 -3.010741 0.44285199
-0.69823998 -3.0505371 0.37654501
-0.90514302 -3.9544721 0.488123
-0.72664797 -3.1915791 0.32144201
-0.78618199 -3.47157 0.273893
-0.84377801 -3.745995 0.217438
-1.207309 -5.3599091 0.31111899
-0.71022499 -3.1701441 0.121531
-0.70953202 -3.1843021 0.062876999
-0.696033 -3.1407909 0.0077109998
-0.65167397 -2.9567759 -0.039771002
-0.64977801 -2.964474 -0.083529003
-1.655907 -7.5547218 -0.21286599
-0.64011598 -2.936594 -0.12138
-0.60740298 -2.8020611 -0.148848
-0.65493202 -3.0382791 -0.192148
-1.2034431 -5.5828619 -0.353073
-0.705854 -3.3116009 -0.26054299
-0.604029 -2.899519 -0.258203
-0.66004598 -3.2433741 -0.23235101
-0.64363003 -3.2005279 -0.16948199
-1.147469 -5.7059269 -0.302154
-0.58602101 -2.9315641 -0.120735
-0.592632 -2.9825399 -0.083694004
-0.80595601 -4.0561371 -0.11382
-0.58044499 -2.938971 -0.039351001
-1.132603 -5.7347212 -0.076784
-0.59443599 -3.028199 0.0073970002
-1.124151 -5.7266908 0.013988
-0.60346299 -3.093097 0.060738001
-0.63458598 -3.272712 0.124708
-0.800457 -4.1538 0.239544
-1.101975 -5.7184601 0.32977599
-0.71187901 -3.7172611 0.29123101
-1.084321 -5.662066 0.44359899
-0.54385197 -2.857717 0.28567201
-0.58870697 -3.1129711 0.38120401
-0.576419 -3.0674081 0.447393
-0.632191 -3.385725 0.57555503
-0.53193003 -2.8671131 0.55827802
-0.53259403 -2.889307 0.63583201
-1.083083 -5.8756938 1.293027
-0.98961699 -5.4036222 1.329146
-0.99183899 -5.4511409 1.484254
-0.61142498 -3.38255 1.0111409
-0.57371801 -3.1950419 1.041075
-0.74150902 -4.129467 1.345549
-0.55934697 -3.135812 1.106434
-0.52601898 -2.9687829 1.1276489
-0.70462602 -3.9768231 1.510538
-0.69730598 -3.962163 1.612012
-0.66632301 -3.8118851 1.653121
-0.60915703 -3.508723 1.614277
-0.57527602 -3.3364439 1.621639
-0.62017798 -3.6218259 1.852291
-0.55345798 -3.25476 1.744414
-0.52116299 -3.086426 1.727133
-0.57165098 -3.40939 1.984306
-0.54914099 -3.2985101 1.989512
-0.64842802 -3.922838 2.4437211
-0.54493201 -3.7229681 2.379678
-0.52049798 -3.6142859 2.1725609
-0.52829897 -3.6987081 2.144604
-0.44244999 -3.123451 1.74066
-0.49119401 -3.5261941 1.794674
-0.47836399 -3.4930849 1.598175
-0.57170099 -4.2108469 1.8153681
-0.54480898 -4.047821 1.636561
-0.43192199 -3.2373559 1.221532
-0.64174998 -4.8528471 1.700339
-0.69905198 -5.3335152 1.725149
-0.65878397 -5.0717101 1.5044349
-0.56368297 -4.379189 1.182797
-0.70635301 -5.5380492 1.350781
-0.386242 -3.0563729 0.66671401
-0.49456599 -3.913553 0.85369802
-0.400446 -3.1984861 0.61713398
-0.38690099 -3.1195121 0.52528501
-0.42837799 -3.4868751 0.50358301
-0.37848401 -3.110456 0.37702301
-0.37019399 -3.0718911 0.30385
-0.491146 -4.1155448 0.318928
-0.76085597 -6.4388151 0.36714599
-0.36857501 -3.1502941 0.118652
-0.41297501 -3.5654969 0.069178
-0.39982101 -3.487144 0.008413
-0.38493899 -3.391933 -0.044840999
-0.35602599 -3.1698611 -0.087793
-0.40574601 -3.650526 -0.14833599
-0.40841499 -3.713578 -0.19395299
-0.40022501 -3.678226 -0.228738
-0.38287899 -3.595984 -0.27826601
-0.36262599 -3.5620091 -0.31213599
-0.35280299 -3.6319251 -0.25615999
-0.41643101 -4.3923621 -0.22905201
-0.34282699 -3.6609859 -0.148497
-0.40116 -4.3378401 -0.1199
-0.29724199 -3.2551751 -0.042936999
-0.47691399 -5.2228179 -0.068890996
-0.329602 -3.656163 0.0087989997
-0.30032599 -3.375035 0.065305002
-0.29453 -3.3537371 0.12594201
-0.284794 -3.2863989 0.18679599
-0.31034201 -3.629988 0.28033701
-0.30408201 -3.605794 0.35535499
-0.333518 -4.0101299 0.48418
-0.26852 -3.274426 0.470947
-0.27261099 -3.372088 0.56533599
-0.267975 -3.3630681 0.64590299
-0.29784 -3.7932401 0.82345003
-0.44565001 -5.6757321 1.232109
-0.415075 -5.3656878 1.302102
-0.415178 -5.448535 1.463812
-0.38801 -5.1707711 1.525318
-1.731671 -23.439947 7.5379472
-1.627985 -23.514025 10.069186
-1.602152 -23.535126 10.693035
-1.578086 -23.583862 11.321233
-1.027549 -23.48909 15.583377
-0.91712803 -23.444429 13.959305
-0.80911601 -23.457563 11.831705
-0.78071898 -23.418863 11.223174
-0.75254899 -23.384401 10.605509
-0.72649002 -23.416508 10.008294
-0.64380401 -23.362335 8.1181183
-0.616768 -23.36047 7.4945822
-0.193198 -7.6522479 2.251714
-0.18392099 -7.6345172 2.0457661
-0.136595 -5.9555502 1.441319
-0.17593101 -7.6706009 1.856383
-0.078194 -3.590019 0.77712703
-0.166476 -7.6432028 1.654516
-0.15762401 -7.6425428 1.463483
-0.070482999 -3.6201069 0.60505801
-0.14831901 -7.6179051 1.273243
-0.070912004 -3.871768 0.55509001
-0.104972 -5.7314439 0.82170999
-0.066789001 -3.8923481 0.468411
-0.092577003 -5.3952842 0.64927697
-0.061537001 -3.84501 0.37763801
-0.058848001 -3.962847 0.30496401
-0.073104002 -4.9229031 0.37884599
-0.051633999 -3.7706051 0.21353699
-0.068079002 -4.9715691 0.28154999
-0.044091001 -3.516264 0.13155
-0.03957 -3.4761291 0.067001
-0.037477002 -3.6637981 0.0087820003
-0.034196999 -3.7685201 -0.049504001
-0.048034001 -5.2933249 -0.069533996
-0.031645998 -3.996361 -0.109996
-0.025649 -3.791822 -0.153138
-0.032995999 -4.877912 -0.197001
-0.020857001 -3.7179351 -0.19302
-0.017262001 -3.875562 -0.23959801
-0.0074939998 -3.492667 -0.26875201
0.010298 -4.1612039 -0.36276999
0.025813 -3.638953 -0.25545999
0.037121002 -3.9475091 -0.204944
0.041836999 -3.962549 -0.16003799
0.044640001 -3.811295 -0.104906
0.046769001 -3.6343861 -0.047743998
0.051640999 -3.682627 0.0088280002
0.061138 -4.0277882 0.077638
0.061834998 -3.535794 0.200251
0.077188998 -4.1400399 0.31862101
0.075727999 -3.8248479 0.37568301
0.078808002 -3.76104 0.45264199
0.117983 -5.3361392 0.76509398
0.125394 -5.3897858 0.90091199
0.13247401 -5.424829 1.038898
0.14014199 -5.4793191 1.186209
0.148719 -5.5634308 1.346548
2.026345 -26.462986 9.2189751
0.50260401 -5.852417 0.84200001
0.66463298 -7.7391162 1.113444
0.45854899 -5.26794 0.63625598
0.43496501 -4.9310408 0.486121
0.691504 -7.7371969 0.59772998
0.49506 -5.4678388 0.310893
0.50392801 -5.4950819 0.20642699
0.497973 -5.3619261 0.103787
0.47280201 -5.0278039 0.012104
0.47174701 -4.9551649 -0.065384001
0.52746999 -5.407908 -0.219437
0.75689203 -7.6683602 -0.400038
0.76870602 -7.6969409 -0.47820899
0.78343803 -7.6652908 -0.592897
0.56526202 -5.2887039 -0.46368799
0.85227603 -7.6396899 -0.53963202
0.575481 -5.052484 -0.26399601
0.86729002 -7.6144462 -0.39785999
0.87678099 -7.6194682 -0.309746
0.60745901 -5.2258201 -0.14479899
0.57322299 -4.8820391 -0.064568996
0.64167798 -5.4110699 0.013061
0.64746201 -5.4063568 0.104943
0.91483998 -7.6389861 0.14828099
0.92451102 -7.6449151 0.28807101
0.93540603 -7.6607389 0.43702501
0.94457901 -7.6621752 0.59404802
0.95621902 -7.6834822 0.76035798
0.96551597 -7.685719 0.93204403
0.845016 -5.8024001 3.235415
1.56024 -9.2797222 5.9513321
1.51686 -7.8511348 0.96214902
1.517803 -7.8075771 0.78107703
1.53309 -7.837862 0.61453199
1.536723 -7.8084722 0.45065001
1.543838 -7.7970681 0.297342
1.551702 -7.789475 0.153079
1.5625581 -7.7969451 0.019060001
1.569458 -7.7846832 -0.104314
1.576015 -7.7707901 -0.21823099
1.580106 -7.7450161 -0.31922901
1.591221 -7.7537498 -0.410925
1.594853 -7.726047 -0.487712
1.603272 -7.6771922 -0.60348397
1.638225 -7.6671991 -0.68350399
1.669274 -7.6395092 -0.54894501
1.686657 -7.6343751 -0.40589601
1.704827 -7.6745148 -0.317494
1.713569 -7.6719861 -0.21636
1.724481 -7.67907 -0.103382
1.733276 -7.6767368 0.018863
1.743387 -7.6801491 0.151788
1.7564729 -7.6965961 0.29532301
1.770695 -7.7177939 0.44838899
1.783046 -7.7305841 0.610466
1.78822 -7.7123179 0.77746099
1.8009551 -7.7266641 0.95462298
5.5726781 -23.539021 4.631134
5.604507 -23.551888 5.2393699
5.6926298 -23.67963 6.5241451
5.8056049 -24.027275 7.2712951
5.8807988 -24.094082 8.6148977
2.2419231 -8.959981 4.4238691
2.540297 -10.102821 5.2512331
2.16014 -8.3854961 5.3220429
1.789198 -6.8795781 4.611064
2.3179541 -8.9126778 5.9737582
1.619716 -6.1692972 4.3045688
1.636873 -6.1191859 4.432219
1.686253 -6.1889219 4.3919101
1.769172 -6.434504 4.4230342
1.901616 -6.885047 4.6333761
2.4563811 -8.8141022 5.6236472
2.3600061 -8.4305696 5.2087259
1.972106 -6.982594 4.0035672
6.8485718 -24.141829 13.259226
7.009398 -23.662485 6.6110892
2.406857 -7.9227519 0.996315
2.413373 -7.9112949 0.81225401
2.4246631 -7.915493 0.63701099
2.4277251 -7.8928409 0.46761101
2.4355099 -7.8856859 0.308743
2.4458959 -7.88691 0.15914901
2.4504089 -7.8692861 0.019755
2.4607949 -7.870563 -0.10832
2.4637959 -7.8482409 -0.226402
2.4744949 -7.8505421 -0.33242401
2.478035 -7.8301802 -0.426375
2.4857039 -7.8229108 -0.50745702
2.492053 -7.7804952 -0.628649
2.525317 -7.7605062 -0.71146899
2.573055 -7.784606 -0.57555598
2.603101 -7.8147621 -0.42761999
2.6255641 -7.8519049 -0.33436099
2.6469259 -7.8854561 -0.22893301
2.6581089 -7.8884802 -0.109345
2.667773 -7.8870058 0.019956
2.697309 -7.9440079 0.16169199
2.718967 -7.977479 0.315285
2.7318721 -7.9850922 0.47790101
2.766562 -8.0560169 0.655424
2.777565 -8.0577097 0.83697999
2.9452829 -8.4176369 1.707365
8.4998236 -24.025179 6.8268962
3.5397201 -9.9320993 3.3815861
3.9135661 -10.941081 4.0362549
2.0281739 -5.5684271 2.838516
3.128531 -8.5894947 4.378511
2.7763059 -7.59515 4.0763898
3.5067451 -9.5591488 5.3799319
3.5470691 -9.6345835 5.6649971
3.1879449 -8.4476871 6.0935249
3.322263 -8.5046816 6.0517001
9.5456657 -23.9447 14.223364
3.7792511 -9.4166555 5.1148438
2.616569 -6.4979038 3.355159
3.36939 -8.3119164 3.8314841
3.477231 -8.5495634 3.698256
3.9262381 -9.5271082 3.0311639
3.4864631 -8.3774033 1.9637589
3.496253 -8.3736048 1.737263
3.5043931 -8.3659019 1.515694
3.5094759 -8.3509493 1.298474
3.5149901 -8.3370523 1.088659
3.516376 -8.3134966 0.88643301
3.5262661 -8.3101063 0.69462901
3.5344009 -8.3025513 0.510975
3.5420849 -8.2939997 0.337378
3.5511401 -8.28864 0.173794
3.556232 -8.2741032 0.021586001
3.5793481 -8.3014364 -0.118749
3.5783761 -8.2728453 -0.248082
3.588753 -8.2705994 -0.36410099
3.6003821 -8.2712164 -0.46831799
3.6059251 -8.2578297 -0.55706799
3.622817 -8.2445173 -0.69294101
3.6643331 -8.2353792 -0.78581202
3.7187569 -8.2547359 -0.63556898
3.732511 -8.2343721 -0.46935499
3.7502129 -8.2480679 -0.365917
3.758476 -8.2409601 -0.249293
3.7778449 -8.25811 -0.119288
3.798543 -8.278059 0.021831
3.810765 -8.2794123 0.17566299
3.8380539 -8.3133984 0.34253699
3.8509009 -8.3159657 0.51894599
3.864548 -8.320178 0.70590597
3.884661 -8.3382511 0.90333998
3.8913071 -8.3273697 1.105981
3.905704 -8.3330317 1.319191
3.9239149 -8.346776 1.541242
3.9387419 -8.3532362 1.768101
4.3419991 -9.1809101 2.1979129
4.36305 -9.1979113 2.4631059
4.342001 -9.1264057 2.707418
4.4187331 -9.2600431 3.018183
4.4343772 -9.2651834 3.294245
4.4235539 -9.2151632 3.550631
4.4019432 -9.1429996 3.7952621
2.9069021 -5.9145789 3.6364
2.729373 -5.537168 3.5434749
2.6758771 -5.4128089 3.5924721
2.587136 -5.0122261 3.7385299
2.691318 -5.1119728 3.05249
12.835914 -23.975321 10.171259
4.9191489 -9.0366812 2.2266791
4.9076562 -8.990736 1.961025
4.9109559 -8.9720716 1.7091939
4.9267092 -8.9761667 1.467754
4.9264851 -8.9511471 1.229386
4.9717288 -9.0086517 1.010455
4.804193 -8.5175781 -0.39493001
4.8827782 -8.6335363 -0.51492703
4.99786 -8.8131638 -0.62636203
4.719667 -8.2778854 -0.73321903
5.1425009 -8.9231606 -0.89784801
5.0877309 -8.7343674 -0.70958799
5.1212049 -8.7451897 -0.52612603
5.0004869 -8.5164261 -0.398844
8.5372753 -14.311322 0.94364601
8.6249352 -14.382436 1.646888
5.579556 -9.0645647 3.6973021
5.0662951 -8.1669664 4.1056948
4.9910688 -8.02493 4.2838202
5.3874302 -8.6622219 4.6240149
5.3933482 -8.6493454 4.882195
5.3849359 -8.6136131 5.1206951
6.161129 -9.4363003 7.7160668
6.1883912 -9.4302149 7.475955
5.4999418 -8.2970066 5.9225168
5.5639439 -8.3724775 5.7702188
5.5753841 -8.3686161 5.5485659
5.0320468 -7.5341392 4.7870932
5.5400519 -8.2739401 5.0194159
10.024906 -14.387502 1.7220449
6.1002879 -8.563138 -0.54582697
6.0151401 -8.4229183 -0.63987499
6.0940318 -8.4917154 -0.80426198
6.2509961 -8.6257076 -0.92868
6.2285829 -8.5114574 -0.74040002
6.3552389 -8.642415 -0.55692202
6.6007161 -8.5129995 4.6018672
6.8804221 -8.7061176 6.8201122
5.9192901 -7.454422 6.1745701
7.4561419 -8.4667025 -0.45561999
7.6549411 -8.672205 -0.60052401
7.5627918 -8.5478392 -0.70559001
7.6633892 -8.6212778 -0.88758099
7.614295 -8.4866076 -0.99399
7.674365 -8.4743433 -0.80258501
8.6542721 -9.4899874 -0.518691
8.6595697 -9.451767 -0.168385
13.596277 -14.56707 2.8563311
7.1941838 -7.513751 4.4439402
8.4287024 -8.7218018 6.4086409
6.5337329 -6.729641 5.3839111
7.229496 -7.1584811 6.599596
8.1740026 -8.0190058 6.5727029
11.16483 -10.80174 6.636446
14.801538 -13.89457 1.993643
13.826758 -12.889367 0.70713001
10.122187 -9.3485918 -0.379235
9.4712219 -8.6865463 -0.79450601
9.6250076 -8.7866163 -1.002815
9.6967545 -8.7700157 -1.13981
9.6640635 -8.6593399 -0.91091698
13.569485 -11.739874 3.435226
14.244172 -12.294725 4.0721979
8.8916836 -7.6211309 3.4448769
11.319158 -9.5210896 7.455977
11.824413 -8.7652292 -0.90995502
11.94546 -8.8121433 -1.142216
12.195812 -8.9097881 -1.316722
12.081904 -8.7409573 -1.04684
10.148329 -6.9019642 5.5632682
7.766861 -5.2167869 5.37047
6.6850438 -4.2797809 4.87854
12.513709 -7.8085051 5.516686
13.283328 -7.316298 3.2819569
7.3995609 -3.87639 5.4186668
7.3043342 -3.8049209 5.5581808
7.2447991 -3.7312169 5.7020898
7.3875799 -3.7614441 5.6760378
7.405498 -3.748929 5.5014448
7.3456402 -3.707922 5.3375802
8.3433342 -3.3250189 5.6803312
8.2336607 -3.270237 5.7468238
7.2912202 -2.876359 5.28967
7.1332278 -2.7758379 5.355813
7.4483781 -2.858752 5.4624872
8.1579742 -3.1093979 5.7865171
8.2577314 -3.136457 5.7299528
8.3232594 -3.1503069 5.6284828
7.9375181 -2.9727631 4.8651838
8.0126429 -2.990294 4.719059
11.623731 -4.3072329 6.2487249
12.519534 -3.7031801 4.8829751
12.746587 -3.7542641 5.3244019
11.48755 -3.3689799 5.1141448
11.231896 -3.279876 5.3039932
8.6039219 -2.501641 4.2916842
8.4804916 -2.4551001 4.4504499
8.3420057 -2.404537 4.5871449
8.2769938 -2.375401 4.7514281
8.2948723 -2.3701341 4.9518042
8.2453194 -2.3456309 5.100328
8.3528452 -2.3657629 5.3356581
8.5874481 -2.4214661 5.6429148
8.4480209 -2.3715739 5.6918588
6.6672311 -1.855005 4.6704159
8.0176067 -2.2307169 5.6163578
6.635941 -1.813186 4.813467
6.5804029 -1.765269 4.6647801
8.3167028 -2.210392 5.7036471
6.725245 -1.779079 4.5125632
8.2451572 -2.1811521 5.5324059
6.6323991 -1.746298 4.3376198
8.3211946 -2.180635 5.2869611
8.2908144 -2.1624119 5.0977721
8.3316326 -2.1627519 4.9408522
8.46877 -2.187866 4.8263102
8.5083628 -2.187583 4.6418028
10.238364 -2.6197231 5.3273058
11.063024 -2.8170791 5.4679551
12.34014 -3.127063 5.7705231
9.108737 -2.285743 3.762974
9.0382328 -2.2569239 3.4841859
14.030063 -3.4861391 5.0216112
14.442931 -3.4999981 3.2161739
16.087231 -3.8589959 2.7645431
13.621639 -2.622884 3.002115
12.848837 -2.4420471 3.5036261
13.051536 -2.4649079 3.907129
8.9557047 -1.669874 3.1644289
9.2354126 -1.710959 3.5129111
9.2113552 -1.695451 3.7529321
9.144618 -1.6722161 3.971339
6.9172111 -1.256624 3.1868551
6.991168 -1.2533211 3.5803449
6.8558469 -1.220865 3.6794331
6.6180482 -1.170599 3.708384
7.2794809 -1.278897 4.2424121
6.6678548 -1.163471 4.0270858
6.7407212 -1.168139 4.2046452
6.8706861 -1.182464 4.409246
6.8017492 -1.162477 4.4761009
6.964839 -1.1737469 4.7666321
6.561563 -1.0745161 4.6523681
6.7570639 -1.0743901 4.6845531
7.022778 -1.09995 4.7114201
6.822638 -1.060506 4.4788222
6.4834261 -1.000088 4.1489348
6.5535769 -1.003126 4.0747881
6.5380712 -0.993002 3.9345391
8.2475214 -1.242859 4.7875242
6.1948838 -0.92618799 3.4561989
6.6355829 -0.984218 3.544421
7.1373949 -1.0501879 3.6366119
7.1546059 -1.044253 3.4631529
7.0489321 -1.0204901 3.2285531
7.2411652 -1.039745 3.1251359
9.6392126 -1.3726799 3.9013381
9.6823788 -1.367383 3.657239
9.7420807 -1.352782 3.154376
9.5010366 -1.308093 2.8212039
9.7295399 -1.328053 2.6305659
12.218139 -1.007237 3.606298
12.968478 -1.053933 4.172852
12.987746 -1.040339 4.525816
11.127689 -0.85237801 4.7676501
7.1076899 -0.53615701 3.2310309
7.1448979 -0.53061998 3.4316189
7.2030602 -0.52654099 3.6406629
8.5287447 -0.61350602 4.518003
7.938962 -0.56181502 4.3915081
6.970819 -0.48517901 4.0109272
6.755209 -0.45442101 4.1611848
6.2574048 -0.413645 3.96613
8.2496281 -0.516509 5.5783191
9.8279066 -0.56954002 6.888257
8.1579962 -0.43479499 5.5935559
6.072763 -0.309526 4.030231
8.2174072 -0.409284 5.3370361
9.0628614 -0.45139399 5.8861399
6.1294341 -0.29816401 3.8811409
7.1160212 -0.33787301 4.3784862
