# .PCD v0.7 - Point Cloud Data file format
VERSION 0.7
FIELDS x y z
SIZE 4 4 4
TYPE F F F
COUNT 1 1 1
WIDTH 1541
HEIGHT 1
VIEWPOINT 0 0 0 1 0 0 0
POINTS 1541
DATA ascii
12.204167 -0.730479 3.596421
12.750701 -0.74833399 3.4215989
7.4365678 -0.073587 1.423807
7.1062121 -0.062066 1.537968
6.791832 -0.051442999 1.643325
7.0019641 -0.044978999 1.87576
6.785418 -0.035711002 1.9960361
6.700767 -0.027477 2.1490309
6.617137 -0.019454001 2.2985089
11.289429 -0.0069639999 4.523603
11.429729 0.0062159998 4.8827562
11.052484 0.01884 5.0100379
6.804318 0.027404999 3.430002
6.8654671 0.035620999 3.6275771
6.5866852 0.04183 3.6344681
6.2858758 0.047215998 3.608191
6.402257 0.055532999 3.809268
6.402123 0.062963001 3.9349821
6.063632 0.066673003 3.8351719
7.0617008 0.077647999 4.4664388
8.6809807 0.166044 6.0753112
8.219202 0.214508 5.449513
8.1691875 0.222692 5.3011179
6.320909 0.17964999 3.99927
6.4515791 0.190869 3.966923
7.4680572 0.229618 4.4453392
6.4172149 0.20476399 3.685353
6.4703341 0.21398699 3.5721459
7.3519659 0.251688 3.8868561
7.0312462 0.248891 3.546586
7.6951532 0.281335 3.6882131
9.0119267 0.329476 4.3193302
6.6959581 0.25258699 3.0374
6.8063459 0.26467401 2.9098539
6.8450308 0.27413601 2.7449591
7.7317319 0.30964699 3.100539
6.5967312 0.27186099 2.469337
6.5527172 0.277677 2.2781661
6.6031542 0.28749299 2.119714
6.4912229 0.290169 1.911375
6.5605378 0.300908 1.759317
6.3515139 0.29870901 1.538442
6.4763789 0.312116 1.403229
7.2542582 0.35805601 1.390525
12.288093 0.74964201 -0.16171201
12.487882 0.96583498 -0.87926501
11.130399 0.91286802 -0.307372
11.425607 1.003904 0.64948797
11.78721 1.063275 1.1622339
9.3394461 0.85340297 1.12844
6.5724449 0.60826898 0.94615102
6.9880562 0.65491402 1.1728669
6.61657 0.62784702 1.272438
6.2878189 0.60402697 1.367059
6.366416 0.61903602 1.547613
6.2330632 0.61330903 1.677807
6.2213478 0.61944902 1.83913
7.1578441 0.71269399 2.115973
6.5524378 0.66010702 2.1120789
6.536078 0.66612297 2.2821031
6.7920651 0.70017898 2.553762
6.896677 0.71906501 2.778434
6.768455 0.71363902 2.9074969
7.2914929 0.777345 3.3239241
7.1484232 0.77049601 3.4437139
6.717289 0.731915 3.4061451
6.7408051 0.74239498 3.5831959
6.8700962 0.76471698 3.8141861
7.6790452 0.863787 4.4355659
7.3418112 0.83449501 4.3962531
7.4346981 0.85379601 4.599452
7.2744899 0.84395403 4.6316051
7.2267652 0.84693098 4.7199049
6.3464508 0.75870299 4.31352
6.6380558 0.82486302 4.68046
6.3053641 0.81327599 4.3529291
6.8098502 0.89443302 4.5523109
6.9902668 0.92638499 4.5740581
7.2838168 0.97389197 4.6476412
7.109911 0.95905298 4.409379
8.0752344 1.09881 4.848763
8.0157137 1.100189 4.6441522
6.88972 0.95380199 3.8378589
7.2076669 1.006346 3.845278
7.4002008 1.041998 3.7671499
7.430059 1.054999 3.5944741
6.984704 1.000035 3.198415
6.8207889 0.984658 2.944032
6.918715 1.006994 2.8014951
6.9484768 1.019563 2.626626
6.376801 0.94325298 2.2391191
7.22997 1.069453 2.5386961
6.5135951 0.97121501 2.1120789
6.368619 0.957156 1.894442
6.181057 0.93631399 1.674702
6.3241358 0.96549898 1.5478491
6.539866 1.0062031 1.431996
6.6551681 1.031863 1.289362
6.721138 1.050082 1.136771
7.3709521 1.160372 1.069599
8.2515821 1.308835 1.005275
7.1524048 1.143 0.71129602
6.4975491 1.053836 0.37274301
6.1934919 1.0118999 0.234763
6.4865232 1.067518 0.126699
6.9274459 1.148343 0.016830999
6.5961189 1.101288 -0.087843999
6.297173 1.058901 -0.175751
6.5601721 1.110957 -0.26870701
6.9058571 1.177745 -0.36369401
6.4904079 1.114658 -0.40712601
7.2177339 1.256825 -0.563743
6.3340092 1.133287 -0.56095999
6.785459 1.246612 -0.48431
6.382648 1.187943 -0.337046
6.1813579 1.157904 -0.253979
5.8280902 1.098732 -0.163233
6.0328488 1.1445971 -0.080659002
6.2215948 1.187891 0.015182
6.2328191 1.197544 0.122324
6.5392442 1.264291 0.249155
6.4211378 1.24919 0.37042499
6.73 1.317397 0.52768397
6.0110502 1.1839091 0.601641
6.2621851 1.240924 0.76814198
6.6517601 1.32616 0.97225899
6.2472229 1.2530479 1.064744
6.2357798 1.258284 1.217908
6.3226891 1.283471 1.3962491
6.2442541 1.275097 1.5419689
6.1606278 1.265406 1.6847939
6.2195601 1.285036 1.868197
5.992866 1.245463 1.963048
6.1119299 1.2776099 2.1689
6.5087361 1.368443 2.4875529
6.4788971 1.3700351 2.65346
6.5878258 1.40106 2.8772471
6.2113948 1.32854 2.8792751
6.3739352 1.371055 3.122756
6.4847231 1.402763 3.3444769
6.1946068 1.3475339 3.349611
6.4748621 1.416383 3.6571741
6.6466522 1.4620481 3.9063849
6.7641029 1.496128 4.1216788
7.5612612 1.672449 4.6074238
7.3050742 1.62468 4.599452
7.1113009 1.5902489 4.6086211
6.9893112 1.571501 4.6469822
6.5511479 1.488969 4.5339231
6.5453272 1.5196609 4.701673
7.2202282 1.711736 5.0805821
6.561048 1.571568 4.4716511
6.9794741 1.680362 4.6567769
7.9060469 1.903441 5.2749958
8.0608683 1.950617 5.2452331
6.6722369 1.6228 4.2203531
6.6493068 1.6253999 4.0725932
6.2881331 1.544849 3.7167161
6.4831781 1.60076 3.6847119
6.501286 1.613239 3.5392821
6.300663 1.571233 3.273356
5.9427299 1.489302 2.9344151
6.7659459 1.6956069 3.340904
5.9281511 1.492964 2.771106
6.0808878 1.5389481 2.679642
6.1165051 1.555518 2.5288579
5.9929352 1.5315011 2.3134489
5.9069161 1.516835 2.1183691
5.8834629 1.5180939 1.9486949
6.0204401 1.5608931 1.829535
5.9290838 1.544564 1.641322
5.9331641 1.552984 1.483884
5.7611942 1.515119 1.289219
5.9604702 1.574935 1.180301
6.279408 1.667008 1.085676
6.166213 1.644622 0.914792
6.2076449 1.663403 0.77327901
5.5824451 1.502821 0.56772703
5.56214 1.504281 0.44336799
5.8848872 1.598911 0.345323
5.5354962 1.510884 0.214651
5.330235 1.461518 0.106523
5.2957659 1.458678 0.013166
5.2261682 1.446036 -0.071229003
5.3654971 1.491303 -0.153273
5.4085798 1.510043 -0.226781
5.530879 1.551111 -0.29821399
5.716188 1.610249 -0.36714101
5.7016759 1.6204571 -0.45610401
5.8826532 1.7014689 -0.53386301
5.6872702 1.6736211 -0.41617301
5.3239732 1.58016 -0.288311
5.1066399 1.522107 -0.21520001
5.1626401 1.545325 -0.148321
5.6497612 1.698292 -0.077494003
5.1686339 1.5602109 0.012941
5.429955 1.645983 0.109356
5.474009 1.6662771 0.214053
5.9397631 1.815587 0.35171199
5.1709142 1.58715 0.41620901
5.8557091 1.80478 0.60173798
6.0027819 1.857741 0.75607598
6.0423002 1.877669 0.90698802
6.1530461 1.919919 1.077106
5.6590552 1.7729909 1.13536
5.7953639 1.823096 1.314813
5.7852278 1.8272901 1.467893
5.8532228 1.8561749 1.644945
5.9345722 1.889557 1.832075
5.8375092 1.866127 1.965492
5.7411399 1.8426681 2.0944159
5.8651209 1.889973 2.3046911
5.9111528 1.912393 2.4894321
6.2334352 2.0246539 2.799855
5.8388958 1.904001 2.783905
6.1275711 2.006017 3.0881979
6.3590059 2.0899589 3.3741851
6.3275552 2.0877631 3.5205951
6.3133988 2.0912321 3.669735
6.366528 2.117034 3.8511269
8.3457718 2.78596 5.2348032
7.6054678 2.54865 4.9298539
7.3247662 2.464045 4.88764
7.3515959 2.4825859 5.0333681
7.0890851 2.412286 5.0536041
7.5444932 2.606426 5.585135
7.0326462 2.466217 5.1026149
7.452188 2.6327989 5.238472
7.6034741 2.696178 5.2330918
8.4489269 3.02915 5.3401332
6.1696548 2.228163 3.6194911
6.3066778 2.2859271 3.544421
5.6408482 2.0520101 3.025784
6.2307801 2.266614 3.342226
5.7337742 2.093354 2.923615
5.5835719 2.0458641 2.6955531
5.6334291 2.0715621 2.5641439
5.7231922 2.1121149 2.444427
5.6538029 2.093967 2.2549469
5.75808 2.1402011 2.133791
5.7965002 2.162143 1.98412
5.555232 2.0794959 1.744874
5.6967349 2.140017 1.630195
5.5987382 2.1106229 1.447669
5.5899978 2.114742 1.29345
5.4395332 2.0650499 1.113924
5.7007332 2.1717861 1.019418
5.9656391 2.2806389 0.91550201
5.0232391 1.927058 0.64736599
5.2345471 2.015095 0.55081999
5.8352628 2.254127 0.481345
5.4150991 2.099057 0.32887101
5.3299952 2.0731881 0.21394099
5.3256621 2.0786321 0.110184
5.0383611 1.9732389 0.01297
5.4553618 2.1438611 -0.076995
5.2094898 2.0542309 -0.154126
5.2429242 2.07445 -0.227709
5.13099 2.0370531 -0.28660101
5.083087 2.0248771 -0.33826399
4.947217 1.984072 -0.41014799
5.2780709 2.1452799 -0.49669099
5.0518351 2.080718 -0.38354
5.309063 2.201102 -0.29836899
5.131269 2.1343729 -0.22444101
5.1651592 2.1555059 -0.154044
5.1447902 2.1540301 -0.073264003
5.1528568 2.1644411 0.013396
5.2903619 2.2294371 0.110647
5.1700039 2.185786 0.209978
5.1058202 2.1656389 0.31405899
5.504673 2.342366 0.46032399
5.1009641 2.1775751 0.54466301
5.0807958 2.175941 0.66504598
5.1358981 2.2066071 0.80127698
5.2905998 2.2803521 0.96271998
5.1790962 2.239424 1.080266
5.2830582 2.2916689 1.246281
5.4418468 2.368057 1.4359111
5.4568081 2.3820381 1.595004
5.4950581 2.406332 1.7646281
5.8986969 2.591264 2.0662701
5.6049089 2.46997 2.127557
5.412384 2.3926339 2.2132599
5.589468 2.478687 2.450006
5.610971 2.496021 2.6234651
5.4495649 2.4318011 2.705049
5.4222612 2.4271779 2.845427
6.0981569 2.7382319 3.369684
8.7540913 3.967519 5.516829
8.2290812 3.7526419 5.5587182
5.4283838 2.483078 3.775306
5.3673582 2.4627111 3.8306711
5.2921171 2.4430759 3.9336879
5.3215189 2.486707 4.1100221
5.265347 2.4903181 3.987972
5.2950912 2.519455 3.88659
5.3091278 2.533695 3.8159781
5.378212 2.574333 3.7710299
5.4975529 2.6393149 3.7480509
7.6196179 3.6580961 5.1948051
7.6457968 3.7034941 4.6876569
8.0466814 3.9092131 4.7268281
7.9431171 3.8703179 4.454051
9.1142826 4.454072 4.8588691
5.5057201 2.6985199 2.7793629
5.6209822 2.7631199 2.675714
5.4033751 2.6639431 2.4139271
5.3247662 2.632874 2.221668
5.6227398 2.788348 2.180057
5.911921 2.940309 2.1175759
6.1201301 3.0527279 2.0118401
7.9469829 3.9639649 2.6123719
5.2860608 2.644371 1.58336
5.1056452 2.5615301 1.382058
5.1887341 2.61076 1.257068
5.093606 2.5703189 1.0923001
8.183548 4.14148 1.532671
5.2291241 2.6539519 0.84058201
5.1938672 2.6436541 0.70124298
4.7626619 2.4311371 0.52511603
4.694973 2.4034581 0.40585199
4.8219781 2.475553 0.30693501
4.8394399 2.4916191 0.203623
5.7820959 2.9769521 0.243286
4.8630109 2.51091 0.105483
4.7695169 2.4696529 0.012874
4.7023568 2.441803 -0.069600001
5.2434058 2.7304969 -0.16271
4.5710258 2.387105 -0.208259
4.4755902 2.3438809 -0.26228499
4.4774208 2.351476 -0.31265599
4.2380552 2.238332 -0.36879599
5.4138951 2.8916011 -0.535079
4.3727589 2.361691 -0.34887701
4.4905949 2.4388249 -0.26529199
4.4260869 2.4104481 -0.203538
4.8691421 2.6590681 -0.152696
4.578054 2.507015 -0.068562001
4.6719408 2.5654831 0.012775
4.562129 2.5120881 0.100376
4.8525538 2.679353 0.207362
5.5497751 3.064326 0.23715501
4.4118361 2.4426949 0.28556499
4.6584539 2.586319 0.40999499
4.3425169 2.4175129 0.488076
4.8590388 2.7124569 0.669586
4.546876 2.545135 0.74693102
4.5396261 2.548002 0.86992598
4.981431 2.803587 1.094368
5.3071389 2.9950249 1.318832
5.0780091 2.8734951 1.411689
5.3356628 3.0274031 1.643392
5.5175872 3.139097 1.8673511
5.1810031 2.9555819 1.912964
5.8283391 3.333837 2.3323059
5.610199 3.2177081 2.4188919
5.4959488 3.160676 2.5403891
5.4665732 3.152231 2.695749
10.781765 6.2338572 5.6454272
8.2503386 4.7830281 4.5677171
5.5458279 3.232347 3.3916559
5.407969 3.160424 3.4561989
5.3532119 3.136765 3.5613959
5.3283401 3.1305161 3.6768379
7.620656 4.6577291 5.919661
5.3011198 3.2739489 3.707006
5.3024158 3.283258 3.5798161
5.3327951 3.3106489 3.4634449
5.414381 3.3700111 3.369699
5.379931 3.3833489 2.714999
4.9253941 3.121496 2.0255101
5.0545568 3.2115829 1.920599
5.6639209 3.6079979 1.975435
5.6635799 3.6170421 1.8002011
5.5931158 3.581187 1.6068749
5.0509419 3.2423141 1.298949
5.213129 3.3549881 1.186882
4.7671819 3.0758221 0.94805098
4.6494722 3.007524 0.79375601
4.5590572 2.9565611 0.653817
4.3537502 2.8306029 0.50996798
5.347487 3.4766841 0.62636697
4.2507529 2.770664 0.39043099
4.2139912 2.753686 0.28505599
5.0722189 3.3229151 0.22683799
4.4868112 2.946861 0.103459
4.4073682 2.9020121 0.012648
4.3769259 2.889256 -0.068890996
4.577354 3.029206 -0.151072
5.729404 3.79161 -0.18909501
4.3620238 2.89399 -0.21140701
4.317266 2.8715179 -0.26918101
4.3256211 2.8843329 -0.32141799
4.316062 2.8924551 -0.399791
4.3105402 2.9178669 -0.45378801
4.3660579 2.985111 -0.371286
4.3055239 2.9584241 -0.27120301
4.4039378 3.0335779 -0.215967
4.6507459 3.2115541 -0.15555701
4.3984389 3.0448799 -0.070270002
4.2794299 2.9698491 0.012485
4.622364 3.2158051 0.108527
4.5769138 3.192075 0.208745
4.2671518 2.9834061 0.294837
4.3738651 3.0655899 0.410992
4.448555 3.1256461 0.533912
4.309319 3.0352941 0.63422501
4.6479492 3.281899 0.81560802
4.4857531 3.1751821 0.918383
4.6529908 3.301672 1.0923001
4.9331088 3.5090671 1.31016
5.3694072 3.8288119 1.595587
6.095201 4.35783 2.00721
5.5043378 3.94504 1.992085
4.8209038 3.4636941 1.903803
5.4916711 3.9843891 2.8984611
5.3321152 3.878072 2.988683
5.2725739 3.844137 3.1253481
5.2960181 3.8706429 3.3066659
7.2485852 5.3106022 4.7478509
7.580646 5.580966 5.403326
5.2408862 3.8960471 4.2361059
5.1924329 3.9925759 4.1425209
6.704576 5.167697 5.2026591
7.3684678 5.6930389 5.5400562
6.9987979 5.4203968 5.0812368
6.954103 5.3987122 4.8577132
5.7593899 4.4926772 3.682075
5.2134552 4.0765471 3.169842
5.2601838 4.1229239 3.029556
5.295361 4.1604319 2.8768539
5.369483 4.2287469 2.738636
10.738936 8.5385046 4.0358138
4.5904412 3.6585579 1.572492
5.6570368 4.5086298 1.937862
4.5297012 3.618746 1.402752
4.652956 3.7260611 1.2900651
4.9210949 3.9501729 1.20813
4.6437912 3.736444 0.996014
4.0767689 3.288008 0.75076199
4.1955228 3.391834 0.649158
4.3980041 3.5639701 0.555902
3.9585421 3.2154591 0.39242601
4.1599011 3.3870449 0.30376899
3.9491391 3.223063 0.190689
4.208209 3.4426501 0.104789
5.7319241 4.6891708 0.142731
4.252151 3.4868381 0.01318
4.207583 3.4584589 -0.071543999
4.1529598 3.421649 -0.148101
4.1248369 3.406517 -0.216047
3.9479179 3.268115 -0.26607001
3.9964409 3.316112 -0.32104799
3.9125879 3.2618849 -0.39196599
3.878912 3.2644479 -0.44197601
3.8947041 3.308732 -0.358751
4.5773988 3.8887119 -0.421635
4.4541912 3.8018751 -0.304021
4.0383601 3.4550459 -0.214635
4.1112332 3.5256579 -0.149064
4.1826482 3.5953391 -0.072449997
3.6757901 3.1670711 0.01163
3.8432059 3.3191011 0.097870998
4.323195 3.742394 0.21390299
5.739831 4.9687119 0.28399599
3.879091 3.3658299 0.290822
3.9090691 3.399807 0.39864001
3.919672 3.417021 0.51065201
4.2951341 3.753109 0.68630999
4.1983171 3.6771159 0.80000001
4.2501302 3.731215 0.94508398
4.5117621 3.9701769 1.150591
4.5298858 3.9954679 1.307199
5.4182711 4.7790461 1.563562
4.2503991 3.7577269 1.372651
5.2521558 4.6541448 1.8799
5.1736722 4.5953288 2.0355451
5.1114411 4.550694 2.19484
5.0534601 4.5095992 2.3526499
4.9747472 4.4497409 2.4963109
4.922349 4.4131818 2.6489971
4.8795948 4.385078 2.8026049
4.81564 4.337719 2.937901
4.7702279 4.3068671 3.078263
4.6863012 4.2409759 3.1860299
4.6627731 4.2295389 3.326252
4.634521 4.2137418 3.4561989
4.671762 4.2575169 3.628104
4.656105 4.2531648 3.752001
4.665556 4.2717428 3.887856
4.6458268 4.2636032 3.988045
4.6271691 4.2563992 4.0782862
4.6161308 4.2660708 4.2419171
4.5941949 4.2855439 4.396101
4.5686851 4.3016038 4.2964339
4.5361118 4.2908578 4.138514
4.5392561 4.3038268 4.0576062
4.5653458 4.3386369 3.9832339
4.5945082 4.3765259 3.8999
4.6152182 4.4064822 3.7964849
4.7000208 4.497889 3.734139
6.5361681 6.284225 4.7908311
5.761013 5.6036878 3.220305
5.0530081 4.9493918 2.2684391
5.063128 4.9708338 2.087188
5.0968919 5.0156298 1.915609
5.1483698 5.078063 1.749619
5.2316051 5.1721559 1.592117
4.4788971 4.4383068 1.20719
5.2742162 5.226418 1.421551
3.736917 3.711657 0.880144
3.6513679 3.6351161 0.73856002
3.7894571 3.7813699 0.64414001
3.689271 3.689954 0.512411
3.6622241 3.671416 0.39902401
3.686141 3.7039919 0.29591101
3.735853 3.762671 0.19835199
3.558897 3.592787 0.097465999
3.5469389 3.5890379 0.012095
3.729919 3.7829621 -0.069784001
3.670454 3.7313149 -0.14405701
3.5833361 3.651221 -0.206605
3.5995531 3.6762719 -0.26710701
4.1393628 4.2374272 -0.366216
3.778367 3.885885 -0.41705301
3.703918 3.8448989 -0.46542501
3.8252211 4.0079088 -0.38893199
3.697027 3.8916531 -0.27866799
4.3229418 4.550518 -0.325847
3.4827671 3.6746449 -0.204466
3.7746539 3.991884 -0.15121
3.412941 3.617768 -0.065330997
3.409023 3.6220291 0.011922
3.5540719 3.784945 0.100068
3.645551 3.8914089 0.19947401
3.537535 3.784904 0.293367
3.6140399 3.8757789 0.40777001
5.2717938 5.6667652 0.76006502
3.6235671 3.9041281 0.64091498
3.627753 3.9177599 0.765378
3.7882111 4.1005831 0.93288702
3.9412169 4.2761531 1.11336
4.7872372 5.1940699 1.352354
5.052938 5.4951539 1.6155961
5.4559541 5.9749441 2.3801169
5.546401 6.088191 2.64132
5.5631452 6.1208258 2.873055
5.4620328 6.0376978 3.2623351
7.2760091 8.0616446 4.6391878
7.2090578 8.0248671 5.1668682
7.1022849 7.9244952 5.3642159
7.0403128 7.8737159 5.5808158
5.906569 6.6212368 4.8958788
5.5136771 6.2097859 4.9407992
5.5180979 6.2293139 5.1146908
5.4170852 6.129601 5.1736078
3.4638269 3.9286211 3.3974831
5.2409592 5.9442182 5.1405768
4.2038002 4.8353901 4.4832439
3.1322639 3.6368401 3.2863059
5.021801 5.8582301 5.1141672
3.266175 3.8191509 3.259799
5.477438 6.4349918 5.1937571
4.4830642 5.2791872 4.120656
5.5577979 6.544776 5.1085091
4.6234069 5.4572778 4.1055121
4.407351 5.2145309 3.767324
5.1223931 6.0891638 4.0111208
5.156579 6.1442652 3.8419969
6.8536 8.1663322 5.106391
4.195219 5.0105672 2.96226
6.8561859 8.1886978 4.8411789
4.2104449 5.0406442 2.805748
4.2322688 5.0787401 2.6489971
4.2357798 5.0949669 2.4780951
4.3051858 5.190712 2.342478
4.3525319 5.26021 2.1896479
4.4107108 5.3431382 2.038085
4.4556189 5.4103351 1.877571
4.535656 5.5205669 1.72869
4.6170678 5.6329751 1.5762531
3.625288 4.4334722 1.096437
4.7133098 5.7640462 1.425499
3.6061749 4.420558 0.95332497
3.4297071 4.2142162 0.77885801
3.978935 4.8890738 0.90358299
3.0802059 3.7937679 0.58799303
3.2291069 3.9866109 0.50380999
3.3357179 4.1280189 0.408384
4.3260841 5.366364 0.39032599
4.8054371 5.9609861 0.43357599
3.408145 4.2377501 0.203436
3.6496079 4.5488038 0.1124
3.293803 4.1151118 0.012634
3.3211939 4.1592202 -0.069914997
3.5962901 4.5144811 -0.158858
3.266217 4.1099138 -0.21201199
3.099643 3.909621 -0.25901899
3.1026471 3.9227669 -0.309201
3.291348 4.1812611 -0.40945801
3.844532 4.8840132 -0.47827601
3.737144 4.7932448 -0.52986801
3.5015049 4.5342889 -0.40216801
3.1771891 4.134131 -0.270684
3.2859349 4.2859182 -0.218105
3.3340089 4.3590908 -0.15104499
3.150377 4.1289349 -0.068221003
3.425663 4.5005541 0.013557
4.37293 5.745049 0.017305
3.551615 4.6772962 0.11319
3.2100799 4.2377162 0.19887599
3.145087 4.1619449 0.29540199
3.2518461 4.3136339 0.415672
3.4627631 4.6045299 0.56577301
3.19714 4.261611 0.64103401
3.144124 4.201108 0.75218099
3.0854759 4.1327338 0.86184901
3.25072 4.3646231 1.041906
3.1954291 4.3008118 1.159557
3.08883 4.1674328 1.25507
3.904294 5.2931828 1.934798
4.576839 6.2049751 2.2680819
4.044693 5.4968901 2.1887319
4.1190209 5.6115379 2.4179461
3.5595169 4.8729892 2.4180191
3.8483789 5.281302 2.791605
3.75297 5.1629472 2.893312
3.718781 5.128437 3.0342009
3.637888 5.0291529 3.128864
3.6045539 4.9952698 3.254775
3.567281 4.9557462 3.3692379
3.5076261 4.88482 3.4518759
3.48562 4.8661022 3.5612819
3.410706 4.77321 3.6056271
3.4015419 4.7720871 3.7063529
3.3433471 4.7019968 3.7425101
3.2331271 4.5694098 3.777616
3.230778 4.6113801 3.9397509
3.207525 4.6237402 3.8529489
3.2501919 4.7085638 3.792119
3.383323 4.9136209 3.869854
3.4078641 4.9615822 3.806843
3.2970359 4.8122001 3.585206
3.3890569 4.9588442 3.5735531
3.4500051 5.0606222 3.5155971
3.4755099 5.1107869 3.4103031
3.5860879 5.2865791 3.3753049
3.5189691 5.200635 3.165324
3.58991 5.318769 3.0735109
3.691402 5.4966311 2.8285329
3.534447 5.2894092 2.379307
4.1443729 6.233479 2.4006729
4.1103039 6.1978278 2.1876531
4.1962881 6.3434768 2.0374849
4.2208929 6.3967948 1.854267
3.6496351 5.5450401 1.436649
2.915031 4.440155 1.016898
3.1713049 4.842752 0.96733499
2.916178 4.4644589 0.76438397
2.951118 4.529439 0.65047199
3.086854 4.749814 0.55629301
2.993752 4.618279 0.423498
3.0797009 4.7629871 0.32118201
3.057445 4.7406249 0.211025
3.1286881 4.8634911 0.111456
3.0550261 4.7611222 0.013559
3.014746 4.7103672 -0.073461004
3.0761631 4.8186541 -0.157345
2.911447 4.5723271 -0.21891201
2.778239 4.3743272 -0.269025
2.7902901 4.4046059 -0.32234401
2.893048 4.5903511 -0.417514
2.777554 4.4528289 -0.457522
2.9098499 4.7135301 -0.38886201
2.809092 4.5740538 -0.27866799
2.974369 4.8558049 -0.22996899
3.1003129 5.0746298 -0.163673
3.0053041 4.931994 -0.075865
3.1265509 5.144402 0.014429
2.8981791 4.7811518 0.107756
3.93576 6.4928589 0.14633401
3.0886419 5.108727 0.223324
2.9768209 4.9367051 0.32644001
3.0533991 5.0770359 0.455874
2.8642409 4.775054 0.54681301
3.036396 5.0754042 0.71163601
3.3678961 5.6443939 0.94217801
2.951282 4.9592471 0.96436799
2.906528 4.8969679 1.090232
3.1849699 5.4388561 2.021378
4.0429721 6.9409351 3.004261
4.0735331 7.0687099 3.9076569
4.6118779 8.0460081 4.9001489
2.880929 5.053319 3.338871
2.6858029 4.7238088 3.2330201
4.8631592 8.553359 5.854001
2.544486 4.4873748 3.170501
2.6737771 4.7281709 3.4353521
2.963017 5.2825122 4.087523
2.910923 5.2466221 4.1983109
2.8985651 5.2820268 4.1252542
2.618799 4.811883 3.5536699
2.7048011 4.9975209 3.4925261
4.596539 8.4927893 5.9351988
4.8875718 9.0556087 6.1224389
2.885098 5.3603358 3.4941909
3.5291989 6.5570378 4.2742729
4.9808149 9.2798805 5.8113799
3.8199649 7.1569219 4.0894442
3.460835 6.5204659 3.3462181
2.8463669 5.4234629 2.127557
3.7243481 7.13658 2.3679819
3.941777 7.574667 2.2874489
3.1495509 6.0867591 1.483184
2.9502251 5.7341428 1.0776
2.78881 5.4359131 0.87577099
2.7605059 5.3961768 0.72931701
2.752234 5.3954439 0.59479898
2.84326 5.58991 0.482573
2.5777619 5.0825448 0.32270899
2.659415 5.2586622 0.22044501
3.1600001 6.248507 0.26194
2.7694581 5.4920988 0.118547
2.613548 5.1979132 0.013945
2.9129291 5.8101258 -0.085373998
3.1457951 6.2928472 -0.193635
2.644577 5.3055992 -0.239411
2.6374609 5.3067422 -0.30765
2.7215519 5.4919438 -0.37892699
2.8289061 5.7420459 -0.49254599
2.6044819 5.3490601 -0.518664
2.641861 5.4904718 -0.427728
2.920738 6.1063151 -0.35140699
3.0093861 6.3104582 -0.28234699
2.9574411 6.2201052 -0.18956301
2.608851 5.5034332 -0.080002002
2.6304519 5.5656838 0.014755
2.5549331 5.4385619 0.224782
2.579776 5.5080481 0.344419
2.881644 6.171226 0.52407902
2.659163 5.7120552 0.61874402
2.6533091 5.716814 0.75834602
2.598875 5.6166148 0.88712299
3.481643 7.5474048 1.388947
2.8857551 6.2747951 1.322268
4.6636539 10.171789 2.4217019
3.4680281 7.5872712 2.0184109
3.0497611 6.6925511 1.970208
4.2239609 9.2978344 3.004072
4.3342881 9.5701818 3.3693709
6.1098552 13.5324 5.157455
2.452692 5.4491801 2.2349801
3.12028 6.9539328 3.0540459
2.955158 6.606441 3.0917439
3.9194341 8.7621384 4.1005878
3.1854191 7.1657758 3.7560329
3.0280969 6.8332071 3.7676001
3.2590981 7.3775711 4.2615271
3.1999209 7.2893348 4.569479
3.4335821 7.8463521 5.095727
3.1866951 7.3052249 4.898437
2.5044291 5.7594042 3.9720089
2.2172179 5.1478291 3.7826509
2.1625609 5.0857768 3.866941
2.365433 5.6722031 4.0733242
2.2399001 5.388762 3.785502
3.0614741 7.3894768 5.0586858
2.8235669 6.8828902 4.2702899
2.8782661 7.0628672 4.02981
3.0972061 7.6254411 4.1488609
2.6363089 6.534121 3.1938729
2.796176 6.9536142 3.2017429
3.9428451 9.8381271 4.2468748
2.9295051 7.3342748 2.9538159
4.191463 10.529177 3.9365051
4.3586011 11.02337 3.4869249
4.0200682 10.236601 2.6608789
3.0003719 7.6661892 1.7816401
2.3169611 5.9403348 1.220728
2.339155 6.0178409 1.0789191
2.3448789 6.0533462 0.93054199
2.709233 6.9939308 1.075133
2.3716481 6.1436219 0.79239303
2.316576 6.0217371 0.63359898
2.2057171 5.753469 0.47413301
2.185261 5.719974 0.346737
2.1773911 5.7192602 0.22893099
2.3488319 6.1911888 0.12762301
2.43084 6.4298229 0.016476
2.341397 6.2150149 -0.087240003
2.3289289 6.2037458 -0.182382
2.3833859 6.371253 -0.27472001
2.4992621 6.7046938 -0.37147099
2.4664431 6.640203 -0.43791601
2.496778 6.7699332 -0.55522698
2.4625909 6.7739239 -0.62835503
2.2792499 6.3613739 -0.47436601
2.2248321 6.2551761 -0.34466699
2.4066539 6.7913079 -0.29098201
2.1805079 6.1758881 -0.180263
2.2698619 6.4528241 -0.089853004
2.296962 6.5541372 0.016646
2.231585 6.3913569 0.130475
2.189213 6.2934442 0.249267
2.128293 6.1412549 0.36805099
2.0968201 6.073225 0.49438801
2.1380351 6.2159581 0.645522
2.2847309 6.6675782 0.84806198
2.389168 6.9988508 1.060092
2.2016439 6.474062 1.142704
2.1117649 6.2334728 1.260028
2.8380849 8.4095354 1.92082
3.09811 9.1800156 2.096806
2.97681 8.8544683 2.26016
2.971647 8.8757191 2.507396
2.4184871 7.251462 2.24861
3.4441359 10.366805 3.503437
2.3327489 7.0488548 2.5790551
3.2263761 9.7491217 3.5670371
2.322772 7.046092 2.7748079
2.8770001 8.7273331 3.4368939
2.582608 7.8650041 3.3170111
3.1858709 9.7402563 4.3779411
2.6978259 8.2806301 3.947753
2.8230951 8.6994104 4.380671
2.652246 8.2053356 4.3469191
2.7846701 9.3115616 6.44174
2.8125751 9.5255222 6.1043272
2.3930809 8.2099018 4.718576
2.429178 8.3698549 4.604897
1.970517 6.8488569 3.413476
2.8397031 9.9567661 4.4231191
2.8197751 9.930541 4.1364079
2.7400961 9.6926937 3.7672369
2.7902811 9.9141798 3.5775371
1.9671789 7.0208168 2.3383729
2.453655 8.7962875 2.6863101
1.963469 7.0707002 1.965809
2.6495459 9.6279078 2.161108
2.778923 10.190427 1.765069
1.900687 7.0341768 0.87673301
1.802447 6.7014542 0.68148798
1.7858731 6.6706662 0.531367
1.70874 6.5032401 0.016116999
1.794153 6.860671 -0.093149997
1.827963 7.0232649 -0.199742
1.778183 6.8646531 -0.28638199
1.761304 6.8321199 -0.36628699
1.8400609 7.2417989 -0.57494402
1.57178 6.3084822 -0.56677902
1.930793 7.9056082 -0.571284
1.7146159 7.0918441 -0.37878099
1.647707 6.8498688 -0.28452599
1.629776 6.8100448 -0.192727
1.686262 7.082396 -0.095632002
1.636469 6.908812 0.017018
1.670571 7.089479 0.14038
1.6453021 7.018693 0.269678
1.66743 7.150394 0.415768
1.677839 7.232996 0.571338
1.799956 7.8005161 0.78615898
2.06776 9.0569992 1.331678
2.0485499 9.0210543 1.545857
2.1673269 9.5956182 1.8833669
2.2041531 9.8116655 2.176338
2.136812 9.6200762 2.6398809
1.570022 7.1072731 2.1410899
1.600632 7.2860022 2.392427
2.067204 9.4621592 3.3642559
2.212013 10.181597 3.896852
2.0767319 9.6670046 4.2239432
2.1051021 9.8547058 4.5678658
1.825022 8.6416807 4.45225
1.972573 9.5596228 5.8074722
1.568401 7.8300791 5.3892422
2.509393 12.837008 9.1522379
1.4926521 7.928514 5.3473072
1.74022 9.3028421 6.1391969
1.776989 9.8794127 5.3037839
1.8216701 10.264493 4.9932132
1.7419471 9.8818722 4.5484619
1.644937 9.4599152 3.8474059
1.643154 9.5813599 3.376725
1.551 9.1073837 2.9628961
1.614193 9.5453176 2.8477311
1.63139 9.715621 2.6391051
1.949993 11.780271 2.5841501
1.665343 10.207633 1.728314
1.666116 10.28743 1.493863
1.317665 8.2573051 0.82114798
1.262635 8.0933723 0.30642599
1.246843 8.0535402 0.157068
1.23864 8.0623837 0.019551
0.97408301 6.7025671 -0.52116299
0.841757 5.987185 -0.52708799
1.09381 8.4164886 -0.111486
1.11479 8.7365274 0.16974699
1.0711271 8.4725876 0.31947199
1.014933 8.1036062 0.462466
1.056951 8.5193081 0.66056502
1.062255 8.6440821 0.85525602
1.333221 11.061061 1.59702
1.1412441 9.8529348 2.399847
1.0827529 9.4429903 2.5462101
1.355808 11.946899 3.536876
1.1414 10.163027 3.279891
1.06154 9.5519066 3.338335
1.255722 11.419918 4.296906
1.1031359 10.251393 4.404655
0.81412297 8.2888145 5.1188798
0.81799603 9.2067318 6.4674511
0.81979698 11.130696 5.89709
0.84025699 11.782064 5.6575928
0.77859598 11.098998 5.043479
0.71234399 10.326497 4.4219398
0.687289 10.134611 4.0702009
0.62768102 9.4175644 3.530077
0.58276898 9.4018164 2.5234389
0.51603502 9.7984161 0.75500798
0.50830001 10.098143 0.37823799
0.201747 5.7297039 -0.499818
0.22946399 10.791011 0.40377
0.039445002 10.209795 4.0910301
-0.055893 8.5091314 5.229887
-0.696329 16.83378 4.9560852
-0.66758299 15.697813 4.2090092
-0.38380599 5.9400182 -0.458022
-0.37224501 5.373692 -0.469594
-0.483071 6.5340428 -0.45993999
-1.021764 12.810207 -0.168805
-1.096904 9.9456377 5.9531951
-1.220081 7.300786 -0.38427699
-1.087561 6.4616051 -0.40509
-0.92977899 5.4468789 -0.42518601
-0.87799901 5.0032802 -0.44284499
-1.0788749 5.9845648 -0.42688701
-1.648865 5.9282169 -0.38040799
-1.421105 5.0638232 -0.40470099
-1.319984 4.6209402 -0.41896099
-1.6046489 5.5203629 -0.403568
-1.022368 -3.0362289 1.838943
-1.0765539 -3.209414 2.0140541
-1.050058 -3.1424501 2.0363469
-1.172079 -3.521131 2.3470719
-1.1549439 -3.483083 2.3803599
-1.074091 -3.2644529 2.3192649
-1.1071301 -3.41798 2.513942
-1.0401371 -3.2624781 2.3445361
-1.14668 -3.6255801 2.520345
-1.060686 -3.3671961 2.2900219
-0.98846298 -3.1506071 2.0883651
-1.0793869 -3.4543891 2.2243249
-0.975752 -3.1354311 1.95372
-0.97386199 -3.142139 1.888227
-0.984137 -3.188318 1.841148
-1.062842 -3.457454 1.911193
-0.82159799 -2.717319 1.212734
-0.84703702 -2.8131721 1.1772079
-0.86808503 -2.895175 1.130451
-0.87185401 -2.920011 1.0585279
-0.92756802 -3.1197391 1.043824
-1.501994 -5.073163 1.556361
-2.254216 -7.613884 2.3358109
-1.2436351 -4.2184319 1.17814
-0.78763801 -2.6830981 0.676566
-1.805792 -6.1514468 1.551141
-0.94165099 -3.221498 0.72636199
-0.89833301 -3.086545 0.61544102
-0.90405202 -3.1196079 0.54275602
-0.84414703 -2.925524 0.43646699
-0.87836802 -3.0573821 0.38275701
-0.81507403 -2.8494611 0.29104701
-0.86107701 -3.0234809 0.2419
-0.80481499 -2.838378 0.16706499
-0.87502098 -3.0996051 0.120484
-0.87513202 -3.1137569 0.062337998
-0.89918101 -3.213562 0.0079979999
-0.82187599 -2.950402 -0.040231001
-1.681317 -6.0356569 -0.082300998
-0.80914301 -2.9177361 -0.083336003
-0.79664898 -2.8856111 -0.120896
-0.81512702 -2.965884 -0.159683
-0.753824 -2.7552869 -0.176598
-0.838516 -3.0928769 -0.24658
-0.84095401 -3.1596 -0.28503901
-0.75862199 -2.904165 -0.210713
-1.353871 -5.1829071 -0.37604699
-1.5092469 -5.8327889 -0.31278199
-0.73234397 -2.843823 -0.118596
-0.81251699 -3.170296 -0.090076998
-0.808595 -3.170223 -0.042975999
-0.76711398 -3.0221519 0.0074729999
-1.913355 -7.5379338 0.018641001
-0.73507601 -2.910038 0.057847999
-0.72427601 -2.881285 0.111139
-0.73677599 -2.945384 0.17192701
-1.0083719 -4.031137 0.235304
-0.76778299 -3.084482 0.24458501
-0.74056 -2.9898331 0.30248201
-0.83941501 -3.4057801 0.42206001
-0.697891 -2.8457229 0.42000699
-0.718297 -2.943614 0.50633001
-0.70493102 -2.9033849 0.57200497
-1.3401099 -5.519486 1.087411
-0.675892 -2.797884 0.62292898
-1.413062 -5.8494301 1.302334
-0.99442798 -4.137394 1.029547
-0.682055 -2.85218 0.78559899
-0.79137403 -3.3262939 1.005779
-0.75777203 -3.2014871 1.055123
-0.72706199 -3.087635 1.101841
-0.87481397 -3.7344179 1.434521
-0.66699398 -2.862164 1.17758
-0.72852802 -3.1426239 1.378124
-0.64653099 -2.8036211 1.30422
-0.80859703 -3.5250061 1.7322249
-0.75286603 -3.299525 1.7059979
-0.85890001 -3.7843671 2.05041
-0.71394199 -3.162606 1.788972
-0.82061797 -3.6547921 2.15008
-0.74135399 -3.319716 2.0237689
-0.74111003 -3.336726 2.1007521
-0.76674199 -3.4710519 2.2481861
-0.74002802 -3.3685999 2.2372341
-0.68109602 -3.319164 2.24577
-0.71822101 -3.520716 2.330838
-0.69054699 -3.4051239 2.197407
-0.71250403 -3.5343649 2.2159469
-0.717821 -3.5820761 2.173584
-0.74632603 -3.7467649 2.1928921
-0.65401697 -3.3032711 1.858057
-0.64669597 -3.2861979 1.769641
-0.67003202 -3.425678 1.759564
-0.73589301 -3.7855971 1.8471299
-0.62282401 -3.223804 1.488355
-0.73553503 -3.8309801 1.666478
-0.73625201 -3.858762 1.574074
-0.601785 -3.173903 1.20822
-0.597628 -3.172009 1.1212
-0.650958 -3.4771161 1.1345249
-0.628977 -3.3812821 1.011705
-0.74312001 -4.0207338 1.095336
-0.955715 -5.1710081 1.4086961
-0.78608501 -4.2808418 1.053064
-0.53395498 -2.9268169 0.64386898
-1.009499 -5.5334539 1.217302
-0.54192901 -2.990097 0.581783
-0.58864802 -3.269367 0.55511701
-0.559273 -3.126909 0.45533901
-0.51754701 -2.9130421 0.355997
-0.50382602 -2.854939 0.28469399
-0.617136 -3.5207551 0.27504301
-0.95694798 -5.4593811 0.42649001
-0.562181 -3.229178 0.185608
-0.96236801 -5.5278649 0.317734
-0.58091998 -3.3597629 0.12755001
-1.04317 -6.0331969 0.22904301
-0.53096998 -3.0921609 0.060467999
-0.90694702 -5.281702 0.103286
-1.107365 -6.53933 -0.087121002
-0.70729703 -4.2063332 -0.117397
-0.50286502 -3.0118189 -0.123317
-0.61361402 -3.7014301 -0.194783
-1.020068 -6.1976228 -0.38830599
-0.51776099 -3.1917191 -0.248805
-0.80290401 -4.9494772 -0.38582799
-0.49592501 -3.1490979 -0.27791801
-0.78542203 -4.9873838 -0.44015199
-0.86205399 -5.6434898 -0.400767
-0.62703598 -4.169436 -0.21889099
-0.45651999 -3.059607 -0.124931
-0.62638801 -4.1980662 -0.171417
-0.74930799 -5.061903 -0.140838
-0.87036198 -5.8796792 -0.163591
-0.75602198 -5.1483369 -0.068351999
-0.457091 -3.1378739 0.0076009999
-0.76470101 -5.2495809 0.012715
-0.47268301 -3.271414 0.063706003
-0.786946 -5.4464188 0.106061
-0.46823999 -3.2673099 0.123475
-0.53696603 -3.7779169 0.21608201
-0.56305301 -3.9945879 0.31041199
-0.43934301 -3.143177 0.31166899
-0.46016499 -3.320086 0.40330401
-0.429901 -3.1283219 0.45264301
-0.45098901 -3.310096 0.558249
-0.84652102 -6.26723 1.210763
-1.03452 -7.6590829 1.479654
-0.41454399 -3.096056 0.67602003
-0.73608798 -5.4975352 1.200381
-0.65523702 -4.9370098 1.20498
-0.68245 -5.187809 1.401709
-0.64791203 -4.9696078 1.474239
-0.61201799 -4.736999 1.531837
-0.63110298 -4.9294882 1.726261
-0.55045402 -4.3393049 1.635949
-0.52284902 -4.1601992 1.680078
-0.50446898 -4.0517478 1.744262
-0.41916099 -3.464432 1.759114
-0.35271999 -3.7944739 2.1874161
-0.28515199 -3.1065509 1.721336
-2.0420251 -23.435221 10.663309
-2.0142541 -23.429632 10.046008
-1.982688 -23.378637 9.4012976
-1.927068 -23.363659 8.1430559
-1.900321 -23.368601 7.5193191
-0.41737899 -5.2069821 1.536606
-0.43555999 -5.513803 1.481666
-0.44197401 -5.6784859 1.37806
-0.284152 -3.706074 0.80441397
-0.44352499 -5.7847109 1.255587
-0.25239801 -3.3426039 0.64176601
-0.251055 -3.376729 0.56583101
-0.25281799 -3.4543569 0.496488
-0.25933999 -3.6006341 0.434365
-0.26676899 -3.764406 0.370601
-0.290503 -4.1675382 0.321459
-0.236846 -3.455344 0.196124
-0.240054 -3.5624239 0.133568
-0.254094 -3.8368821 0.074111
-0.34037799 -5.1397848 0.099278003
-0.333922 -5.132133 0.012327
-0.254316 -3.979538 -0.052379999
-0.352267 -5.512279 -0.072554998
-0.249392 -3.9746749 -0.109611
-0.21853299 -3.5483789 -0.143574
-0.237574 -3.931524 -0.204478
-0.22203401 -3.7462609 -0.23200899
-0.30193001 -5.094317 -0.31549501
-0.209307 -3.675163 -0.28325301
-0.194299 -3.7138159 -0.32420799
-0.171249 -3.5910709 -0.252379
-0.285052 -5.9774799 -0.420095
-0.170965 -3.768044 -0.19582
-0.22139101 -4.8794022 -0.253575
-0.17341299 -3.921968 -0.158545
-0.225362 -5.0968609 -0.20603999
-0.15184499 -3.526396 -0.097147003
-0.168449 -4.0201249 -0.052852999
-0.16195001 -3.9746909 0.0095349997
-0.142931 -3.6105011 0.069641002
-0.13151599 -3.4220779 0.12811001
-0.146455 -3.928973 0.22263999
-0.138267 -3.8281801 0.294761
-0.12762 -3.6501999 0.35867801
-0.168164 -4.9742589 0.59886402
-0.22103199 -6.5380788 0.78713697
-0.118581 -3.6319211 0.52089399
-0.123448 -3.9196789 0.65532798
-0.105972 -3.4929259 0.66903102
-0.223516 -7.659348 1.658323
-0.164443 -5.8673372 1.420155
-0.15526401 -5.7771411 1.5481679
-0.206854 -7.6967392 2.0625851
-0.603351 -23.459003 6.903017
-0.57637203 -23.466276 7.5281749
-0.470128 -23.581261 10.075864
-0.4429 -23.582705 10.691796
0.14498401 -5.5110259 1.333849
0.150584 -5.4829531 1.187055
0.172158 -6.268465 1.3571171
0.15911999 -5.3435049 0.89332998
0.238245 -7.7015562 1.1045049
0.12572999 -3.9177101 0.47163701
0.132155 -3.974674 0.39053899
0.14202601 -3.867686 0.14478301
0.47020301 -7.557734 -0.099468
0.47714001 -7.5288739 0.018082
0.355564 -5.5095129 0.106407
0.237799 -3.6196599 0.135699
0.338312 -4.9737711 0.38360301
0.51917303 -7.6327481 0.58867699
0.35104701 -5.0744038 0.49950999
0.37319601 -5.3055282 0.63995898
0.52276701 -5.7280021 3.3015349
1.042345 -9.4818668 6.3224082
0.699045 -5.1506491 0.74508703
1.038783 -7.6538782 1.107201
1.0407929 -7.6027408 0.92332298
1.048539 -7.5940781 0.75283301
1.054445 -7.5723362 0.58829403
1.0613019 -7.5576191 0.432163
1.0701489 -7.5572681 0.28552899
1.075904 -7.5351629 0.14669999
0.73184401 -5.0835762 0.01231
1.119704 -7.5309629 -0.39526799
1.1279221 -7.526423 -0.470496
1.1458991 -7.5277739 -0.58591503
1.188641 -7.5732112 -0.66830498
1.228735 -7.599359 -0.540402
1.246704 -7.599041 -0.39977899
1.263309 -7.6450081 -0.31293401
1.27597 -7.6666012 -0.213911
1.287189 -7.6791959 -0.102279
1.303651 -7.7227178 0.018772
1.30999 -7.7059951 0.15065099
1.323097 -7.7290859 0.29334199
1.333531 -7.7363329 0.44454399
1.341853 -7.7312198 0.603791
1.356506 -7.7624602 0.77384502
1.3678859 -7.7746439 0.949844
1.17129 -6.0043769 3.2323511
1.220286 -6.0323572 3.992301
2.0981269 -10.013681 7.1588569
1.7836061 -8.2276068 5.579895
1.3210551 -6.0600462 4.0233212
5.300869 -23.787113 13.98871
1.301551 -5.8088861 3.284693
5.3568149 -23.778811 12.878949
5.4390349 -23.633007 10.359896
5.4801331 -23.686226 9.7416277
5.4980369 -23.639099 9.07724
5.5451798 -23.594175 7.773098
5.5901251 -23.662519 7.152204
5.5980692 -23.57411 6.4907651
1.877602 -7.6695609 0.95008302
1.8745739 -7.6190372 0.770522
1.890456 -7.6454639 0.60601598
1.9083771 -7.6797638 0.44810599
1.918743 -7.683507 0.29625699
1.928143 -7.6832862 0.152674
1.943005 -7.7047572 0.019045999
1.960348 -7.7357879 -0.104827
1.969716 -7.735127 -0.219689
1.991419 -7.782711 -0.32443401
2.005573 -7.8004532 -0.41813201
2.026206 -7.8430319 -0.50079298
2.0522709 -7.8687339 -0.62573302
2.0910251 -7.8680029 -0.709732
2.1385779 -7.8994961 -0.57450497
2.1603079 -7.9071641 -0.42554599
2.1788001 -7.9387288 -0.33246401
2.185214 -7.9261751 -0.226292
2.194499 -7.9240289 -0.108005
2.2094729 -7.942378 0.01976
2.223645 -7.9576211 0.159245
2.2349401 -7.9625058 0.30937901
2.2437501 -7.958509 0.46823299
2.260246 -7.9816189 0.63831598
2.2696431 -7.9795918 0.81469703
6.7226639 -23.532038 2.9447441
7.0785828 -24.039753 7.3717599
7.129745 -24.110527 8.0635242
2.6910939 -8.7641039 5.0586882
2.3909659 -7.6602921 5.0752559
3.2340829 -9.8009758 6.6948318
3.2319369 -9.7565784 6.5002828
2.547215 -7.6598368 4.9612708
2.6085961 -7.8142581 4.9014282
2.2594211 -6.742331 4.0816169
2.4717071 -7.3475871 4.277493
2.9438901 -8.7178926 4.8618412
2.9764781 -8.7808685 4.6737151
2.992641 -8.7951183 4.4497871
3.7068701 -10.77155 4.564517
8.2990408 -24.025387 9.5067196
2.969003 -8.3749199 1.70116
2.9941909 -8.3844013 1.276197
3.019227 -8.4237242 1.076713
2.988364 -8.3073864 0.86698401
3.0085809 -8.3333473 0.68173897
3.0131171 -8.3157768 0.50085503
3.016228 -8.2944307 0.330163
3.0256619 -8.2904978 0.170094
3.033386 -8.2819386 0.02114
3.0426991 -8.2777386 -0.115847
3.0555329 -8.2830486 -0.242992
3.056479 -8.2562246 -0.355546
3.0727351 -8.2707739 -0.45805299
3.0777819 -8.2550907 -0.54466498
3.0918641 -8.2346811 -0.67682898
3.1329739 -8.2283382 -0.76757401
3.1730371 -8.2190962 -0.61848199
3.203546 -8.241353 -0.45903799
3.2202179 -8.2559843 -0.35788599
3.2256989 -8.2418957 -0.243598
3.247874 -8.2703505 -0.116713
3.261364 -8.2765846 0.021322999
3.278795 -8.2926788 0.171867
3.2981091 -8.3134251 0.334575
3.3102691 -8.3160362 0.50684702
3.3209529 -8.314867 0.68895102
3.3332961 -8.3178587 0.87998199
3.350486 -8.332859 1.080655
3.3645599 -8.3399734 1.289109
3.387229 -8.3682852 1.508607
3.400672 -8.3736658 1.730305
10.039139 -24.236532 9.1123343
3.6055009 -8.6760244 3.513962
4.1040158 -9.8434353 4.273284
3.9339049 -9.3743248 4.608326
3.9335921 -9.2831469 5.3271418
10.247284 -24.105509 14.452843
3.7715349 -8.815361 5.7046981
3.7922261 -8.723855 6.4196539
3.7873881 -8.6035786 6.5775261
3.858542 -8.6563702 6.4889989
3.9041121 -8.7043734 6.3229599
3.938915 -8.7548389 6.2273579
3.975117 -8.8080683 6.1116881
4.004015 -8.8447676 5.9671402
4.0262089 -8.8664894 5.7936659
4.0583968 -8.9099903 5.6198769
4.07552 -8.9201851 5.4113622
4.1031742 -8.9533043 5.2038088
3.1426029 -6.8363829 3.7928081
4.1283488 -8.9807653 4.9825048
4.1309938 -8.9592028 4.7253881
4.1111541 -8.8891258 4.439467
4.1760011 -9.0019627 4.239264
4.2297149 -9.0902004 4.017385
4.2864218 -9.184289 3.7907081
4.3285551 -9.2466087 3.546365
4.356719 -9.2788143 3.2875259
4.2452202 -9.0142365 2.9309809
4.3174691 -9.1401739 2.707936
4.260519 -8.9926662 2.407608
3.9679401 -8.3501511 2.0007751
3.962867 -8.3146248 1.7634
3.9650631 -8.2945232 1.536297
3.9757249 -8.2921686 1.318198
3.9864731 -8.2899466 1.106817
3.9991269 -8.2916956 0.90402502
4.0070062 -8.2835379 0.70805502
4.010695 -8.2667303 0.52030301
4.4033532 -9.076066 0.57124197
4.4165149 -9.0764542 0.37760201
4.4100032 -9.036458 0.19379599
4.4203792 -9.0312071 0.024101
4.4163499 -8.9966125 -0.13164701
4.418848 -8.9754124 -0.27534699
4.3711109 -8.852602 -0.39872301
4.0931721 -8.2656126 -0.478843
4.1044331 -8.2642746 -0.57045799
4.1847291 -8.3772612 -0.72056001
4.2837429 -8.4770918 -0.82802099
4.5002871 -8.8041677 -0.694112
4.529335 -8.8106203 -0.514305
4.470048 -8.670619 -0.393962
4.5678749 -8.8352747 -0.273752
4.2781901 -8.2282238 0.022229001
4.7061949 -9.0258522 0.19618499
4.6966119 -8.9821224 0.379172
4.6953359 -8.9544477 0.57254303
4.720695 -8.9775171 0.78047901
4.7413759 -8.9915886 0.99823898
4.777565 -9.0348787 1.229744
4.8159642 -9.0820322 1.473572
12.694289 -23.805927 5.1651549
12.814368 -23.897732 6.5608358
13.037273 -24.045942 9.5011606
13.345966 -24.412693 11.885733
3.866128 -7.0140429 4.0372291
3.176131 -5.746501 3.4692061
5.2073522 -8.7173471 4.3378701
5.1153269 -8.540843 3.9891169
5.1733928 -8.6151772 3.7584791
5.2807531 -8.7709332 3.5562091
5.4569368 -9.0398874 3.386472
8.8487568 -14.319579 1.653046
5.486927 -8.72052 -0.28357399
5.5090041 -8.7331858 -0.41700301
5.4003382 -8.5390234 -0.52451801
5.3649621 -8.4613819 -0.619389
5.672009 -8.9000587 -0.81208801
5.7110791 -8.8704996 -0.919734
5.5008178 -8.4576807 -0.70825797
5.61832 -8.5947561 -0.53307301
5.595098 -8.5376568 -0.41224101
6.2690048 -9.4939432 0.027269
6.0881891 -8.8572397 4.0198102
5.6363392 -8.0990114 4.9739518
4.0219059 -5.7507281 3.87216
4.9314661 -7.0339131 4.9308958
5.0167632 -7.13796 5.1908302
5.0026069 -7.1003351 5.3382759
5.9454732 -8.3971872 6.6741519
5.7337852 -7.9800549 6.8756442
5.0231371 -6.8894768 5.6511631
4.8271608 -6.6046152 5.30656
4.8021679 -6.5227308 4.8191071
5.9281931 -8.0521994 5.9491048
5.7728381 -7.7843928 5.1206532
6.7413139 -8.9595509 4.1935639
11.162535 -14.37976 1.030825
7.2010889 -9.188386 -0.153346
6.6286278 -8.3976879 -0.55541801
6.7783089 -8.5668812 -0.67535502
6.7959909 -8.5484838 -0.840321
6.8267078 -8.5059214 -0.95082599
6.892108 -8.5063972 -0.76855099
7.0058622 -8.6059599 -0.57610399
7.4977479 -9.188446 -0.478944
7.5274768 -9.2031107 -0.327236
7.0568109 -8.2312002 4.6317229
6.2156219 -7.1656289 5.2340589
7.4616399 -8.2099876 6.818541
11.754862 -12.903749 10.38524
6.2830439 -6.881115 5.3485661
7.097971 -7.6837821 4.7416801
8.1135254 -8.6817446 3.8109651
13.69448 -14.417501 2.8503721
13.816681 -14.411842 1.130555
8.42733 -8.6489048 -0.62691301
8.4326124 -8.6342812 -0.74612999
8.3445969 -8.5046854 -0.91681099
8.6538162 -8.7384768 -1.072155
8.599966 -8.6040287 -0.85398501
9.5505714 -9.4889231 -0.54370999
9.4691677 -9.3862896 -0.366965
13.729689 -13.359624 2.305023
13.76957 -13.367394 2.7509041
13.729582 -13.266974 3.6552279
13.694822 -13.202725 4.1168289
7.4081788 -7.027041 4.0914021
8.0745564 -7.6413808 4.749186
6.9414101 -6.1833639 5.5308518
8.1801271 -7.2359462 5.7704868
11.750455 -10.297439 6.6745529
11.46687 -9.5882149 -0.41139799
10.371407 -8.6111231 -0.83337998
10.362039 -8.5628614 -1.0343471
10.525962 -8.5352993 -0.95132297
11.692103 -9.4137001 -0.60621601
11.801278 -8.3002586 5.3961802
13.219667 -8.7806625 -1.221162
8.018054 -4.6301632 6.1367798
13.267187 -7.2962632 3.663383
7.4257059 -3.434391 5.3071041
8.5914927 -3.973568 6.140285
7.33178 -3.3703301 5.4457421
7.199966 -3.26934 5.5329652
7.2923431 -3.2705569 5.4720922
8.605401 -3.835489 6.2445102
8.6496754 -3.843205 6.1397409
8.7289562 -3.866317 6.0379238
8.663394 -3.825249 5.8205271
11.224681 -3.9755731 5.087039
8.6699982 -3.0481241 4.4018378
8.478158 -2.969636 4.5283222
11.682151 -4.0766931 6.53758
8.3378372 -2.8987789 4.8707571
8.0845118 -2.8002019 4.9109831
8.1498928 -2.812253 5.1294732
8.8866119 -3.0549419 5.775496
8.4226351 -2.8845241 5.630621
8.4760675 -2.8918309 5.8094072
8.1181002 -2.748697 5.7841778
7.5504532 -2.517494 5.5690832
8.0936537 -2.6569431 5.8325291
8.2140579 -2.6753659 5.7257462
8.2936783 -2.690665 5.655941
8.3565531 -2.700357 5.5541849
8.5420761 -2.749356 5.5152578
8.0200357 -2.5710721 5.010849
8.1610699 -2.6058519 4.9174552
8.0951481 -2.5744481 4.6871738
8.3505573 -2.645015 4.6282558
8.4844065 -2.676574 4.4846601
8.6437283 -2.7158179 4.339633
11.002125 -3.456816 5.5236802
10.927108 -3.419328 5.1900439
12.508122 -3.8822119 5.2477808
12.440329 -3.84536 4.8700142
16.495275 -4.1490769 3.2564039
13.788979 -3.3821571 4.553369
8.9264717 -2.1785121 3.191663
8.9953537 -2.184273 3.462116
10.249314 -2.425884 5.3092999
9.5254669 -2.2428961 5.17064
9.4922161 -2.211828 5.5944881
9.5549612 -2.2147541 5.8355942
6.8705082 -1.584129 4.3334551
6.6799412 -1.532034 4.3344131
6.6743708 -1.5226001 4.4407272
6.8145671 -1.537964 4.7146082
6.7597828 -1.492659 4.843852
6.9966812 -1.510955 4.900929
6.6500788 -1.41996 4.5070081
7.033865 -1.493381 4.6643958
6.8800731 -1.4523931 4.447196
9.618557 -2.018826 6.0404458
7.1247458 -1.486779 4.3302941
9.5245991 -1.976053 5.5835361
9.6683941 -1.9941781 5.4471121
10.247645 -2.08887 5.2719388
10.600863 -2.148068 5.1806908
9.1040134 -1.811795 3.719456
9.0808039 -1.796231 3.462116
12.82114 -2.4897499 3.841939
12.700574 -2.4510369 3.465071
13.463106 -2.582005 3.316751
9.5870819 -1.3358181 2.5930459
9.6144667 -1.32827 2.855068
9.7323084 -1.333035 3.1504059
9.7337437 -1.2987339 3.934813
9.6618176 -1.277735 4.163444
6.9635849 -0.91268897 3.183552
6.9278088 -0.89981902 3.3460879
6.499836 -0.836568 3.303515
6.3613472 -0.81124598 3.388386
7.3734789 -0.94032001 3.9275
6.2508149 -0.789774 3.4764891
7.4275441 -0.92970097 4.2966752
6.847652 -0.84904099 4.1053171
6.7140679 -0.82457399 4.1575189
6.843502 -0.83241498 4.3600702
6.857512 -0.82604003 4.480454
6.4940491 -0.76698202 4.4130931
6.5610261 -0.74402899 4.6202631
6.5393829 -0.71085697 4.5037699
6.954977 -0.73970503 4.6357331
6.8800368 -0.72366703 4.4875288
6.7787738 -0.70506901 4.31036
6.609529 -0.679708 4.0836892
6.855298 -0.69695002 4.0996919
6.800787 -0.68344098 3.923311
7.2210898 -0.71720999 4.0040498
6.4191561 -0.63004398 3.4080069
6.747714 -0.65438199 3.417398
6.4980879 -0.62256801 3.1266439
7.4299779 -0.711851 3.5750351
7.1714358 -0.67868799 3.2652979
7.41645 -0.69318801 3.1821001
12.70301 -1.172444 5.111649
9.7287779 -0.88655603 3.6537361
12.974123 -1.167106 4.5248308
12.202401 -1.083421 3.9288449
7.0324421 -0.25571299 1.5229501
7.1384811 -0.25128001 1.728219
12.624299 -0.42984301 3.3838201
12.343445 -0.37723401 4.289566
11.138733 -0.301579 4.7601862
7.377697 -0.19118001 3.345392
7.547368 -0.186799 3.6160729
7.3265042 -0.172824 3.6942289
6.6074901 -0.14818899 3.4920981
6.8216758 -0.14506 3.764909
6.4113798 -0.12889101 3.6808729
7.204782 -0.144841 4.1363769
