# .PCD v0.7 - Point Cloud Data file format
VERSION 0.7
FIELDS x y z
SIZE 4 4 4
TYPE F F F
COUNT 1 1 1
WIDTH 1544
HEIGHT 1
VIEWPOINT 0 0 0 1 0 0 0
POINTS 1544
DATA ascii
5.3428531 3.0407479 2.626215
5.2494259 2.9956479 2.7397289
5.1867919 2.9679029 2.8622739
7.4363241 4.2780399 4.5329528
7.5402441 4.3494959 4.8031211
5.263443 3.052469 3.6200831
5.1546931 2.997402 3.6647961
5.0684948 2.955157 3.7106299
5.0242462 2.9371879 3.775162
5.0201831 2.9504709 3.9297731
7.7199702 4.5855832 6.2828469
5.0094481 3.007123 4.000401
4.986351 3.009038 3.8600719
4.9979992 3.0239861 3.7893119
5.0328732 3.0530729 3.722924
5.0785041 3.088834 3.653276
5.1933532 3.1669509 3.61906
7.164093 4.3801408 4.8198819
7.8453369 4.8217282 4.8655782
5.127655 3.167881 2.8868971
5.1947279 3.2176559 2.7698679
5.2302399 3.24807 2.6301429
5.2835231 3.289664 2.493896
4.8943391 3.0552361 2.1579111
5.127943 3.2093501 2.1013069
4.96456 3.1151209 1.8796771
4.8730168 3.0655701 1.693512
4.956809 3.1263289 1.569904
5.2025361 3.2897601 1.489293
4.4938502 2.848938 1.1515189
4.466948 2.8391671 1.013325
4.222208 2.6904981 0.83663201
5.0024352 3.1876781 0.991234
4.1266942 2.636374 0.70195103
4.074913 2.6099679 0.582259
4.5355029 2.9124031 0.52931899
4.014853 2.5846629 0.36741501
4.8938718 3.1586051 0.32983199
4.361021 2.8218679 0.194315
4.1301508 2.6792951 0.094884001
4.3306618 2.8165171 0.012382
4.390686 2.862813 -0.068851002
4.1886082 2.7379971 -0.137729
4.1359658 2.710444 -0.199705
4.069695 2.6737709 -0.25279701
4.0709691 2.6813879 -0.301364
3.9914861 2.6423421 -0.36833599
4.3360848 2.899529 -0.454743
3.910032 2.640991 -0.33123001
4.0693531 2.7623899 -0.25533801
4.1096058 2.7966881 -0.200754
4.2576108 2.9046459 -0.141856
4.3000441 2.9409249 -0.068430997
4.0462599 2.7742529 0.011759
4.2087312 2.8928461 0.09843
4.3315792 2.984694 0.19678199
4.941956 3.413744 0.34012201
4.0075159 2.7751479 0.37508699
4.0173411 2.788857 0.480257
3.9735589 2.7653041 0.58249801
4.7925549 3.3352649 0.70255703
4.2726979 2.98086 0.74678898
4.2546968 2.9756491 0.86761802
4.3241792 3.031724 1.0110691
4.4771032 3.146709 1.184305
4.584517 3.230161 1.356895
5.1465588 3.6350319 1.687899
5.352335 3.7896919 1.929154
6.2128119 4.3989482 2.2392969
5.2421951 3.7208631 2.0616901
4.9559679 3.52636 2.1127911
4.6529579 3.318898 2.137593
8.940917 6.3931398 4.4042082
5.155993 3.723068 3.2058361
5.0780091 3.6757319 3.312237
5.0037751 3.630868 3.4112689
5.0049 3.6405599 3.5524349
7.5897741 5.5748978 6.1087208
9.3740406 6.9190521 7.8629012
7.209795 5.491662 5.5702381
7.146121 5.4562812 5.3493371
8.1426983 6.2171979 6.0953398
4.9661541 3.8101051 3.453783
4.9509468 3.807575 3.300091
5.0049152 3.858346 3.18558
5.1260438 3.96122 3.102885
4.3894248 3.4246659 2.0822439
9.3101215 7.2812591 4.1054888
4.7770839 3.7539661 1.787204
4.167336 3.2826519 1.421116
5.0490632 3.9771969 1.721797
4.3534551 3.4374549 1.34208
4.686388 3.7091751 1.29345
4.1294861 3.2762129 1.0091881
4.1508799 3.3010449 0.88624299
3.8864491 3.0981231 0.71245098
4.4459181 3.5525689 0.68475699
4.4399838 3.5562789 0.55863798
4.9301219 3.948863 0.62030703
3.7933061 3.0455461 0.37432
4.2047882 3.3839591 0.30563501
4.0607581 3.2758191 0.19517501
4.0551438 3.279079 0.100511
3.887383 3.150893 0.011994
3.8026891 3.089565 -0.064359002
3.771632 3.0716159 -0.13387699
4.0195279 3.28127 -0.20955101
4.0220861 3.291146 -0.26980299
4.2506042 3.4863911 -0.33986801
3.8487339 3.171747 -0.383757
3.9839301 3.314362 -0.45179
3.7911961 3.1839311 -0.34754601
3.9421761 3.326375 -0.26778099
3.738997 3.1623709 -0.197768
3.7392409 3.1700301 -0.134922
3.85094 3.2724259 -0.066381998
3.744688 3.1896291 0.01179
4.0117488 3.425158 0.101667
3.8189421 3.268214 0.188035
3.8935499 3.3399 0.290483
3.782352 3.2521529 0.38383299
3.693953 3.1836109 0.47888899
4.201364 3.629427 0.668033
4.1883841 3.626724 0.794182
4.0477142 3.5131471 0.89563799
4.3955889 3.824034 1.115428
4.5782008 3.9922581 1.314602
5.2728491 4.5980029 1.514066
4.3645272 3.8148589 1.402517
4.386919 3.843344 1.5624
5.2464619 4.6179681 2.241564
5.0965972 4.4965649 2.360853
4.9640551 4.3898849 2.4784451
4.8249769 4.2768979 2.583534
4.8115149 4.2749491 2.7495699
4.8020101 4.2764878 2.9147811
4.7305961 4.2227578 3.037225
4.6722841 4.1804609 3.160373
4.6017108 4.1269441 3.2659869
4.564518 4.1031709 3.3866301
4.4966769 4.0516329 3.474278
4.44347 4.0130601 3.562305
4.3871069 3.9714119 3.637044
4.3606739 3.956702 3.7239931
4.3470521 3.9535649 3.8116241
4.268754 3.9004991 3.9023621
4.2425342 3.912863 4.0383592
4.2529278 3.959162 3.978368
4.3368921 4.0561728 3.93576
4.3413501 4.0697999 3.860059
4.334825 4.0731459 3.7619431
4.3481669 4.0952101 3.6710789
4.3513551 4.1077528 3.5602591
4.3921351 4.1559029 3.470793
4.369453 4.1440768 3.322859
4.4633121 4.2429461 3.2538409
4.4639368 4.253428 3.1081581
4.5205102 4.3173552 2.9940269
4.5969501 4.4005742 2.8846419
4.6236238 4.436419 2.7373919
4.6960492 4.5163922 2.6106861
4.725729 4.5555081 2.4549739
4.8021932 4.639998 2.319509
4.8647718 4.7113938 2.1719351
4.03934 3.921083 1.655979
4.9397249 4.7951069 2.0251031
3.5619431 3.4657121 1.331326
3.736634 3.644136 1.26283
3.5344441 3.4549651 1.069661
4.4108911 4.3117032 1.334908
3.662075 3.5880589 0.981547
3.343363 3.2834029 0.78306502
3.8080239 3.7484241 0.76594502
3.5613041 3.513725 0.60197002
3.39236 3.3548181 0.46852899
3.4011021 3.3712809 0.368489
3.43577 3.4135709 0.274257
3.591387 3.5764749 0.189605
4.298759 4.280911 0.22695
3.497786 3.49137 0.095250003
3.747452 3.7492721 0.012706
3.5203791 3.5302751 -0.065489002
3.5088999 3.526953 -0.136931
3.477936 3.5039539 -0.19938201
3.386996 3.420265 -0.24989399
3.7662301 3.8120761 -0.33129099
3.7373691 3.8004689 -0.41014799
3.9028859 4.0058398 -0.48757201
3.4106719 3.5333259 -0.34474501
3.2685521 3.401876 -0.24491701
3.3410101 3.485378 -0.19498301
3.553978 3.7161729 -0.141525
3.5582869 3.729347 -0.067708001
3.568732 3.748997 0.012406
3.4115601 3.592237 0.095481999
3.3582139 3.544296 0.182652
3.556145 3.7619309 0.29313999
3.516191 3.7283361 0.394344
3.330112 3.5392511 0.477227
3.614336 3.85027 0.63542002
4.3271461 4.609611 0.76073498
3.6742151 3.923187 0.770486
3.539973 3.7886519 0.86646402
3.7590721 4.032516 1.055445
4.2000089 4.5160389 1.3346961
4.9879642 5.3757839 1.7743109
5.3386569 5.7804809 2.314646
5.499867 5.9828572 2.8228519
8.0953188 8.951189 6.376874
5.038321 5.5840249 4.149951
5.8250408 6.4710422 4.9976039
5.7537122 6.4067631 5.1233368
5.7590489 6.4276972 5.3042402
5.5203881 6.175735 5.2388191
5.4096279 6.0660019 5.272275
5.2532978 5.9183049 5.3405752
5.6527839 6.368361 5.7466979
5.4500909 6.197772 5.774899
5.1919179 5.9878011 5.2528362
5.2367611 6.0537 5.192277
5.3799548 6.2338409 5.2078171
5.3692222 6.2360439 5.0576172
6.1459432 7.1886592 5.2185988
5.9368811 6.9604688 4.8338099
5.0404372 5.923398 3.920645
5.1954379 6.163322 3.2299759
4.9397202 5.873786 2.8704419
5.0673151 6.0397449 2.738524
4.4347792 5.2983022 2.2159121
4.4574671 5.337985 2.0457039
4.499135 5.40063 1.883005
4.5500369 5.4746399 1.72234
3.614531 4.3593149 1.225552
4.5733728 5.5157299 1.5506589
3.419934 4.1343918 1.02724
3.317229 4.019721 0.87091398
3.0464201 3.700304 0.68705201
3.683248 4.4844332 0.69825703
3.2957599 4.0221672 0.51065201
3.2460589 3.9709051 0.394651
3.7020309 4.539453 0.331698
3.084568 3.791292 0.18283799
3.3073111 4.0747352 0.101147
3.3673711 4.158587 0.012826
3.082021 3.8152349 -0.064424999
3.020232 3.747649 -0.13247401
3.466593 4.311749 -0.223432
3.5828421 4.466948 -0.297281
3.5937231 4.491199 -0.35560301
3.355942 4.2140522 -0.41452101
3.2157021 4.0766778 -0.45265901
3.6308899 4.6472559 -0.414002
3.182133 4.092442 -0.26912901
3.2200999 4.1512051 -0.212174
2.9939981 3.868989 -0.134647
3.0331459 3.929004 -0.065200001
3.2631371 4.237083 0.012819
3.47751 4.5263128 0.110011
3.484452 4.5462618 0.214277
3.0873179 4.0378089 0.287826
3.3644781 4.4109139 0.42687401
2.9337111 3.8554399 0.475761
3.0290999 3.990401 0.60280597
2.957485 3.905477 0.70223498
3.156961 4.1789622 0.87519997
3.1577251 4.1900768 1.004487
4.0954051 5.447473 1.4749351
4.5065308 5.994329 1.622999
3.0721149 4.096242 1.238843
4.3113418 5.74858 1.738566
4.2063332 5.6220288 1.880935
4.1051679 5.5001249 2.0188949
4.0222549 5.4021368 2.1600249
3.931571 5.29317 2.2903061
3.8843639 5.2423272 2.4402609
3.795012 5.1342149 2.5582421
3.7324409 5.0618548 2.6867139
3.721632 5.0594921 2.8470719
3.691664 5.031003 2.9888439
3.660955 5.0013251 3.124362
3.6034999 4.9348521 3.2286141
3.575609 4.908637 3.3508799
3.5172949 4.8403902 3.4344521
3.485281 4.8080859 3.53316
3.4530549 4.7752938 3.6218591
3.423955 4.7466559 3.7015431
3.3487401 4.6537862 3.7191091
3.365967 4.700727 3.901803
3.2766061 4.6211801 3.963829
3.0429029 4.3341379 3.6258399
3.247992 4.6492052 3.758971
3.304904 4.7423959 3.7495849
3.2702489 4.7043099 3.623503
3.3012259 4.7606788 3.560596
3.330348 4.814611 3.4830511
3.3833339 4.903378 3.419518
3.379082 4.9094238 3.288558
3.4430809 5.014873 3.2141311
3.4512529 5.0393291 3.0788989
3.5011899 5.1250072 2.9728601
3.5743871 5.245224 2.8772111
3.9018781 5.754508 2.7858729
3.5059199 5.1965189 2.1774321
3.7587459 5.5852461 2.1591091
4.1925702 6.2298799 2.4083071
3.708688 5.5247102 1.957374
2.8441291 4.2474742 1.369364
3.8104451 5.690588 1.834617
2.85903 4.2804761 1.245428
2.8136051 4.2230811 1.0982161
2.837672 4.2699628 0.981547
2.8556111 4.3078041 0.863662
3.1245921 4.7254848 0.81206101
3.2180581 4.879168 0.70327401
3.0663669 4.6609492 0.54788798
2.8182609 4.2946801 0.39526501
3.3718481 5.138278 0.47290599
2.924783 4.4683318 0.302412
3.0642641 4.6933141 0.20967899
3.0079939 4.6188588 0.106234
2.8915019 4.451283 0.012723
2.8393281 4.3821001 -0.068588004
2.944088 4.5553861 -0.14928401
2.8308599 4.3913722 -0.21100301
3.008435 4.6787629 -0.28877801
2.7696061 4.318367 -0.31716099
3.333765 5.1980028 -0.38176501
3.296221 5.1658401 -0.47152501
3.1715541 5.0218101 -0.51779598
3.1745639 5.0787191 -0.420445
2.73805 4.4031219 -0.26918101
3.000344 4.8374472 -0.22988801
2.8040769 4.5327539 -0.146698
2.987066 4.8411331 -0.074721999
3.1059041 5.046844 0.014204
2.979167 4.853548 0.10976
2.897908 4.7334909 0.207623
2.7357891 4.4803629 0.297268
3.0479119 5.0046039 0.45088699
2.923847 4.8134718 0.55306798
3.0033791 4.957375 0.69742
2.7859559 4.61059 0.77218902
3.0373781 5.0398979 0.98332202
2.6842711 4.4657192 0.99752998
2.6283209 4.3841801 1.106254
3.8047841 6.3465819 1.601424
3.385803 5.6626081 1.596292
3.9434531 6.595253 1.859205
3.7350481 6.2796102 2.1492729
3.4906631 5.8842888 2.1942289
3.653265 6.174715 2.4921031
3.485266 5.9063969 2.5649719
3.295929 5.6302538 2.957305
6.0783501 10.383312 5.4538612
4.7314248 8.1040239 4.4947128
2.9474001 5.0753531 3.1010759
3.0014949 5.1823649 3.3045011
4.3561759 7.5415201 4.9990969
2.941988 5.1069388 3.506572
2.7361989 4.762486 3.3757589
2.98157 5.217587 3.8981531
2.9064281 5.1136141 3.9694901
2.632967 4.6829958 3.75916
2.676543 4.8126888 3.770467
2.900291 5.24365 3.9716699
2.796711 5.0702672 3.756115
2.6110549 4.7467031 3.426266
4.6535201 8.4830847 5.9467192
4.3753438 8.0200834 5.2440238
5.1181679 9.4076862 5.909452
3.825094 7.050374 4.2381678
4.34025 8.0444307 4.3780789
5.4629278 10.267485 4.0398641
2.470588 4.7091551 1.150885
2.9770911 5.69066 1.229566
2.725318 5.2241549 0.98464102
2.742768 5.2725182 0.851933
2.6739521 5.1548572 0.698735
2.6130769 5.0518398 0.558541
2.591007 5.0234532 0.43492901
2.636152 5.1255932 0.32638401
2.6772621 5.2204161 0.219473
2.513695 4.9155359 0.106407
2.7042339 5.3033128 0.014269
3.1376021 6.1531968 0.016555
2.9230881 5.7489891 -0.084717996
2.6389129 5.2050538 -0.16061901
2.8909271 5.7185788 -0.25878099
2.7375619 5.4308529 -0.31573799
2.765573 5.5023232 -0.380716
2.881397 5.7660871 -0.49599901
2.852638 5.7754869 -0.56156802
2.696944 5.524744 -0.43157899
2.8854711 5.9459438 -0.34311199
2.4827671 5.1312671 -0.230211
2.9127359 6.019907 -0.27007899
2.7723701 5.746809 -0.175614
2.527251 5.254303 -0.076586999
2.4703369 5.1512728 0.013693
2.560935 5.3561521 0.114424
2.4674029 5.1759591 0.21450201
2.3743169 4.9956102 0.31321099
2.6210549 5.5313249 0.47098801
2.513731 5.320786 0.57789201
2.5883 5.4951301 0.73087001
2.6709969 5.6878409 0.90074497
2.647706 5.6552949 1.0434819
3.7707291 8.0783892 1.7068011
2.814774 6.0486898 1.443841
3.3010631 7.1585522 2.3188789
3.3032811 7.1853118 2.5362661
4.3469672 9.4555416 3.33761
3.18645 6.9737921 2.86764
3.0354049 6.6842542 3.1361361
4.0126061 8.8361444 4.1457658
4.011723 8.8615074 4.4093289
2.8779471 6.396615 3.5357821
3.0206349 6.7346392 3.8999369
2.9209239 6.5326519 3.9484921
2.8165951 6.3189931 3.971101
4.106988 9.2428493 6.0176201
3.095361 6.9880118 4.6973681
2.283905 5.1722908 3.5759311
3.722743 8.5109034 6.269176
2.0803969 4.817018 3.6714439
2.3825691 5.5878329 4.1591511
3.6757879 8.6766291 6.245615
2.1849971 5.1743579 3.6434641
3.819747 9.0456591 6.3693962
2.8469181 6.7637682 4.6412268
2.9535151 7.0398979 4.692132
3.9392121 9.4200058 6.0748868
2.659091 6.4005299 3.824332
2.880697 6.9567242 3.9784219
3.040519 7.3668981 4.0174232
4.2362862 10.264131 5.597384
3.898422 9.476696 4.908114
3.592742 8.7625113 4.2929029
2.8202159 6.9011998 3.18485
3.1774819 7.7754488 3.588309
2.180733 5.354094 2.3164771
4.60848 11.352357 4.5824089
3.7342551 9.2604904 3.202322
4.3359361 10.788672 3.420325
3.122221 7.794879 2.2494111
2.559871 6.4341602 1.498625
2.9815791 7.5195432 1.548663
2.632019 6.6605072 1.196766
2.3094771 5.8641968 0.90344101
2.2047069 5.6173072 0.72609103
2.267971 5.7982769 0.61141402
2.361382 6.057807 0.50029498
2.173866 5.5959721 0.33995199
2.105828 5.4395261 0.21820199
2.2686441 5.880384 0.121476
2.2999101 5.9820948 0.015362
2.337492 6.1009769 -0.085821003
2.284435 5.983304 -0.176274
2.493592 6.5539389 -0.28319401
2.3533139 6.206912 -0.34461501
2.2961011 6.0773101 -0.40163401
2.4421079 6.5094271 -0.53497303
2.243943 6.0667758 -0.56391299
2.395005 6.568799 -0.49082199
2.211076 6.1083899 -0.337253
2.162441 5.9957681 -0.25740901
2.2673011 6.3094492 -0.18452799
2.1979351 6.1388259 -0.085649997
2.25718 6.3274322 0.016101999
1.898173 5.340652 0.10924
2.2397029 6.3015742 0.128895
2.0931439 5.9109521 0.234576
2.000361 5.6698442 0.34046099
2.008271 5.7134199 0.466001
2.143333 6.1203618 0.63682401
2.248873 6.445713 0.82142198
2.1199789 6.0990591 0.92557597
2.4540801 7.0602479 1.071443
2.097235 6.056282 1.071007
2.0759399 6.0173669 1.21866
3.3832469 9.8438559 2.252697
3.551635 10.412023 2.947031
2.3870511 7.0785198 2.594805
3.0828731 9.1770658 3.6208069
3.1840539 9.5148821 4.02036
3.2091551 9.6270084 4.3351202
2.344157 7.0594392 3.371815
2.4139259 7.2978988 3.6817329
2.5884399 7.856071 4.1695681
3.017066 9.9269505 6.7302051
3.304656 11.010922 6.8398089
3.3148749 11.091717 6.644886
3.1790521 10.728021 5.9120388
2.112426 7.159121 3.7626491
2.407084 8.1927567 4.089951
2.4284201 8.3009901 3.9205041
2.85498 9.7590828 4.6091518
2.3223131 7.972662 3.547452
2.5571859 8.8170986 3.6785419
2.8526599 9.8787327 3.845706
2.916605 10.144396 3.6664591
2.109262 7.3685298 2.458086
2.4401131 8.5618811 2.6188631
2.640907 9.3074541 2.5917521
2.9838929 10.562929 2.655705
1.712 6.087451 1.36854
2.847959 10.171989 2.022325
1.7557729 6.2992091 1.092764
1.791028 6.4546509 0.96019799
1.824011 6.6032972 0.82428902
1.71646 6.2421641 0.63574898
1.791082 6.5432372 0.52200699
1.712656 6.2854071 0.36889899
1.7712491 6.5303178 0.25311801
1.73277 6.4179659 0.128124
1.807647 6.7263179 0.016694
1.80744 6.7568288 -0.091876
1.794173 6.7385969 -0.191929
1.678324 6.333046 -0.26459101
1.948105 7.3510461 -0.30712301
1.826727 6.9254889 -0.37183401
1.8353961 6.9912939 -0.44686401
1.737465 6.6813769 -0.531214
1.513652 5.9337559 -0.53386301
1.8744071 7.4931059 -0.54222298
1.714764 6.9231958 -0.37027901
1.686114 6.8415461 -0.28456599
1.6839041 6.8668718 -0.19459701
1.650103 6.7630062 -0.091443002
1.575627 6.490469 0.016008999
1.655821 6.8555598 0.135929
1.564595 6.5109668 0.25050101
1.580474 6.6108112 0.38489899
1.576202 6.626996 0.52415502
1.5704269 6.6369262 0.66975999
1.661593 7.0587659 0.87255198
2.3742931 10.139275 1.492727
2.3500021 10.088276 1.730951
2.3486011 10.135492 1.991863
2.2338841 9.6916342 2.152436
2.2591839 9.8536425 2.4459391
2.1707909 9.5183678 2.615299
1.72798 7.6175299 2.297713
2.1719661 9.5747728 2.8880861
2.1684649 9.6111069 3.159873
2.2832351 10.174787 3.6221621
2.205056 9.8800621 3.786154
2.268887 10.221934 4.1955471
2.3099191 10.4642 4.5779028
2.1494119 9.7910604 4.543921
1.972844 9.0368929 4.4303479
1.849334 8.5665236 4.6305909
2.100049 9.7830067 5.521029
1.594241 7.5548792 4.7455411
1.808103 9.4921865 5.9388642
1.519865 8.0810061 4.719821
1.532445 8.2003508 4.6031122
1.199266 6.4589701 3.4710751
2.0586159 11.159475 5.7202702
1.749065 9.5435247 4.6472001
1.775388 9.7509661 4.4927258
1.777958 9.8954668 4.028543
1.659815 9.2999296 3.5332291
1.326218 7.4810519 2.639102
1.254477 7.1244702 2.32005
1.713262 9.9325027 2.4386489
1.588115 9.2712078 2.035676
1.544451 9.143898 1.549648
1.490252 8.8858051 1.291521
1.473581 8.8494415 1.079461
1.303179 7.8825712 0.78459603
1.2660609 7.7136831 0.60149002
1.2006 7.4778261 0.14596801
1.207718 7.5783482 0.018394001
1.359223 8.7915688 -0.46183801
0.84935999 5.8059459 -0.51154202
1.1065691 8.1585884 -0.10815
1.076403 8.0059385 0.019362001
1.0739011 8.0582466 0.156682
1.069497 8.0969601 0.30552801
1.0793591 8.2453308 0.47088999
1.045499 8.0594463 0.62535
1.148261 9.0156174 1.093557
1.2276599 10.106949 2.463341
1.148052 9.5432749 2.5749321
1.375347 11.898447 4.4797678
1.012471 8.9411612 3.8440549
1.1561019 10.316668 4.705761
1.425862 13.281183 7.3703899
0.82388502 8.117938 5.2929549
0.70478201 8.1704063 5.3196211
0.815139 10.136878 5.611371
0.97680998 12.326438 6.5333762
0.78004497 10.298919 4.6818151
0.869555 11.846073 4.7594161
0.65965998 9.1317987 3.424283
0.700059 9.8503647 3.4302089
0.64853299 9.43505 2.7819769
0.65288401 9.6624956 2.5943389
0.54896402 9.0628986 1.092482
0.61592603 10.367761 1.019935
0.50865698 8.7333393 0.67314702
0.53951597 9.4524479 0.53613299
0.49950999 8.9337883 0.33472401
0.28568599 6.2879071 -0.484337
0.232144 5.6926589 -0.49669099
0.27607399 9.8633051 0.190173
0.26086199 10.163366 0.57570899
0.23576801 9.6216612 0.74058402
0.243577 10.434949 1.025017
0.12750401 9.8823442 3.1696451
0.094100997 9.9847898 4.001019
0.0845 10.222864 4.3673339
0.051789001 8.7084475 4.1711621
0.051989 10.857404 5.4731479
0.025102001 10.164315 5.6084719
-0.0085349996 8.4701204 5.2058001
-0.244307 10.097475 5.573205
-0.35126099 11.274678 4.5198832
-0.48356801 13.084402 3.507508
-0.50335097 12.099614 2.0236731
-0.718198 14.111695 0.033868
-0.41041601 7.2375331 -0.44815901
-0.35241401 5.9699292 -0.46017
-0.34755 5.4572039 -0.47671601
-0.89687097 8.1194162 5.5128689
-0.97871298 8.1639261 5.6297121
-1.3833899 10.696908 5.9514828
-1.103636 6.7887459 -0.42520499
-0.94671398 5.7392468 -0.447588
-0.88539302 5.2163248 -0.46125701
-1.099664 6.3010211 -0.449016
-1.719323 6.3197961 -0.40490499
-1.463446 5.3304172 -0.42533901
-1.369189 4.8979349 -0.44336599
-1.6918859 5.945756 -0.43395999
-1.204716 -3.517447 2.13415
-1.247457 -3.6560211 2.2983429
-1.229455 -3.616914 2.347899
-1.1547821 -3.4101501 2.27705
-1.185029 -3.5128291 2.40485
-1.184392 -3.5378871 2.5178511
-1.155583 -3.5607791 2.5631721
-1.0274841 -3.1911471 2.222014
-1.042748 -3.251415 2.214922
-1.067511 -3.341886 2.2187879
-1.093899 -3.438201 2.2175181
-1.090883 -3.4424701 2.1485291
-1.12429 -3.562166 2.1441059
-0.96728498 -3.0771019 1.779793
-1.117712 -3.570034 1.976597
-1.119387 -3.6491549 1.52944
-0.96488303 -3.1584761 1.235194
-0.97769099 -3.213691 1.166809
-0.93680501 -3.0921121 1.036189
-0.97541201 -3.2329869 0.99336201
-1.544311 -5.1185899 1.572729
-0.88190198 -2.935312 0.82104897
-1.214119 -4.0580511 1.0248441
-2.033746 -6.7975612 1.716696
-0.91318297 -3.0780859 0.61468899
-0.88470203 -2.994755 0.52182299
-0.98499 -3.348455 0.500319
-1.030936 -3.5196691 0.441293
-0.99421799 -3.4088941 0.34870899
-1.0135241 -3.4900701 0.27964699
-0.84917301 -2.9367981 0.173114
-0.91898 -3.192023 0.12426
-0.90418899 -3.154357 0.063243002
-0.84198201 -2.9501929 0.0073540001
-1.1246589 -3.9579599 -0.054049
-0.85117799 -3.008733 -0.086060002
-0.84489697 -2.9997449 -0.12586001
-0.92565203 -3.3010571 -0.177985
-0.86603397 -3.102236 -0.19912
-0.80134201 -2.8963039 -0.231236
-0.84972501 -3.1273241 -0.28252101
-0.82429802 -3.090075 -0.224508
-0.80939102 -3.0625851 -0.164453
-0.80526698 -3.0612791 -0.127837
-1.043365 -3.9851191 -0.11338
-1.52695 -5.859798 -0.079543002
-1.818801 -7.0129662 0.017364999
-0.82659501 -3.2024269 0.063744001
-1.128947 -4.3738108 0.087061003
-0.76678199 -2.984931 0.115288
-1.0593981 -4.1438708 0.242201
-1.282703 -5.017334 0.293253
-0.82430601 -3.2399001 0.25724399
-0.74503601 -2.942544 0.29808399
-1.016669 -4.015367 0.406762
-0.78086603 -3.0990851 0.38454899
-0.84599 -3.3740001 0.49861601
-0.85243899 -3.416434 0.58841097
-0.697469 -2.8091409 0.554142
-0.72975099 -2.953753 0.65846401
-1.078334 -4.3646851 0.972996
-1.370611 -5.5753422 1.3891129
-0.86458898 -3.534492 0.97475302
-1.267161 -5.1802301 1.42862
-0.87868899 -3.610184 1.09298
-0.79271501 -3.2734101 1.080165
-1.030059 -4.25349 1.403574
-0.773794 -3.2114811 1.14745
-0.93998998 -3.9211121 1.508086
-1.012798 -4.2464728 1.7492599
-0.90062499 -3.795562 1.666478
-0.868828 -3.6804619 1.714188
-0.78827798 -3.3565869 1.651445
-0.927176 -3.968612 2.0544
-0.71335298 -3.0693669 1.664995
-0.82931101 -3.587101 2.0314951
-0.82864398 -3.6031621 2.1222019
-0.85194302 -3.744051 2.359942
-0.725097 -3.523597 2.140348
-0.77563298 -3.8137791 2.1474421
-0.66264898 -3.277606 1.766838
-0.76183099 -3.790731 1.949069
-0.67782301 -3.413501 1.5775321
-0.83014703 -4.2060428 1.831475
-0.79499602 -4.0525632 1.654786
-0.93157703 -4.80756 1.700995
-1.045292 -5.427947 1.77279
-1.009114 -5.2728519 1.579219
-1.045277 -5.4962192 1.498745
-1.069226 -5.6577182 1.393111
-0.59365702 -3.161278 0.69611502
-0.731794 -3.9218531 0.76380098
-0.59999299 -3.236212 0.550008
-0.62423098 -3.3887651 0.49393401
-0.64772499 -3.5392649 0.43293101
-0.61971998 -3.4084549 0.340206
-0.69773901 -3.8628869 0.30204901
-0.61292303 -3.4158871 0.19652
-1.162896 -6.480947 0.372857
-0.58673298 -3.29178 0.125082
-0.67822403 -3.8307011 0.074979
-0.95066398 -5.3694792 0.105097
-0.70925802 -4.0330982 0.009815
-0.62970197 -3.605103 -0.048071999
-0.64978498 -3.745616 -0.104631
-0.64755499 -3.7585149 -0.154026
-0.66561198 -3.890152 -0.20489199
-0.65790099 -3.8720069 -0.242807
-0.61368698 -3.6629691 -0.28578401
-0.58521402 -3.5948629 -0.31752101
-0.57372099 -3.6298959 -0.257981
-0.58209401 -3.738863 -0.19644199
-0.62034601 -4.015048 -0.16407301
-0.763385 -4.97891 -0.13863701
-0.593768 -3.90275 -0.051855002
-0.53557497 -3.547792 0.0086000003
-0.48872501 -3.26299 0.063589998
-0.490731 -3.302403 0.124895
-0.51123399 -3.4679041 0.19849899
-0.50365502 -3.4440789 0.26783201
-0.50075698 -3.45209 0.34255201
-0.499405 -3.470963 0.42194101
-0.46399099 -3.2514889 0.47080499
-0.45443699 -3.2110341 0.54193199
-0.48377401 -3.447 0.666399
-0.478259 -3.4365561 0.75089902
-0.79727799 -5.7288852 1.25178
-0.76621902 -5.5526519 1.35619
-0.72658402 -5.310534 1.435866
-0.737198 -5.4348578 1.613366
-3.0993941 -23.460201 8.8505888
-2.16488 -23.451632 10.675695
-2.0476041 -23.360989 8.1456814
-2.022085 -23.380363 7.5263429
-0.65368998 -7.661387 2.261873
-0.48262599 -5.7348061 1.5416991
-0.64633697 -7.6800971 2.0646551
-0.48981699 -5.901835 1.432853
-0.63717198 -7.6773262 1.863909
-0.258827 -3.1629591 0.68680799
-0.46703699 -5.7073541 1.2393
-0.31548801 -3.9110341 0.751203
-0.31400701 -3.949599 0.66208601
-0.497549 -6.2582021 1.049086
-0.30035499 -3.8339441 0.55125898
-0.43510899 -5.554038 0.798581
-0.27808601 -3.6032181 0.43484199
-0.29381299 -3.8652029 0.38066801
-0.287873 -3.8458409 0.29675499
-0.26450899 -3.5895009 0.203813
-0.40164301 -5.4504662 0.309479
-0.286331 -3.947861 0.148073
-0.27265599 -3.8205719 0.073821999
-0.36916399 -5.1728811 0.099951997
-0.25407499 -3.619082 0.0086960001
-0.25049201 -3.6280489 -0.047770001
-0.35724601 -5.1742349 -0.068129003
-0.26957899 -3.971354 -0.109556
-0.254897 -3.820385 -0.154631
-0.25603399 -3.9053459 -0.203182
-0.235467 -3.656431 -0.22651701
-0.2177 -3.5068631 -0.270363
-0.22896101 -3.9862859 -0.34809199
-0.209548 -3.9686911 -0.27898899
-0.20396701 -4.0404072 -0.210025
-0.19369499 -3.927021 -0.158787
-0.18149699 -3.768203 -0.103833
-0.17291699 -3.6786201 -0.048374001
-0.182146 -3.972815 0.0095319999
-0.17015199 -3.807492 0.073455997
-0.15106601 -3.470284 0.129942
-0.15351699 -3.6229401 0.20534
-0.16287901 -3.9519529 0.304351
-0.1583 -3.9518061 0.38838899
-0.20631599 -5.3037052 0.63864499
-0.208992 -5.537416 0.79432398
-0.28959501 -7.6730499 1.100674
-0.28289399 -7.7325349 1.293021
-0.27471599 -7.7542162 1.4854831
-0.212597 -6.2036572 1.343369
-0.181935 -5.49437 1.3300869
-0.74818999 -23.409225 6.2741818
-0.72284198 -23.465223 6.905839
-0.69746798 -23.525866 7.5483308
-0.617019 -23.571447 9.448163
0.13582499 -5.2545171 0.75345802
0.14943101 -5.5330591 0.66600198
0.138097 -4.9034591 0.48172301
0.16931701 -5.5555158 0.31473699
0.247105 -7.5355492 0.14531299
0.28092501 -4.9185591 -0.064714
0.32525 -5.4723248 0.105656
0.46908799 -7.7413759 0.29012701
0.31723899 -4.9509821 0.487196
0.507164 -7.7742801 0.93742001
0.86265898 -9.5006294 6.1881752
0.99306703 -9.3723116 6.1136189
0.77725202 -7.255569 4.6150351
0.64624202 -5.7803149 3.209327
0.99936497 -7.6551309 1.1066329
1.00876 -7.6581321 0.929416
1.021868 -7.6890831 0.76172602
1.031985 -7.6971698 0.59757698
1.038274 -7.6766949 0.438665
1.052806 -7.7170682 0.29135999
1.0603631 -7.7059431 0.149919
1.069315 -7.705132 0.018645
1.0786721 -7.707211 -0.102226
1.0890779 -7.7165742 -0.214489
1.098772 -7.72085 -0.314951
1.107237 -7.7164679 -0.404704
1.118101 -7.728632 -0.48277599
1.13577 -7.7248712 -0.60079902
1.174507 -7.7396989 -0.68246198
1.211695 -7.7434821 -0.55020601
1.228755 -7.7354679 -0.40662199
1.245129 -7.7805772 -0.31821999
1.252906 -7.7716732 -0.216663
1.263219 -7.7784138 -0.103513
1.276016 -7.8002968 0.018944999
1.281707 -7.7786479 0.151942
1.293131 -7.7919011 0.295472
1.3063819 -7.8158798 0.448728
1.314136 -7.8067641 0.60916197
1.326859 -7.8271441 0.77961099
1.33588 -7.8255348 0.95521998
1.248829 -6.7065749 3.09231
2.314512 -12.271721 6.2950878
1.531988 -7.9212208 4.800189
1.770076 -9.1522675 5.5461922
1.640589 -8.3276043 5.5057402
1.232602 -6.1812501 4.253664
1.362929 -6.8348169 4.7034202
2.044101 -10.00896 7.147964
1.851715 -8.8576756 6.1957908
1.785722 -8.348937 5.3997092
1.449643 -6.6644578 3.9148481
1.978013 -8.9438915 4.6174479
5.4127049 -23.948271 9.8379622
5.4735122 -23.959297 8.5368052
5.495769 -23.929237 7.8741822
1.910735 -7.9802542 0.98735499
1.91617 -7.9622822 0.80423999
1.934797 -7.9990039 0.63325202
1.939683 -7.938756 0.30571499
1.952022 -7.9493198 0.15776099
1.969718 -7.9815202 0.019704999
1.968191 -7.9358692 -0.107401
1.98357 -7.9584241 -0.225742
1.987048 -7.93327 -0.33028501
1.997111 -7.934505 -0.424768
2.003458 -7.9209599 -0.50511301
2.014235 -7.8867888 -0.62634701
2.045747 -7.8582811 -0.70790899
2.079227 -7.8379469 -0.56925303
2.099179 -7.839901 -0.42134601
2.11092 -7.8474202 -0.32818699
2.1300459 -7.8821712 -0.22472399
2.138226 -7.876214 -0.107204
2.151984 -7.8907928 0.019603999
2.155442 -7.867568 0.157222
2.169261 -7.8822289 0.30582699
2.180934 -7.8889742 0.46348399
2.190846 -7.889246 0.63002998
2.1983149 -7.8807812 0.80345798
2.2131441 -7.8986368 0.98699701
6.8324132 -23.749376 6.6201458
6.9597988 -24.087393 7.3754282
6.9933391 -24.09889 8.0476437
7.0405221 -24.157173 8.740242
7.0777578 -24.180899 9.4233475
1.662411 -5.5601621 2.9254041
2.639292 -8.8274736 4.6444559
2.1364801 -7.08601 4.0837641
2.443316 -8.1036863 4.6702652
2.948818 -9.6990709 6.031426
2.9179721 -9.5579205 6.1420279
3.2789431 -10.69603 7.0754251
3.4262071 -10.521853 6.998455
3.166857 -9.612052 5.8090482
3.1403911 -9.49475 5.5181298
1.87972 -5.6394272 2.996525
2.6003211 -7.8013349 4.1452599
2.9255891 -8.7434988 4.4160929
2.903121 -8.3542023 1.914052
2.912823 -8.3509493 1.693262
2.9218149 -8.3457088 1.477621
2.931201 -8.3416052 1.267399
2.933784 -8.3181734 1.0613019
2.9427919 -8.3130817 0.86600697
2.949507 -8.3015509 0.677903
2.969146 -8.3262787 0.50057203
2.9760621 -8.3152962 0.33038801
2.9757221 -8.2841244 0.169651
2.989907 -8.2934828 0.021131
2.997195 -8.2836914 -0.115715
2.994297 -8.2458506 -0.24145199
3.0090129 -8.256628 -0.3549
3.0166049 -8.2478275 -0.45592701
3.035795 -8.2706242 -0.54466498
3.0458319 -8.2390633 -0.67590898
3.0813301 -8.2180328 -0.76514202
3.124496 -8.2173967 -0.61715198
3.1559141 -8.2426033 -0.45820799
3.1642489 -8.2358646 -0.35631299
3.1866529 -8.2656422 -0.243818
3.194984 -8.25877 -0.116319
3.2058761 -8.2585583 0.021234
3.2304449 -8.293395 0.17153899
3.2419989 -8.2947092 0.33315399
3.271251 -8.341114 0.50735599
3.2720881 -8.3149338 0.68756998
3.291718 -8.3365412 0.88017797
3.306638 -8.3460846 1.0801769
3.3250639 -8.3643208 1.290244
3.3377199 -8.3679819 1.505475
3.350415 -8.3716888 1.726357
3.3590109 -8.3651018 1.950856
3.8604259 -9.5500565 2.759429
3.633585 -8.9293547 3.0917709
3.6244941 -8.8775949 3.3307879
3.8255379 -9.2778673 4.2871919
3.81972 -9.2334433 4.52947
3.823015 -9.2111979 4.776793
3.7861259 -9.0926027 4.9649501
2.657373 -6.3610988 3.6425259
3.728554 -8.8962631 5.3224692
3.4994471 -8.322608 5.1822939
3.4661541 -8.2167873 5.3058748
2.327585 -5.4999518 3.6705551
3.385128 -7.9731631 5.4782829
3.3457651 -7.8551512 5.5383921
3.336355 -7.7830791 5.7148118
3.3230219 -7.653945 5.8385358
4.4969721 -10.228094 7.6499681
2.2680089 -5.1262178 3.7153261
2.314914 -5.2159219 3.701694
4.456573 -10.010234 6.9300361
10.99376 -23.944351 10.557305
4.2549791 -9.23913 3.8043699
4.2644792 -9.2316093 3.5322559
4.2690811 -9.2135696 3.2566819
4.2648621 -9.1766291 2.9766991
4.2709689 -9.161994 2.707936
4.2872238 -9.1691608 2.4489961
4.284431 -9.1356392 2.1837411
4.2905488 -9.1211939 1.929811
4.2860699 -9.0843811 1.678538
4.2993698 -9.085331 1.440794
4.2891302 -9.0366135 1.203582
4.2734971 -8.9768629 0.97634703
4.2806249 -8.9651079 0.76444399
4.297668 -8.9740601 0.56344002
4.2976499 -8.9474468 0.37132201
4.3171639 -8.9614697 0.191715
4.3217902 -8.944603 0.023810999
4.340054 -8.9559498 -0.13072801
4.1787329 -8.5976696 -0.26310399
4.3536539 -8.931283 -0.401265
4.3239422 -8.844347 -0.51109099
4.2043171 -8.5744848 -0.590388
4.1941481 -8.503933 -0.72961301
4.3526988 -8.7233858 -0.84990698
4.2266941 -8.3736429 -0.65846801
4.220047 -8.3125935 -0.48397499
4.041502 -7.9381409 -0.359743
4.3192759 -8.4595222 -0.261426
4.6887288 -9.002326 0.996773
4.6814919 -8.9631157 1.216723
4.7008591 -8.9748545 1.452288
4.7126451 -8.9720984 1.693536
4.7319269 -8.9835567 1.9439141
4.7338128 -8.9619532 2.193471
4.7547269 -8.9763966 2.4576969
4.786768 -9.0118046 2.7335529
4.7775612 -8.9693956 2.989398
3.646158 -6.6766529 4.0195332
3.6197481 -6.2114449 3.96685
5.0217471 -8.5943756 5.2594032
5.0235271 -8.5745897 5.0095129
4.693635 -7.990284 4.4385562
5.334096 -8.985033 3.908061
5.9881468 -9.7747164 0.88205701
8.7885141 -14.30862 0.95088297
5.361773 -8.6172371 -0.27933699
5.3069968 -8.5072336 -0.40493801
5.260004 -8.4102097 -0.514979
5.5441012 -8.8416414 -0.64518201
5.6645408 -8.987422 -0.81745797
5.5863199 -8.7729416 -0.90670699
5.6915751 -8.8475246 -0.738509
5.4570551 -8.439929 -0.52177101
5.525703 -8.5244455 -0.41026399
9.4455881 -14.352141 0.97293198
9.4939194 -14.389232 1.3265001
5.6504178 -8.1069708 6.0734339
5.4297299 -7.7711482 5.995697
4.5988712 -6.5657821 5.1998959
4.8083072 -6.7642832 5.807004
5.450346 -7.5557709 6.1749001
6.4988799 -8.987401 7.1944141
5.7875981 -7.9842782 6.2367649
6.2688971 -8.4817638 4.780901
11.0358 -14.401141 1.396085
7.1197419 -9.2022667 0.027888
7.1199899 -9.1806107 -0.15261
6.6754098 -8.5663118 -0.43859199
6.6848459 -8.557971 -0.56376499
6.6786962 -8.5297003 -0.66974002
6.8104162 -8.6565657 -0.84753299
6.8180962 -8.5841846 -0.95569003
6.7595582 -8.4300194 -0.75853699
6.825458 -8.4719162 -0.56480199
6.9788809 -8.6418552 -0.44859901
7.3870382 -9.1040421 -0.154002
7.6196599 -9.3685493 0.028945001
11.791427 -14.39538 1.053722
6.8993592 -8.1117449 4.8271408
5.8265409 -6.8023801 4.7324352
5.9843102 -6.9376221 5.451088
5.4493322 -6.099906 5.4213381
7.889667 -8.7293396 6.7539091
5.970058 -6.5900621 4.906507
7.0338259 -7.7462649 5.5284929
10.597757 -11.644032 7.936718
13.181377 -14.21593 5.7027988
8.3575611 -8.6850548 -0.486772
8.307704 -8.6132679 -0.62126201
8.3941793 -8.6827602 -0.74662399
8.4617424 -8.7121944 -0.93453401
8.5332851 -8.7047939 -1.062688
8.6031427 -8.6951284 -0.85867703
8.6384907 -8.6904945 -0.636141
9.2617483 -9.2959595 -0.52995002
9.4001598 -9.4130659 -0.36613899
9.541851 -9.5328283 -0.17717201
14.051578 -13.876642 1.519605
13.586574 -13.355441 2.2923601
10.972246 -10.416832 7.6265769
6.6355691 -6.2268839 5.5927529
6.8240609 -6.1984258 6.110261
10.814303 -9.6637354 7.662993
10.745561 -9.468605 5.3565941
10.220632 -8.5931234 -0.693223
10.276095 -8.6194057 -0.829184
10.887624 -9.0039816 -1.231697
10.788702 -8.8381968 -0.97905397
10.636229 -8.6721163 -0.712457
7.1051211 -5.3928542 5.4822698
13.079987 -8.848321 -0.81982899
12.942056 -7.221396 3.9701729
17.14143 -9.3054476 0.72963399
8.3422174 -3.9087059 5.975935
8.4029903 -3.9134171 6.2557502
8.2651873 -3.8026111 6.3659768
8.3487406 -3.7941689 6.2788382
8.3447208 -3.7689781 6.0688272
8.3819103 -3.7740669 5.9628739
10.974671 -3.933156 5.2845888
10.772447 -3.8465719 5.478754
10.922673 -3.8859379 5.8440561
8.3194599 -2.9489341 4.6637602
8.1122141 -2.8648739 4.7470798
11.13539 -3.9180069 6.7758131
7.961678 -2.790946 5.0195408
7.8396349 -2.7379589 5.1036949
7.8329148 -2.725425 5.2452331
8.117012 -2.8137131 5.5726771
8.0536156 -2.7708299 5.747817
7.9927878 -2.708477 5.9050388
8.1502256 -2.719732 5.8828092
8.0536985 -2.6667631 5.6229868
7.6733141 -2.5309391 5.2412548
7.6904669 -2.5267119 5.1196208
7.9666009 -2.6071911 5.1518679
7.7720499 -2.5335469 4.8635912
8.0327463 -2.608228 4.8477602
8.1682701 -2.6417511 4.7369342
8.2516832 -2.6581621 4.5806041
10.760138 -3.4524381 5.696413
10.591631 -3.38483 5.3258352
11.206209 -3.5669169 5.3308291
12.221641 -3.8745029 5.4771409
12.131377 -3.8304119 5.0975151
14.454727 -3.6753211 3.6085889
13.549098 -3.3769469 4.8503299
8.8145657 -2.186069 3.3966081
8.639987 -2.1321249 3.5658431
8.8655376 -2.176882 3.8998401
12.144656 -2.9521821 5.9863272
10.951643 -2.6487319 5.6797581
9.9656916 -2.3980429 5.415905
9.3834896 -2.246424 5.3239179
9.4036694 -2.239728 5.5486889
9.2491951 -2.1802649 5.8404241
6.7875671 -1.591692 4.409246
6.7371101 -1.5716079 4.4875288
6.5614362 -1.51459 4.5445509
6.554203 -1.4809099 4.701673
6.6161828 -1.4626811 4.6393571
9.2455578 -2.0214779 6.272686
6.7518468 -1.468043 4.4820871
9.3122692 -2.0134449 6.025631
9.2062712 -1.979339 5.787539
9.3486662 -1.998615 5.6878252
9.46562 -2.0121419 5.5546632
10.94005 -2.3122921 6.1698508
6.4176888 -1.348672 3.4650021
9.8588581 -2.071831 5.322938
9.0048456 -1.8814451 4.6372542
8.803854 -1.8287981 4.3068032
8.7921753 -1.815738 4.0695462
9.0189362 -1.851652 3.933233
8.7594376 -1.787791 3.5822091
12.512779 -2.5085111 4.0928402
13.128704 -2.6161561 3.9378891
13.236113 -2.621582 3.614635
9.4046278 -1.3461649 2.7946761
9.3108549 -1.3217 3.0160339
9.4577627 -1.297772 4.0781951
6.3974309 -0.85514402 3.2535501
6.4528518 -0.85492998 3.439307
6.1496611 -0.80748802 3.4223809
6.0872941 -0.79211301 3.523562
6.1112719 -0.78801 3.666101
6.528276 -0.83407801 4.0449419
6.594532 -0.83476502 4.20399
6.4280338 -0.806099 4.2023649
6.3635421 -0.78301102 4.3269448
6.4579639 -0.73379099 4.4500999
6.372232 -0.709059 4.2495599
6.523695 -0.71824801 4.2573299
6.5290942 -0.711173 4.1537461
6.5299158 -0.70358402 4.0365639
6.922761 -0.73778403 4.1421309
6.127224 -0.64580899 3.536505
6.4224472 -0.669379 3.5629671
6.1750369 -0.63634801 3.2800021
6.8759379 -0.70050102 3.4840169
7.0773702 -0.71272302 3.406996
9.3970022 -0.91326302 3.7830589
11.769288 -1.116225 4.106473
11.954303 -1.119773 3.850666
6.7564931 -0.27026799 1.636035
6.7227101 -0.26117101 1.802272
12.327583 -0.46458399 3.6288741
12.113777 -0.44242799 3.8876181
12.209376 -0.41754001 4.569097
11.612627 -0.38361999 4.6556439
10.747781 -0.33007401 4.874207
10.814293 -0.319536 5.1819868
6.865901 -0.194894 3.4624109
7.0035472 -0.19066601 3.7018571
7.045845 -0.183622 3.8890691
6.2537599 -0.155716 3.5907681
6.3568778 -0.15089101 3.783191
6.4919372 -0.146557 3.991009
5.9552979 -0.127527 3.7672889
6.8551841 -0.146797 4.3365512
6.0811491 -0.12315 3.9454989
5.7930732 -0.103863 3.9101939
7.842052 -0.104156 5.4876742
5.7335882 -0.049518999 3.925827
5.8896489 -0.037184 3.903717
6.0529518 -0.031189 3.9264519
5.939713 -0.023711 3.756598
6.6225939 -0.026436999 4.188489
6.3853679 -0.018068001 3.92451
6.3913169 -0.010666 3.8026209
6.3701782 -0.003237 3.6564801
6.805706 0.0044519999 3.7552459
7.2660761 0.013187 3.839205
10.60388 0.031569999 5.3453112
10.900991 0.045107 5.2212968
10.932121 0.057925999 4.9555402
6.5042081 0.042024001 2.778641
11.556394 0.074666001 4.9369688
6.3490758 0.048390999 2.5441079
6.339829 0.055679999 2.3712499
6.5771661 0.065410003 2.2847281
6.7475891 0.082771003 1.9850301
6.4915061 0.087176003 1.739134
6.5551438 0.095641002 1.58618
6.5788622 0.103625 1.4239579
6.6973882 0.113278 1.2824039
11.863982 0.66978902 0.91435599
11.736935 0.68995398 1.414672
11.693267 0.70102602 1.679177
9.3555756 0.57177699 1.566294
6.5805039 0.409843 1.262284
6.336277 0.402026 1.3740391
6.2851672 0.40610799 1.523862
6.1282148 0.403047 1.645203
6.214221 0.41595501 1.832075
5.9262662 0.40360701 1.9050241
6.3044968 0.43672499 2.1951499
6.900878 0.486094 2.5873921
6.1274981 0.43878201 2.4615359
6.18085 0.449821 2.647429
6.2728262 0.463842 2.8512011
6.4960151 0.48794499 3.1201639
7.4142532 0.55691803 3.5612121
6.579875 0.50193202 3.3264711
7.369638 0.56217802 3.725738
6.5471029 0.50708401 3.4696729
6.7856431 0.53350198 3.755729
6.2894802 0.501845 3.6216321
6.1066499 0.494407 3.6451371
6.0175338 0.49423 3.7108741
8.0622177 0.69990999 5.4614048
6.7534828 0.61795002 4.745244
7.028986 0.67612302 4.8348298
7.9741631 0.78575701 5.3108449
6.5456371 0.66804802 4.0438938
6.3575392 0.65631402 3.8026209
6.365068 0.66456598 3.6734049
6.4929399 0.68555403 3.602582
6.5234518 0.69643998 3.466403
6.8547478 0.73987597 3.4754651
6.7251248 0.73378998 3.2402539
6.4955711 0.71638 2.96226
6.3153372 0.70393997 2.714606
6.6322069 0.74706203 2.674289
6.257524 0.71222103 2.3554859
6.3382902 0.72888398 2.21615
5.9201741 0.68777198 1.911438
6.7582111 0.78513002 2.182013
6.0475211 0.70968801 1.791155
6.0258598 0.71425402 1.625538
6.1445718 0.73556501 1.497288
6.1245909 0.74039203 1.335119
6.40136 0.781407 1.234643
8.853322 1.091156 1.490642
8.4989185 1.057502 1.227669
9.6943855 1.206251 1.400354
9.5436277 1.198769 1.1573499
8.4010086 1.065161 0.83160502
6.5906129 0.84340298 0.51126599
7.7451601 1.0003099 0.44222599
7.3347902 0.955975 0.27670601
6.8388271 0.89942598 0.13294201
7.2623162 0.96370697 0.01756
7.9483008 1.054737 0.019218
7.2536492 0.97113401 -0.096132003
7.4148378 1.001497 -0.205933
8.5966549 1.161121 -0.238755
9.0605173 1.245217 -0.47479901
8.2600965 1.145005 -0.51554102
9.2291336 1.344997 -0.81308299
8.6313362 1.298883 -0.61273998
7.1038041 1.085911 -0.37307799
7.074708 1.0898761 -0.289085
8.6123018 1.326746 -0.35191399
7.205924 1.118662 -0.20070501
6.7710609 1.059222 -0.090024002
7.7145038 1.206808 -0.102568
6.621232 1.043666 0.016066
6.2495012 0.99252498 0.121958
7.0394521 1.117982 0.137374
6.342824 1.014902 0.24029601
6.211731 1.0013289 0.356291
6.2513852 1.015185 0.48732901
8.1411076 1.331773 0.81010401
6.8720918 1.1323791 0.838027
6.706759 1.113151 0.97452998
6.8049049 1.137566 1.152923
6.7429128 1.135258 1.309105
6.0438209 1.024788 1.326658
6.009131 1.02609 1.474948
6.111661 1.050835 1.661247
6.3088708 1.092284 1.883436
6.0562391 1.055797 1.971599
6.3444681 1.113634 2.237478
6.1658521 1.08966 2.3418241
6.176147 1.098884 2.5136089
6.1209288 1.096391 2.6564641
6.349668 1.144971 2.92469
6.54357 1.18779 3.1853931
6.1375141 1.121443 3.1450679
6.3192549 1.162232 3.3949261
6.2520709 1.15739 3.5083749
6.2265949 1.1601501 3.635571
6.798768 1.274937 4.1155429
6.8087449 1.284991 4.2585769
6.806078 1.29267 4.3814511
7.6936831 1.461252 4.9528508
7.7154341 1.474676 5.095408
6.9921489 1.353265 4.8063502
6.8586292 1.360513 4.8925829
7.0736489 1.437343 4.9421701
7.3856578 1.518616 4.9975972
7.6791492 1.588255 5.0867009
6.5069928 1.3537 4.2034559
6.612772 1.383726 4.1522832
6.3064508 1.327271 3.834322
6.159121 1.303731 3.613667
5.9577398 1.2683409 3.3610251
5.8644009 1.255587 3.1688161
6.0329952 1.299019 3.110858
6.0274048 1.305138 2.9538529
6.2117901 1.352613 2.881752
5.9414768 1.300988 2.5983219
5.8290501 1.283462 2.3916099
5.6926908 1.260368 2.180681
5.8311219 1.298128 2.075057
5.6515932 1.265048 1.857383
5.96664 1.3428431 1.799057
5.8298559 1.31918 1.6012141
5.804903 1.320618 1.440379
5.851912 1.3384579 1.299161
6.524158 1.5001971 1.281652
5.9215651 1.368873 1.015627
5.6597862 1.315281 0.832919
6.0212731 1.406665 0.74401098
5.7133379 1.341722 0.57632798
5.728159 1.3522201 0.45288199
4.9853559 1.182989 0.290144
5.6368208 1.3444901 0.216782
5.6809292 1.361991 0.112593
5.5442791 1.336037 0.013669
5.4470239 1.3192919 -0.073619001
5.1097832 1.2438999 -0.14474399
5.3108959 1.29939 -0.220809
5.5373702 1.361614 -0.29603601
5.722589 1.414215 -0.36442599
5.7549181 1.436388 -0.456411
5.893033 1.499979 -0.530128
5.7654028 1.496039 -0.418134
5.5355039 1.450117 -0.29707301
5.0555511 1.330658 -0.211124
5.0098209 1.324841 -0.142626
5.8427668 1.552381 -0.079411
5.3380752 1.424924 0.013243
5.333508 1.430348 0.106427
5.0415692 1.35833 0.195324
5.2821598 1.429729 0.30987501
5.3532209 1.455644 0.42687401
5.6143031 1.533638 0.57153898
5.3004088 1.454506 0.66134298
6.1217518 1.687547 0.91025198
5.782207 1.601171 1.002606
5.965076 1.6592669 1.185378
5.6413188 1.5762759 1.267644
5.5258751 1.550936 1.388643
5.6284299 1.5867079 1.56654
5.6232891 1.5923131 1.719193
5.4734278 1.556758 1.825012
5.6250882 1.6069601 2.032073
5.5575829 1.594662 2.1624651
5.854775 1.6873111 2.4414511
5.6145191 1.625137 2.4969659
5.9891748 1.7411259 2.827255
5.7259908 1.6718431 2.857091
6.3246431 1.854611 3.3224199
5.8454661 1.721477 3.2197371
6.0107298 1.7777489 3.4586141
6.0466409 1.796012 3.6206369
5.8825302 1.754716 3.6522951
5.965858 1.787123 3.8276401
5.9752769 1.7975121 3.946352
7.4359498 2.246356 5.0388098
7.023715 2.1396451 4.9551492
7.6380029 2.3656471 5.594882
6.9307108 2.181946 4.974937
7.2814269 2.310981 5.0633411
5.9063802 1.882125 4.0211439
5.9092231 1.890596 3.923903
6.042129 1.94087 3.900423
5.9674888 1.924545 3.730526
5.9341712 1.921414 3.580313
6.025177 1.9586281 3.4958141
5.6744652 1.851912 3.1538661
5.4249401 1.777464 2.8776901
5.5344582 1.82047 2.790566
5.6734819 1.873507 2.7083521
5.648448 1.8725311 2.5421441
5.468637 1.819976 2.309411
5.4767761 1.8297549 2.159663
5.6888881 1.90798 2.084244
5.561811 1.872552 1.88212
5.540349 1.8724951 1.720322
5.5295429 1.876013 1.564211
5.4872499 1.868777 1.402517
5.3991222 1.8457659 1.234858
5.4995899 1.887261 1.1131721
5.4181051 1.8663369 0.95761001
5.4672809 1.890385 0.82923001
4.9402032 1.714578 0.62920702
5.7526188 2.0040319 0.59821999
5.903976 2.064455 0.48126799
4.9166169 1.725624 0.29506299
4.972765 1.7518229 0.19723099
5.0081539 1.770842 0.10238
5.3198881 1.888025 0.01353
5.2814531 1.881296 -0.073645003
5.1666479 1.847178 -0.151017
5.574172 2.0001831 -0.239169
5.4119768 1.949083 -0.29862899
6.3393421 2.283066 -0.34979999
5.1889 1.875566 -0.341102
5.789968 2.1080501 -0.47413301
5.0024419 1.8477139 -0.46490401
5.6160288 2.1040709 -0.42100501
5.0324569 1.898789 -0.279239
4.9366708 1.869203 -0.213182
4.8553529 1.844865 -0.142956
5.098475 1.944034 -0.071675003
5.3497419 2.046963 0.013729
4.6612811 1.789758 0.096233003
4.8703451 1.876526 0.19525
5.1924958 2.007581 0.31524599
5.5800662 2.1648929 0.460554
5.521811 2.149677 0.58189899
5.119586 1.99994 0.66134298
4.8135519 1.886847 0.74111402
4.5645928 1.795379 0.819655
5.6045451 2.204421 1.006397
5.3828392 2.1244421 1.1079071
5.2841601 2.0926051 1.229993
5.324708 2.115823 1.386291
5.3350968 2.1270609 1.538594
5.3960199 2.158613 1.7095979
5.9039831 2.369782 2.0403121
5.4362068 2.189353 2.035682
5.3720088 2.170748 2.1670189
5.4986558 2.229362 2.3774769
5.348577 2.1757469 2.466717
5.5309649 2.257426 2.7079389
5.2422309 2.146693 2.713243
5.0722618 2.0839679 2.764257
5.3477001 2.204392 3.0562279
5.8424568 2.416286 3.4885671
7.8167348 3.2434249 4.857717
8.4903288 3.5460629 5.6550641
8.3849831 3.5135009 5.7498188
8.4129381 3.536716 5.9198809
7.2948198 3.086616 5.3456092
7.0955472 3.041245 5.4016781
7.1411738 3.1001401 5.3302898
8.225028 3.5706639 6.1392961
8.0765924 3.5397151 5.7201571
8.4230919 3.7032361 5.8193059
8.5402756 3.766608 5.7367482
5.661716 2.5049 3.683485
5.8209138 2.5834169 3.655484
7.7733741 3.4499509 4.8816118
5.3471141 2.3805799 3.2296181
5.2322102 2.336704 3.02773
5.213871 2.3357861 2.879941
5.2648721 2.3659761 2.764648
5.3921609 2.4307051 2.681103
5.3785982 2.432117 2.5217161
5.2226219 2.368892 2.2978799
5.5977731 2.5468929 2.300137
5.1905742 2.3689101 1.9818701
6.2080641 2.8332789 2.370368
5.1853619 2.3738079 1.828982
5.1804161 2.3788209 1.676862
5.2000389 2.395154 1.533677
5.1060882 2.3590679 1.360893
5.114944 2.3703671 1.220052
5.2031412 2.4185901 1.098505
4.9193192 2.293608 0.90701002
4.7972012 2.243453 0.75913399
4.9662132 2.3295319 0.66002899
5.0888391 2.394263 0.55228603
4.8105249 2.2701421 0.40930501
5.0210361 2.3766241 0.31456801
4.8160748 2.2864549 0.19943599
4.9215021 2.3435199 0.105059
4.4143548 2.1083159 0.011726
4.4908938 2.1512771 -0.065410003
5.2151022 2.505652 -0.159244
6.3368721 3.0446179 -0.193497
4.8723712 2.3479481 -0.218428
5.0091219 2.421015 -0.28883001
5.339395 2.588304 -0.366833
5.3071928 2.5879259 -0.454339
5.2067189 2.568943 -0.50615799
5.3596101 2.6754019 -0.420515
4.6614189 2.3404219 -0.27078801
4.7834368 2.4086411 -0.216289
4.2866049 2.1647091 -0.13217101
4.3263721 2.1911061 -0.063702002
4.7218342 2.398279 0.012694
4.5373292 2.3112049 0.098141
5.124105 2.61759 0.215249
4.6783791 2.3967471 0.297663
4.720715 2.4253671 0.408384
4.610105 2.3753059 0.50928301
4.8689079 2.5158081 0.65943098
4.9007058 2.539459 0.79120201
5.089323 2.644696 0.95843399
6.2388821 3.2512729 1.3469
4.9460878 2.584873 1.2077841
5.000052 2.6204679 1.365832
5.019125 2.6378291 1.5189281
5.1218848 2.699434 1.703107
5.7070699 3.0163391 2.07024
6.9429421 3.6695299 2.518553
5.2557831 2.7856381 2.0661969
5.1848969 2.7557881 2.196095
5.182024 2.7619979 2.3529279
5.4735999 2.9255781 2.6513569
6.4870858 3.47697 3.336309
5.264544 2.829597 2.8627059
7.826499 4.2300701 4.7006669
7.4151292 4.0300388 4.844275
