# .PCD v0.7 - Point Cloud Data file format
VERSION 0.7
FIELDS x y z
SIZE 4 4 4
TYPE F F F
COUNT 1 1 1
WIDTH 1547
HEIGHT 1
VIEWPOINT 0 0 0 1 0 0 0
POINTS 1547
DATA ascii
6.685452 1.3351409 1.139243
6.3819289 1.282222 0.933097
6.5814748 1.330267 0.80792302
6.5722561 1.336338 0.65861899
6.4998188 1.329461 0.510499
5.9154158 1.217086 0.341988
5.6257648 1.1642931 0.214913
5.4560032 1.1357681 0.10741
5.4498072 1.141073 0.013346
5.620234 1.183562 -0.075444996
5.8372469 1.236343 -0.164223
6.2720528 1.336038 -0.258982
6.074801 1.301387 -0.32252899
7.1050081 1.522085 -0.377226
5.6766658 1.222991 -0.358996
6.2816372 1.36858 -0.49469501
6.1824708 1.3770649 -0.55218798
5.6648149 1.2893831 -0.40784001
5.336236 1.227627 -0.28426799
5.0806408 1.175032 -0.2106
5.0269661 1.168761 -0.142048
5.3629918 1.253453 -0.072345003
5.4301271 1.275786 0.01337
5.5473342 1.310123 0.109857
5.9970179 1.4236701 0.23057599
5.8811932 1.40338 0.342383
5.8299308 1.3983051 0.461321
5.4973092 1.325269 0.55531502
5.2414298 1.270016 0.64891899
5.3945789 1.313759 0.79588503
5.887177 1.440957 1.012825
5.4181399 1.332816 1.068231
5.3768959 1.329294 1.198688
5.456861 1.35578 1.360423
5.5076289 1.375684 1.520739
5.4833689 1.376382 1.663034
5.3561001 1.3510489 1.771569
5.2101951 1.3206739 1.867026
5.2952461 1.3487689 2.04371
5.779583 1.479285 2.3904951
5.9609098 1.533064 2.6293571
5.6727848 1.465978 2.6559191
5.88621 1.528425 2.912816
5.5981102 1.460548 2.9164021
5.6028719 1.468733 3.060432
5.555933 1.463325 3.1701951
5.6995969 1.508234 3.3841729
6.0289178 1.602872 3.711607
5.9707479 1.594823 3.7983179
6.0290222 1.6178809 3.9479561
5.9537239 1.605088 3.9999199
7.5311279 2.0490949 5.2672939
6.0340762 1.671892 4.3811951
7.3179712 2.064239 5.2060008
5.5429788 1.57745 3.819742
5.6860399 1.625293 3.8361139
5.6725812 1.628564 3.7325449
5.7449441 1.656562 3.6747439
5.727972 1.658866 3.5479879
5.8368778 1.697745 3.489212
5.8603282 1.711949 3.3687551
5.2694621 1.545976 2.9015939
5.3269138 1.5695519 2.799367
5.4742942 1.619879 2.73441
5.6862469 1.6897711 2.688947
5.5533099 1.657287 2.4757521
5.3333082 1.598369 2.2309301
5.2450418 1.578548 2.048615
5.361238 1.6203099 1.945448
5.2466192 1.592311 1.758437
5.2968702 1.614273 1.6288871
5.2648458 1.611197 1.474939
5.0662608 1.556852 1.282349
5.4036789 1.6674 1.223859
5.265903 1.631586 1.055445
5.4501829 1.695613 0.95381898
5.492434 1.715746 0.82483101
5.411159 1.697256 0.68236798
4.874403 1.535109 0.50185603
5.200098 1.644312 0.419662
4.8340921 1.534755 0.287204
5.048985 1.609428 0.19824
4.7849841 1.5313981 0.096830003
4.5584421 1.464725 0.011476
4.736217 1.527909 -0.065370999
4.4591718 1.444253 -0.129007
4.438446 1.44323 -0.18848699
4.5986519 1.501222 -0.251138
4.5260358 1.483335 -0.29445401
4.749815 1.5688829 -0.38490701
5.235332 1.756246 -0.481406
4.9498472 1.68607 -0.367084
5.1299472 1.760715 -0.28157201
4.505239 1.552143 -0.192441
4.573421 1.581569 -0.13318899
5.6154552 1.9419219 -0.163536
4.478456 1.554553 -0.062270999
4.3863692 1.52829 0.011134
4.529129 1.58393 0.092474997
4.814435 1.689976 0.19087601
4.9390268 1.740146 0.29653299
4.781816 1.691002 0.39027801
4.4999819 1.59721 0.46891999
5.1748161 1.843493 0.66098398
5.3315678 1.906314 0.81163502
5.512578 1.978248 0.97870702
4.9307508 1.77591 1.003359
5.012197 1.811823 1.153423
5.1221151 1.8582751 1.318329
5.1153421 1.863036 1.458378
5.1909399 1.89739 1.625783
5.3173609 1.9506021 1.816461
5.2505531 1.933005 1.9434789
5.0615249 1.870082 2.0181379
5.2534351 1.9479229 2.245064
5.5228381 2.055104 2.517395
5.2380619 1.956054 2.534538
5.257195 1.970158 2.6890521
5.4461389 2.048171 2.9330561
5.3843532 2.0320649 3.0408111
5.3541441 2.02777 3.1590829
5.6198082 2.1358399 3.4508801
5.6540532 2.1638861 3.720823
7.871594 3.0125699 5.1801429
8.261219 3.183687 5.7430139
6.8301582 2.6869421 5.135664
7.2178121 2.8976221 5.1550498
5.8487091 2.37166 3.8789549
5.7250772 2.329262 3.67735
5.8543701 2.389782 3.6295969
4.9205642 2.0152669 2.9339521
4.9060702 2.0159769 2.8025539
5.107708 2.1057689 2.7849629
5.0821028 2.1021111 2.634191
5.1567659 2.1400011 2.530823
5.4172029 2.2554569 2.506788
4.9747381 2.0780089 2.16026
5.188251 2.1742649 2.1039641
5.2204409 2.194886 1.967104
5.2273688 2.2049351 1.819515
4.8707538 2.0611701 1.555796
5.1098418 2.1693449 1.4871
5.0979891 2.171294 1.340669
5.0330949 2.150553 1.184516
4.8449068 2.0768001 1.0091881
5.0759449 2.1828079 0.92332798
4.4727459 1.929563 0.69826198
4.3070898 1.8640341 0.56469798
4.691329 2.036788 0.50224698
4.918848 2.14235 0.41283399
5.084023 2.221318 0.314172
4.8828421 2.1401639 0.19943599
4.4801502 1.9698679 0.094324999
4.2142611 1.858795 0.01104
4.3095932 1.906816 -0.061903
4.328958 1.921399 -0.130355
4.6333661 2.0629439 -0.20482901
4.4917359 2.00613 -0.25538999
4.39853 1.970631 -0.29797101
4.3075552 1.9418809 -0.36357901
4.2595658 1.944087 -0.40819201
4.4825382 2.071039 -0.346636
4.9336891 2.293391 -0.282453
4.5152631 2.1052589 -0.201198
4.4984879 2.1037929 -0.136683
4.571589 2.1444521 -0.066329002
4.2437348 1.9966691 0.011241
4.7795339 2.2555439 0.10186
4.440268 2.101738 0.183773
4.4428482 2.1092689 0.27849799
5.073545 2.41592 0.43239701
4.8656092 2.3238311 0.52951401
4.3660011 2.0914371 0.58249801
4.217629 2.0263879 0.67073399
4.2800918 2.062511 0.79394299
4.7177148 2.2801399 1.003171
4.7888188 2.3213689 1.151731
4.6503282 2.2609 1.251072
5.6835399 2.7632279 1.529035
4.8065009 2.3436689 1.432502
4.9580302 2.4246891 1.623526
4.8149481 2.361661 1.7199579
5.792129 2.8409541 2.0690191
5.1408529 2.5289271 1.990073
5.061635 2.4972651 2.11097
4.8146291 2.3823681 2.1524489
5.0808501 2.521452 2.42311
4.8808889 2.4292891 2.4713709
4.9392748 2.4655221 2.6441259
5.098371 2.5523419 2.874089
4.8366132 2.4283321 2.859549
4.7100759 2.371666 2.909797
7.154326 3.6442101 5.077929
7.5137248 3.8382931 5.4730878
4.7060938 2.4455831 3.7110021
4.7869759 2.5159471 3.702673
7.2226591 3.8175559 5.4147081
7.8121619 4.140759 5.735395
7.7635999 4.1265802 5.5605989
8.0384712 4.2846832 5.5985131
6.824295 3.6476879 4.6038451
8.2692451 4.432395 5.3854051
7.4097829 3.9828191 4.6417608
4.6246982 2.492743 2.7759261
4.7447529 2.5645809 2.7187941
4.7154112 2.555805 2.5689631
8.7013493 4.7162271 4.7405071
5.0326748 2.7353351 2.596467
4.7672482 2.5982599 2.319397
4.6958332 2.5664179 2.1442671
4.7442441 2.600039 2.023392
5.1873679 2.8507421 2.056026
5.8270202 3.2110851 2.1337619
4.7018962 2.6053369 1.440006
4.5352602 2.5198939 1.2553051
4.680541 2.6077371 1.159557
4.6806998 2.6149659 1.026487
4.577868 2.5645001 0.87684798
4.5137172 2.5354569 0.74210697
4.570086 2.57412 0.63111901
4.415967 2.4940741 0.49804401
4.0377512 2.2866549 0.35705799
4.2706132 2.4250951 0.27810201
4.1604872 2.3689561 0.17910001
4.677351 2.670465 0.103806
4.2732859 2.446358 0.011802
4.2527409 2.4411609 -0.064411998
3.960156 2.27934 -0.125761
3.997319 2.306917 -0.186388
3.9588051 2.2908249 -0.237451
3.8917589 2.258075 -0.278164
4.2338281 2.469718 -0.377159
4.1097889 2.423048 -0.415921
4.2607479 2.538816 -0.348176
3.8106511 2.282644 -0.230608
3.8468511 2.310406 -0.18122301
3.899791 2.348371 -0.125293
4.7655549 2.869715 -0.153108
3.9050441 2.357729 -0.059920002
4.0608888 2.4582641 0.011378
4.1966009 2.5470941 0.094613999
4.1539249 2.527801 0.181904
4.2614522 2.600023 0.28268099
4.0732121 2.4916811 0.36741501
3.982209 2.442374 0.458756
4.0003228 2.4598839 0.56505603
4.4060159 2.716423 0.741965
4.552309 2.813921 0.894319
4.5824389 2.8399091 1.032129
5.4606919 3.3841939 1.229942
4.6697092 2.9015181 1.189805
4.4416509 2.7669721 1.266122
4.6485901 2.903316 1.4682111
4.6452498 2.90873 1.612237
5.0590081 3.1760061 1.915713
4.517745 2.8435211 1.854229
4.6964111 2.9635921 2.0769899
5.0133939 3.171772 2.377105
4.9109812 3.1149671 2.484395
4.879581 3.102999 2.6212389
4.8008928 3.060802 2.727066
7.5886641 4.8505402 4.5400262
6.888258 4.425426 4.5176001
4.869586 3.144516 3.4487929
4.784462 3.0974231 3.5029981
4.7228699 3.0653341 3.5609641
4.6909819 3.052393 3.630403
4.7255759 3.0905409 3.810621
7.1707792 4.7854109 5.9025822
4.6868401 3.1514111 3.6636
4.6834788 3.157052 3.5721891
4.6983848 3.1750481 3.4851949
4.7662988 3.229008 3.4252729
4.852881 3.2958889 3.3672471
9.061121 6.1693649 6.0485892
9.0904083 6.204761 5.8153348
4.7672529 3.2702019 2.7689681
4.7887511 3.293129 2.63445
4.833457 3.332154 2.507966
4.810884 3.324837 2.3432579
9.5537748 6.6190829 4.3470001
4.62644 3.213273 1.956604
4.9427519 3.441478 1.9315929
4.5690069 3.189132 1.639047
4.4937582 3.144383 1.469246
4.5634179 3.2010219 1.348665
4.8625412 3.419271 1.2864701
3.6734159 2.5894811 0.860452
4.2844439 3.0276599 0.876683
3.654218 2.5886669 0.64192998
3.82482 2.7162039 0.56445903
3.782968 2.693094 0.45601901
3.796566 2.70942 0.358899
3.718967 2.6605711 0.25893599
3.7841921 2.7138791 0.17420299
4.0354471 2.9011779 0.095789999
3.778075 2.722806 0.011162
3.8661871 2.7931299 -0.062651999
3.8350911 2.7774551 -0.130328
4.0323362 2.9274449 -0.20123801
4.0397158 2.93997 -0.25938201
4.0009708 2.9188919 -0.30617699
3.834017 2.8107519 -0.36580399
4.6107912 3.3802121 -0.43991601
3.883389 2.8747809 -0.42121899
3.6658001 2.7401519 -0.32128599
3.979701 2.9892261 -0.25839701
3.6534629 2.7508221 -0.18469299
3.493084 2.636425 -0.120451
3.7653451 2.8487921 -0.062020998
3.7408371 2.8370831 0.011253
3.715364 2.8245721 0.089951001
4.3301291 3.29988 0.20366099
3.76385 2.8752451 0.268208
3.64856 2.793895 0.353605
3.638588 2.7929649 0.45044899
3.6801791 2.8316851 0.558725
3.891675 3.001627 0.70450503
3.9889159 3.0840189 0.842565
4.227809 3.276566 1.024043
4.5406942 3.527508 1.244377
4.1847658 3.258796 1.283289
5.492219 4.287107 1.866444
8.6956844 6.8039188 3.2478981
4.839469 3.7957089 1.9725159
4.5722389 3.5946939 2.0202601
4.2424712 3.343406 2.0202391
7.9199872 6.2864332 4.5835552
4.9120388 3.90821 3.0065551
4.7207189 3.764945 3.0437889
4.6622968 3.7272129 3.1538661
4.6358318 3.7148969 3.27793
6.8538342 5.5184741 5.2353139
4.6639342 3.8727269 4.1506772
6.8717299 5.7737269 5.516305
7.6303272 6.4111109 6.1252718
6.3767762 5.3704991 4.9602289
6.5058651 5.4921379 4.8870878
5.416564 4.5833611 3.9151571
4.6188922 3.9175999 3.2001159
4.6044478 3.9145601 3.04649
4.6692042 3.97896 2.938302
4.800004 4.1000509 2.861522
8.9560184 7.6680441 5.0367541
8.9693089 7.6974831 4.7359838
4.0651188 3.4968979 2.0055261
4.3597298 3.7591541 1.999588
8.6661911 7.4899321 3.6735389
4.4067221 3.8265181 1.563435
3.8651631 3.36414 1.239784
4.5792499 3.9856629 1.468833
4.051435 3.5345399 1.163576
3.9459009 3.4505551 1.003547
3.727917 3.26758 0.82839102
3.4311759 3.0145309 0.65469998
3.4632421 3.0498431 0.55526
3.926091 3.4655421 0.51426798
3.7030561 3.276325 0.380458
3.474925 3.081692 0.26300699
3.815053 3.3912489 0.190951
3.5562739 3.1686239 0.091801003
3.642746 3.253263 0.011706
3.4606049 3.0978251 -0.061009999
3.3711729 3.024833 -0.12466
3.3817921 3.041455 -0.183685
3.760695 3.39013 -0.26285499
3.630229 3.280175 -0.30247501
3.567147 3.23825 -0.37071401
3.5087049 3.2150581 -0.41487899
3.538655 3.272866 -0.33837301
3.2781889 3.046123 -0.232319
3.321723 3.0937679 -0.183321
3.45768 3.2278979 -0.13019
3.627244 3.394093 -0.065251999
3.495961 3.278867 0.011488
3.512635 3.3021879 0.092918999
3.4466331 3.247685 0.177156
3.244508 3.0643439 0.25271699
3.2727709 3.098244 0.34677699
3.488384 3.3100441 0.47224301
3.6186719 3.4416621 0.60089499
3.610352 3.441751 0.71500498
3.4300871 3.2775121 0.79278898
3.9466519 3.7798719 1.046231
4.002708 3.84249 1.200804
4.8551431 4.6608038 1.456532
4.018806 3.8669159 1.34937
3.9471021 3.8066781 1.468987
4.8614659 4.6994052 1.988981
4.7371831 4.5899181 2.115438
4.6514349 4.5173059 2.252244
4.5330129 4.4125252 2.3659959
4.412302 4.3050122 2.4700911
4.3866048 4.2898812 2.6211081
4.3838959 4.2971878 2.782666
4.3219109 4.2462821 2.9020159
4.2704568 4.205472 3.021282
4.2235651 4.168952 3.1356471
4.1527429 4.1085768 3.2233379
4.1364779 4.1019888 3.3438489
4.0880508 4.0633922 3.429364
4.0522008 4.0371108 3.5155649
4.0062542 4.0006032 3.5807409
4.0143242 4.017982 3.6842799
4.0657229 4.0883489 3.8911741
4.149559 4.2115698 4.1369672
4.08535 4.1850681 4.004355
4.0904469 4.2097921 3.8904581
4.0881619 4.2172141 3.8099921
4.0823312 4.220983 3.7138369
4.0954299 4.244379 3.625001
4.0475621 4.2045159 3.4723139
4.0203018 4.1859031 3.331404
4.0295262 4.2052722 3.213675
4.100883 4.2896881 3.1356471
4.0928841 4.291286 2.9893229
4.1349692 4.345489 2.8730741
4.2108622 4.435535 2.7723451
4.2463741 4.483357 2.638
4.2919159 4.5419788 2.503938
4.3394761 4.6029911 2.3659959
4.3724461 4.648766 2.2168059
4.4210491 4.7113762 2.072073
4.4958382 4.8022242 1.9350801
4.052299 4.3385472 1.590346
3.647063 3.913774 1.294342
4.5859962 4.921371 1.627569
3.6208999 3.894743 1.150885
3.451087 3.720742 0.97158098
3.206811 3.465431 0.78899801
3.3211091 3.597306 0.70180899
3.549479 3.853637 0.63040203
3.0767241 3.3481541 0.44653901
3.1371391 3.4218559 0.35721099
3.188611 3.4861169 0.26752999
3.0695601 3.3637829 0.170353
3.5054009 3.8503709 0.100357
3.1781759 3.4990849 0.01133
3.1281941 3.4520919 -0.061193999
3.2720931 3.619328 -0.13428999
4.055089 4.4854159 -0.16642401
3.3213451 3.6823809 -0.20027
3.9785199 4.4109931 -0.239896
3.2531869 3.6152351 -0.25248599
3.285835 3.6600561 -0.304079
3.2207689 3.6043601 -0.37194201
3.6932859 4.1719699 -0.48574799
3.184803 3.6313951 -0.339073
3.140497 3.5976851 -0.247924
3.1950779 3.668792 -0.196476
3.2702329 3.7638929 -0.137233
3.9435539 4.538856 -0.165489
3.042172 3.509629 -0.061009999
3.1083429 3.5943811 0.01139
3.338721 3.8698561 0.098507002
2.9883161 3.471838 0.171362
2.9028959 3.380518 0.252321
2.9735439 3.470937 0.35168701
3.0093 3.5209301 0.45484701
3.1913021 3.7426541 0.59181601
2.971575 3.4931729 0.65739602
3.1872511 3.755522 0.823116
3.460772 4.0874081 1.025359
3.929147 4.6405921 1.16413
3.0153461 3.5697279 1.011281
4.5769439 5.4184308 1.535006
2.9888761 3.546726 1.122202
4.8884058 5.8154831 2.035157
5.0548792 6.0277052 2.314081
5.1572318 6.1788249 2.7956171
5.0345211 6.0460448 2.942606
5.020483 6.0434442 3.1481481
5.0130959 6.0488091 3.356133
4.9964418 6.042964 3.5542991
6.656312 8.0504999 4.735074
6.686955 8.1067114 5.0333872
6.5717669 7.9859152 5.2134218
6.4995499 7.916851 5.4121671
5.4299741 6.6454301 4.9259181
5.2785311 6.4907761 5.1419191
5.1086068 6.29673 5.1281729
4.8099351 5.970952 5.1744342
4.6534419 5.8318911 5.2205138
4.6666651 5.9044518 5.1528959
4.8477588 6.1629281 5.1970372
4.8440881 6.1729789 5.0899658
4.827899 6.1670609 4.9533858
5.038322 6.4512711 5.0309119
5.176722 6.6443529 5.0113602
6.0643501 7.8397589 5.2369781
6.2437682 8.1105289 4.9024978
4.677721 6.0908651 3.4812231
4.7018242 6.1369891 3.302706
4.3578291 5.7016768 2.8755119
4.0572252 5.3597412 1.977411
4.0636792 5.3812408 1.806412
4.125977 5.476933 1.659081
4.1643119 5.5411782 1.500106
3.15784 4.2121072 1.007872
4.2135949 5.6203332 1.3448319
2.969008 3.969816 0.82839102
2.896369 3.8820691 0.69428903
3.0392089 4.083406 0.61248302
3.067831 4.1318579 0.50537401
2.794529 3.7728989 0.36127701
2.8882549 3.908921 0.27521801
2.9035161 3.9391229 0.183063
2.7831559 3.7850289 0.090548001
2.6875961 3.663965 0.010891
2.70556 3.697438 -0.060182001
2.9704051 4.069283 -0.13866401
2.9826241 4.0959892 -0.20462801
2.831321 3.8976979 -0.25010201
3.2732329 4.5170708 -0.34486601
3.0132439 4.1786489 -0.396415
3.197418 4.4777188 -0.479669
2.882498 4.0765662 -0.35048699
2.7452011 3.901572 -0.247665
2.757055 3.9280901 -0.193813
2.715286 3.8781359 -0.1303
2.7831421 3.9848919 -0.063846998
2.8450611 4.0836282 0.011929
2.702287 3.8883171 0.091260999
3.0954981 4.4651489 0.20324899
3.1397779 4.540256 0.31258899
2.735661 3.9657221 0.37071401
3.0233331 4.3936348 0.52374798
2.8037081 4.0846009 0.59611601
2.6670339 3.8951731 0.67669398
2.90995 4.26054 0.86217898
3.774236 5.5397472 1.283344
4.0993762 6.0320239 1.5783679
3.875535 5.7169018 1.671074
3.8017271 5.6219411 1.818056
3.707628 5.4965138 1.9503191
3.635474 5.403069 2.0885639
3.57921 5.3327918 2.230916
3.4911749 5.2146831 2.347079
3.428679 5.1342211 2.47381
3.3857191 5.082644 2.6089289
3.3283019 5.0090289 2.726105
3.3258541 5.0179758 2.883441
3.297528 4.9877901 3.01408
3.250072 4.9284229 3.1192961
3.2199709 4.8951359 3.233
3.169636 4.8308058 3.316469
3.1644349 4.8351111 3.438056
3.1095829 4.7633471 3.496191
3.1009669 4.7622042 3.5941041
3.0681379 4.723774 3.6538041
3.0277419 4.6853318 3.76475
2.8344381 4.4311872 3.6806171
2.9131601 4.601151 3.7286601
2.958267 4.6964769 3.678864
2.9514711 4.6977592 3.598839
2.9691579 4.7381001 3.536376
2.974395 4.758728 3.449065
2.9834411 4.7855401 3.3552239
3.0198679 4.8565059 3.282618
3.0471439 4.913085 3.1900029
3.0764699 4.9732351 3.089864
3.101238 5.026309 2.977169
3.1490259 5.1170301 2.877826
3.2113049 5.2318149 2.782666
3.2928779 5.3787098 2.6941781
2.9895799 4.8960328 2.298624
3.7113359 6.078053 2.8535669
3.4556401 5.6740832 2.484751
3.1700399 5.2187672 2.1209941
3.2165551 5.3092089 1.990839
3.8185179 6.3028021 2.363415
3.3276999 5.5070648 1.892749
2.6101699 4.330965 1.354615
2.5177131 4.1885352 1.182404
2.5318871 4.2231979 1.065642
2.4078071 4.0268278 0.898247
2.6386349 4.4245062 0.86085999
2.6354129 4.4307752 0.738985
2.8022449 4.7237382 0.66086501
2.5186479 4.2569208 0.48572999
2.4844069 4.2101822 0.37616101
2.4955289 4.2402711 0.278611
2.499938 4.2590542 0.184745
3.0649791 5.221693 0.226501
2.993304 5.1131759 0.114192
2.4988401 4.2799058 0.011879
2.4680059 4.2383752 -0.064424999
2.624512 4.519207 -0.14383601
2.4668889 4.2591572 -0.19877701
2.8447731 4.9247451 -0.295259
2.8553951 4.9564128 -0.35362801
2.927177 5.108367 -0.453035
2.667655 4.705966 -0.47159201
2.358516 4.2059922 -0.33851299
2.8981349 5.1683059 -0.41596299
2.351362 4.2161412 -0.25062001
2.41134 4.3354959 -0.20035
2.632338 4.74579 -0.149367
2.4915919 4.504365 -0.067616999
2.4373059 4.4183149 0.012095
2.5719659 4.675252 0.102843
2.4570789 4.478704 0.1911
2.4329021 4.446856 0.28703499
2.8322761 5.1911392 0.45502999
2.6840539 4.9330668 0.55150402
2.632642 4.8519711 0.66421002
2.4632559 4.5523949 0.741965
2.3212731 4.3019042 0.81685299
2.3860929 4.434329 0.96406001
2.3231211 4.3293419 1.063315
3.3213191 6.1895719 1.5202
3.546149 6.626997 1.818522
3.4750741 6.5136762 1.977712
2.9486711 5.5424538 1.84675
3.2412419 6.1094818 2.218049
3.1401291 5.9521961 2.516979
4.2195692 8.0890617 4.3698721
2.8597879 5.4978528 3.1239121
2.767905 5.3363171 3.17629
2.6475279 5.118772 3.179857
2.6309309 5.1011729 3.294565
2.5852389 5.0412641 3.482053
2.6139319 5.1560001 3.901243
2.3728919 4.7349138 3.705842
2.5451269 5.1379771 3.925827
2.5733769 5.225462 3.860625
2.3457339 4.7912202 3.373883
4.2429681 8.6919088 5.9446239
3.7111101 7.647315 4.8791232
3.882468 8.0241337 4.9185848
3.4022441 7.073451 3.956655
3.3069029 6.9577012 3.086777
2.266536 4.7830729 1.9796031
2.7769201 5.9671268 1.424381
2.4574211 5.2966471 1.117873
2.365598 5.1142612 0.94162297
2.3528409 5.1022019 0.80539203
2.338166 5.0859008 0.67352802
2.2988651 5.0157328 0.54182798
2.2558489 4.936986 0.417667
2.26847 4.979898 0.30987501
2.230026 4.9105902 0.201754
2.312058 5.1069722 0.108045
2.9235771 6.4577188 0.136622
2.2094729 4.8954778 0.012874
2.3287461 5.1757469 -0.074552
2.329828 5.1942639 -0.15668499
2.152302 4.813417 -0.21294001
2.008558 4.5059628 -0.256116
2.0577259 4.6307182 -0.31327301
2.005373 4.541256 -0.38199201
1.990582 4.5649848 -0.43415999
2.3211069 5.3911171 -0.41204199
2.4388139 5.7008991 -0.32190701
2.4570091 5.761899 -0.25297001
2.1807981 5.1306438 -0.153438
2.214483 5.2267418 -0.074565001
2.1323521 5.0491838 0.013137
2.1334691 5.0682421 0.105984
2.1527891 5.1307702 0.208147
2.12256 5.0752139 0.311515
2.157542 5.175734 0.43147701
2.178498 5.2431188 0.55756301
2.218899 5.3578801 0.697779
2.2589619 5.4725871 0.84867001
2.3218229 5.6434231 1.019748
2.4646249 6.0103168 1.243669
2.4756131 6.0571389 1.416132
3.036087 7.4531312 1.947157
3.282037 8.0835066 2.337131
3.2557321 8.0454988 2.5531089
2.940176 7.2900591 2.5209961
3.187367 7.929482 2.968539
2.5044141 6.2514 2.5187311
3.6980979 9.262188 3.9961841
3.684253 9.2587051 4.2569432
3.481523 8.7788839 4.28093
2.4365489 6.1648149 3.175025
2.542479 6.4547391 3.497071
2.2877369 5.8278422 3.308032
2.6807711 6.8524699 4.060091
2.853267 7.3184242 4.5087461
2.0666289 5.3190131 3.3951061
2.7341461 7.0613122 4.6539078
2.6488249 6.8646131 4.6535211
1.970156 5.123517 3.560745
2.153615 5.6396599 4.0740972
1.8317389 4.86446 3.6370461
2.090718 5.6717329 4.006475
2.4989381 6.82796 4.598465
2.6946249 7.389245 4.8340321
2.306669 6.3945079 3.7508979
2.5111561 6.9867821 3.922828
2.575197 7.1912112 3.8504241
2.719111 7.6489878 3.6798079
3.1358399 8.8212662 4.243772
2.4441459 6.9009018 3.1274941
1.94778 5.540278 2.196445
3.788697 10.776592 4.2723842
3.779072 10.789278 3.970958
3.267863 9.3645992 3.1809449
2.708003 7.8185668 2.216548
2.607939 7.5580158 1.934458
2.1866219 6.3609419 1.455686
2.7378581 7.9947162 1.61786
1.976758 5.7941918 1.023044
2.059639 6.0601368 0.91748798
1.9074889 5.6339459 0.715698
1.8883179 5.5987091 0.58023697
1.792255 5.3343282 0.433011
2.0857019 6.2317009 0.37212199
1.887226 5.660512 0.223212
1.961023 5.9047222 0.119916
1.810048 5.4713531 0.013813
1.916521 5.8158278 -0.080435999
1.936325 5.8989801 -0.170881
1.914041 5.8540139 -0.248733
2.0729189 6.3649392 -0.34751901
2.06898 6.3780098 -0.41453001
2.041944 6.3448129 -0.51287699
2.011668 6.3517828 -0.58084798
1.97825 6.348557 -0.46680301
2.0320311 6.5748839 -0.35726601
1.9378819 6.2961478 -0.26604399
1.8637429 6.0803671 -0.175036
1.915602 6.275578 -0.086189002
1.77091 5.8257689 0.014595
1.949495 6.4401522 0.129685
1.664433 5.521554 0.215735
1.6906869 5.6322989 0.33299801
1.730979 5.7909632 0.46507999
1.7571321 5.9034181 0.60486603
1.754567 5.9199238 0.74293602
1.788431 6.0600238 0.905711
1.784446 6.0724788 1.057657
1.759141 6.0121551 1.1992919
2.9174969 10.014198 2.25735
2.718966 9.4137135 2.6248729
2.9679661 10.320732 3.159003
3.053267 10.664006 3.5574911
2.108463 7.396565 2.671586
2.5983939 9.1555557 3.5595031
2.632242 9.3160362 3.8790209
2.2173541 7.9534512 3.954742
2.1130681 7.647975 4.1923862
2.5845129 10.329288 6.5441661
2.8526649 11.45745 7.0249028
2.6468451 10.683672 6.3178191
2.1300581 8.727932 4.5287719
2.0034859 8.2928371 3.867245
2.369621 9.9091301 4.0824752
2.206845 9.2760305 3.566159
2.2613921 9.6043425 3.164454
2.008477 8.5747881 2.590642
2.168299 9.3058176 2.559665
2.548187 10.99393 2.7304881
1.427058 6.18957 1.374674
1.4904881 6.4991789 1.276575
1.438774 6.3072748 1.081061
1.469032 6.4745731 0.95168501
1.480952 6.5624471 0.80947602
1.413214 6.296309 0.63369697
1.410025 6.3164001 0.49799401
1.39311 6.274919 0.36398
1.363807 6.176806 0.236632
1.4010659 6.3807769 0.125908
1.446394 6.6239018 0.016251
1.4914171 6.8683329 -0.092322998
1.420548 6.5788312 -0.185243
1.370134 6.3812451 -0.263583
1.402663 6.5698881 -0.34876299
1.530827 7.2112312 -0.45574901
1.485881 7.0803809 -0.55668497
1.2368751 6.0331578 -0.53690201
1.454808 7.26758 -0.52030402
1.263981 6.430613 -0.26467201
1.316286 6.7380352 -0.18895701
1.301975 6.7061939 -0.089735001
1.285015 6.6601472 0.016257999
1.264614 6.5956111 0.129435
1.247335 6.5465689 0.24930499
1.215588 6.4204712 0.37002999
1.302349 6.922739 0.54203099
1.177635 6.3000498 0.62939698
1.248387 6.7217431 0.82261699
1.6095949 8.7230721 1.2715141
1.709754 9.4502516 2.078403
1.762264 9.8054447 2.41043
1.241531 6.95397 1.89232
1.2431459 7.0099912 2.094243
1.282324 7.2800679 2.370744
1.230677 7.0345979 2.480618
1.754752 10.099207 3.833796
1.7084889 9.901104 4.0259399
1.711941 9.9902325 4.3300128
1.727464 10.15152 4.667778
1.640888 9.710927 4.7171798
1.4823951 8.89853 4.7665381
1.361028 8.2886171 4.8213758
1.529292 9.4504681 5.8838849
1.617105 10.142332 6.662179
1.314237 9.0514793 6.0621972
1.682377 12.394962 6.3054409
1.298098 9.7331009 4.4510269
1.2530479 9.6515598 3.640074
0.95135897 7.3950572 2.589884
1.215565 9.4487715 3.3091321
0.90882099 7.1297221 2.3050859
1.269824 10.05475 2.981214
1.279018 10.223031 2.7599471
1.246959 10.061495 2.4529941
1.1696531 9.5282402 2.0775571
1.1041631 9.1706867 1.5435489
1.062902 8.9150887 1.286981
0.974217 8.2527571 0.99989903
0.93414301 7.992888 0.79026401
0.87054801 7.5244169 0.582847
0.83389503 7.2816648 0.41503301
0.80683702 7.1184092 0.26799601
0.78293198 6.9799218 0.13537
0.79991102 7.2067218 0.017379999
0.79836398 7.2696619 -0.096065998
0.80707401 7.4284558 -0.205658
0.92335498 8.6862984 -0.45348999
0.64641201 6.2891779 -0.486485
0.54677099 5.5740042 -0.488267
0.70150602 7.9059319 -0.21845099
0.65647799 7.9201078 0.450028
0.65501398 8.0155077 0.61882901
0.64516598 8.0094051 0.78909099
0.76172 9.5953846 1.158186
0.82707399 10.574288 1.5203969
0.70865703 9.6352148 2.3375289
0.74960798 10.35484 2.7811649
0.66780901 9.3759995 2.7650449
0.64045101 9.1418285 2.9390759
0.68435198 9.9338493 3.458756
0.66547698 9.8261948 3.6835129
0.753371 11.319155 4.545548
0.65171301 10.147211 4.6091518
0.70183998 11.339461 5.7270222
0.752801 12.396178 6.561873
0.55168003 9.6395369 5.7445798
0.44270101 8.2383595 5.3517289
0.317514 8.2239828 5.3386679
0.35622001 11.261312 5.9531498
0.22736301 9.2202291 3.4495051
0.228948 9.744051 3.3855841
0.19658799 11.11393 2.4056261
0.118476 9.0846949 1.093199
0.095021002 8.8642864 0.68212301
-0.011975 5.8267632 -0.44835499
-0.035034999 5.2280531 -0.45578501
-0.207524 10.054824 0.376219
-0.23367999 10.176228 0.78324097
-0.27403501 10.837342 1.304408
-0.304061 9.4284811 2.5270619
-0.30728301 9.1969929 2.7069111
-0.402325 9.9614429 4.5191488
-0.46728 10.112982 5.8110399
-0.42135099 8.4782887 5.3687072
-0.57168102 8.5101404 5.3943639
-0.737665 10.267463 5.6799731
-0.65498698 6.2608142 -0.38916999
-0.56563997 5.2881131 -0.409228
-0.52879399 4.7354951 -0.4154
-0.65355998 5.6161861 -0.396916
-1.942529 14.749568 2.132529
-1.7735341 10.095411 6.0984082
-1.518921 7.253633 -0.29929501
-1.3264771 6.298161 -0.33414301
-1.1932271 5.6330152 -0.35597301
-1.0371 4.8405108 -0.380918
-0.95954198 4.3791022 -0.39082199
-1.139468 5.0871172 -0.36596301
-1.389208 6.1352139 -0.32657301
-1.588255 6.976666 -0.288964
-1.774102 5.500174 -0.300028
-1.599602 4.939539 -0.320986
-1.409825 4.3193069 -0.34961599
-1.319566 3.980051 -0.365549
-1.511052 4.4877868 -0.33241999
-1.8222049 5.3706541 -0.294429
-1.3276891 -4.3374062 1.215142
-1.623422 -5.3035312 1.4858069
-1.564868 -5.1334071 1.578655
-1.469072 -4.8392038 1.621928
-1.2202801 -4.0364261 1.464746
-1.2844369 -4.2664151 1.6664259
-1.192353 -3.977195 1.663713
-1.084144 -3.6779211 1.932864
-1.127032 -3.839757 2.1144121
-1.0434901 -3.5857649 2.1436081
-1.013379 -3.8436871 2.1933379
-1.12762 -4.3585582 2.0407591
-1.120306 -4.3719158 1.8084
-1.179522 -4.647625 1.665558
-1.2052799 -4.772212 1.578562
-1.2803071 -5.0940351 1.545073
-1.323246 -5.2907391 1.460966
-1.451629 -5.8326468 1.454253
-0.92007601 -3.7151589 0.82831502
-0.80793703 -3.2785909 0.64646697
-0.88460398 -3.6076231 0.62071598
-0.86367202 -3.5399179 0.522313
-0.98019201 -4.0377588 0.49994901
-0.92716002 -3.8386209 0.387802
-0.86129898 -3.584065 0.283636
-0.83416897 -3.4889181 0.203135
-0.85864002 -3.6096871 0.13880201
-0.78790498 -3.329406 0.065940998
-1.0404119 -4.4191661 0.010882
-1.258119 -5.3438811 0.013159
-0.86306602 -3.684952 -0.049713999
-0.93749303 -4.023663 -0.11371
-0.91552001 -3.9499841 -0.16375101
-0.91720802 -3.9781339 -0.211943
-0.82709002 -3.606307 -0.228738
-0.91145802 -4.0167098 -0.31693301
-0.76321602 -3.4369249 -0.306925
-0.784536 -3.6116769 -0.25945199
-0.79131597 -3.6838951 -0.195612
-1.0752929 -5.005918 -0.265811
-0.78831702 -3.6906719 -0.152411
-0.75553101 -3.5572741 -0.100091
-0.85039699 -4.0268302 -0.054062001
-0.76423699 -3.6396191 0.0089140004
-0.83324403 -3.9911921 0.078582004
-0.79612303 -3.8355069 0.14654
-0.80893999 -3.9199901 0.22665399
-1.052893 -5.1021481 0.29500601
-0.72096699 -3.5142021 0.276041
-0.73786199 -3.6177599 0.362587
-0.86609101 -4.2716451 0.52443898
-0.995884 -4.9411168 0.72252601
-1.215518 -6.0308409 0.88187301
-0.78685498 -3.927412 0.66933799
-1.171854 -5.8490491 0.99683797
-1.22138 -6.1329908 1.197224
-0.76730698 -3.876307 0.85517901
-1.116514 -5.6404438 1.244377
-1.069137 -5.4340272 1.339964
-1.0947011 -5.6008019 1.528761
-1.01679 -5.2342448 1.568496
-4.43191 -23.539288 10.232612
-1.102674 -7.6989198 2.2878361
-0.81248701 -5.7198782 1.5476511
-0.77769101 -5.5206308 1.3489
-1.072432 -7.6770048 1.6775711
-0.866638 -6.2565479 1.209258
-1.0655431 -7.6925092 1.486799
-0.85823298 -6.248878 1.054031
-1.053633 -7.6716099 1.29401
-0.73055601 -5.3651428 0.77616203
-0.535662 -3.968127 0.48179099
-0.71244502 -5.2777171 0.64079499
-0.52364397 -3.9131279 0.38770401
-0.72343302 -5.4539661 0.42334399
-0.50962198 -3.87638 0.221396
-0.70561099 -5.3671441 0.30654001
-0.51438701 -3.947845 0.148932
-0.51008999 -3.950465 0.076770999
-0.515145 -4.026166 0.0097289998
-0.63408101 -5.0015321 -0.066224001
-0.617158 -4.913518 -0.136298
-0.72424102 -5.8203321 -0.23686901
-0.75147802 -6.0965881 -0.31889999
-0.73470598 -6.0177422 -0.37479299
-0.59488302 -4.9677181 -0.38498399
-0.42638201 -3.7054019 -0.32516399
-0.55256099 -5.005199 -0.353499
-0.521653 -4.8273578 -0.25207201
-0.518484 -4.8503909 -0.197001
-0.61033499 -5.7726259 -0.159766
-0.602597 -5.763082 -0.076114997
-0.53974301 -5.2201562 0.012579
-0.51256901 -5.0139322 0.097139001
-0.45487899 -4.5009079 0.169231
-0.518556 -5.1908059 0.29540199
-0.486595 -4.9283972 0.381071
-0.568838 -5.8301368 0.57525301
-0.49322599 -5.1162071 0.61845601
-0.464843 -4.8807988 0.702802
-0.73156798 -7.6813698 1.106066
-0.51373202 -5.4608331 0.91657001
-0.72251302 -7.6801252 1.289065
-0.51238 -5.5146599 1.060334
-0.58407199 -6.286263 1.208694
-0.71573299 -7.7033129 1.481158
-0.50747401 -5.5311828 1.202073
-0.70937401 -7.731781 1.680321
-0.502877 -5.5514359 1.348665
-0.69762701 -7.7013469 1.8709641
-0.68725699 -7.6852722 2.0669839
-2.0696931 -23.449471 6.924747
-2.0474091 -23.507198 7.5675702
-1.968592 -23.545639 9.4675035
-1.893332 -23.631224 11.354927
-1.2947249 -23.713581 15.019979
-1.210875 -23.684868 13.612857
-1.097881 -23.613798 11.322529
-1.041541 -23.575825 10.081364
-1.012341 -23.530834 9.437377
-0.90043002 -23.451401 6.9035821
-0.87457597 -23.48604 6.295918
-0.177536 -5.443584 0.910142
-0.18133201 -5.7642002 0.82667601
-0.147617 -4.8716092 0.58644003
-0.14598601 -5.008769 0.49208301
-0.183594 -6.5590339 0.50489801
-0.211826 -7.567657 0.58253998
-0.151959 -5.6628861 0.32078701
-0.20281801 -7.558167 0.42814901
-0.141372 -5.5053329 0.206016
-0.193499 -7.535244 0.281977
-0.136279 -5.5572972 0.10714
-0.126314 -5.405509 0.01296
-0.109229 -4.9173632 -0.064608999
-0.159723 -7.5854449 -0.208822
-0.107937 -5.4235039 -0.219074
-0.15135799 -7.6052928 -0.30720401
-0.095220998 -5.0792661 -0.26373699
-0.141605 -7.5534992 -0.39220899
-0.133573 -7.5933261 -0.46950901
-0.116044 -7.5936632 -0.58438098
-0.081326 -7.6286302 -0.66509199
-0.046201002 -7.6470408 -0.53683001
-0.028608 -7.6666222 -0.39801601
-0.019692 -7.6407461 -0.30857599
-0.010937 -7.6860819 -0.21154501
-0.0013229999 -4.950573 -0.065029003
-0.00205 -7.6733379 -0.100794
0.0046310001 -5.2199831 0.012512
0.015768999 -7.7185502 0.148762
0.024704 -7.7265558 0.28904301
0.033730999 -7.7515082 0.43894699
0.042654999 -7.744987 0.59596598
0.033824001 -5.0774632 0.498631
0.051743999 -7.7674632 0.76280099
0.038922999 -4.9799271 0.599222
0.060626999 -7.7568121 0.93335801
0.046117999 -5.1402488 0.736857
0.36083701 -26.549435 6.4242058
0.31568199 -5.835813 3.224787
0.56190097 -7.611238 0.91830599
0.57086903 -7.6129031 0.74970502
0.57899398 -7.6034451 0.58675897
0.58904701 -7.6190209 0.43272799
0.59791899 -7.6192288 0.28590199
0.60458398 -7.5915489 0.146778
0.617091 -7.6370869 0.018364999
0.62569898 -7.633739 -0.10061
0.63682902 -7.660665 -0.211573
0.64506203 -7.6526008 -0.31014901
0.65559602 -7.671669 -0.39972699
0.66435701 -7.6695819 -0.47592601
0.68004 -7.6451259 -0.59059501
0.77180201 -7.6708879 -0.40024501
0.80830902 -7.76336 -0.102528
0.81902099 -7.7789798 0.018748
0.825858 -7.7577162 0.150362
0.87060702 -7.8338561 0.774041
0.88110501 -7.8457332 0.94996399
0.878483 -6.5850339 3.813293
0.84626698 -6.1274228 4.0124369
0.97587597 -6.7218781 4.752697
1.014631 -6.7687979 4.6862478
0.93825799 -6.1621628 4.1313319
1.2492959 -8.2049551 5.5008931
1.418048 -7.8455262 0.78293401
1.426707 -7.8417091 0.61330497
1.441308 -7.870295 0.45308101
1.454055 -7.8884988 0.30006999
1.465017 -7.8967619 0.15479399
1.478072 -7.9161701 0.019301999
1.483391 -7.8941441 -0.10551
1.521426 -7.8953972 -0.497091
1.53785 -7.882648 -0.61798501
1.56884 -7.8483791 -0.69774699
1.607205 -7.8514671 -0.56260097
1.628159 -7.8613548 -0.41678399
1.637287 -7.8597322 -0.32423201
1.6503561 -7.8769202 -0.221505
1.660563 -7.8802452 -0.105785
1.674358 -7.9005022 0.019357
1.6827641 -7.8951612 0.15558399
1.692055 -7.8940468 0.30201399
1.706154 -7.9152331 0.458509
1.718689 -7.9288812 0.62427598
1.723804 -7.9083748 0.79485703
5.3218269 -23.62726 5.8598132
5.4757061 -24.051472 7.2560558
5.5824332 -24.132965 9.2643061
5.6485682 -24.164032 10.601107
1.242397 -5.2328472 2.7111421
2.072077 -8.6383667 4.9016762
1.7404031 -7.2188239 4.2623248
1.8957959 -7.784245 4.9240952
1.8829679 -7.6928692 5.008976
2.4308989 -9.8818731 6.6012282
2.126873 -7.9671021 4.7332621
2.3769751 -8.7814856 4.5859389
6.5670028 -23.823456 9.9019365
6.68257 -24.133732 9.3658962
6.6972098 -24.078152 8.681179
6.724782 -24.069433 8.014967
6.738606 -24.011732 7.3362021
2.398653 -8.3975286 1.672014
2.4003429 -8.3667955 1.454546
2.400897 -8.3323622 1.242994
2.4097409 -8.3268013 1.043025
2.416265 -8.3133307 0.85017401
2.4230981 -8.3010101 0.665398
2.4303801 -8.2902555 0.48920801
2.441319 -8.292038 0.32336
2.447643 -8.2781229 0.166375
2.453963 -8.2643375 0.020663001
2.4681699 -8.2770948 -0.113456
2.472441 -8.2564907 -0.237215
2.4820559 -8.2538538 -0.34808099
2.4894111 -8.2437305 -0.44706199
2.495235 -8.2285748 -0.53158402
2.5101781 -8.2094307 -0.66056401
2.54987 -8.2032576 -0.74890202
2.5876341 -8.1908398 -0.60300601
2.6106961 -8.1977434 -0.44664699
2.626739 -8.21525 -0.34832299
2.64411 -8.2367287 -0.238095
2.6599431 -8.2531996 -0.113903
2.6755569 -8.2688837 0.020831
2.6849489 -8.2652197 0.167493
2.7039659 -8.2911196 0.32623801
2.712661 -8.2852631 0.49367401
2.720757 -8.277565 0.67046201
2.739011 -8.3007278 0.85838401
2.758286 -8.3267708 1.055449
2.776238 -8.3485651 1.261156
2.7880559 -8.3518372 1.4713579
2.8046341 -8.3692598 1.689878
8.0048819 -23.704988 6.0535879
8.2966185 -24.199903 8.8862572
2.9850099 -8.6741457 3.430939
2.991576 -8.6606798 3.6714749
3.3071909 -9.4679747 4.803576
3.1120679 -8.7149353 5.6875281
1.9090281 -5.3265591 3.578603
3.826663 -10.638403 7.3337302
2.0701029 -5.4563909 3.586777
2.0988181 -5.5128841 3.509639
2.1548281 -5.6404152 3.4658151
2.209552 -5.7636671 3.4059551
9.4308243 -24.34782 12.506144
3.583215 -9.1878099 4.2129431
3.608351 -9.2208071 3.9675441
3.7307391 -9.5012264 3.8176811
3.5049851 -8.8660307 3.0575669
3.5595651 -8.9737864 2.839829
3.6462409 -9.1613874 2.641434
3.701931 -9.270153 2.415133
3.5581069 -8.8802252 2.0703659
3.349556 -8.3318214 1.719211
3.353848 -8.3147535 1.4982229
3.367779 -8.3215914 1.286839
3.3691809 -8.2974644 1.077549
3.375947 -8.2866716 0.878712
3.37517 -8.257473 0.68641901
3.741847 -9.154563 0.76099199
3.7571199 -9.1616793 0.56072599
3.738771 -9.0870428 0.36758301
3.73632 -9.0513391 0.188728
3.7405629 -9.0320444 0.023432
3.7426159 -9.0075769 -0.12812699
3.7534659 -9.0043039 -0.26849699
3.7545049 -8.9776039 -0.392993
3.7508891 -8.9399529 -0.50331402
3.5325861 -8.3924417 -0.56292999
3.5214069 -8.3121662 -0.694628
3.678194 -8.5717802 -0.81317002
3.834806 -8.8240643 -0.67541498
3.7870431 -8.65938 -0.49066299
3.8893721 -8.8654747 -0.39097601
3.8884189 -8.8355684 -0.26569
3.9507799 -8.9213142 0.023386
3.9583349 -8.9105434 0.18791801
3.9673941 -8.9032211 0.36463001
3.9724541 -8.8869715 0.55122799
4.0054941 -8.933157 0.75331998
4.061461 -9.0300436 0.97233999
4.1585269 -9.2173996 1.216723
10.816227 -23.754354 4.9970508
11.222838 -24.274517 8.5768852
11.131015 -24.00293 9.1904278
11.399804 -24.21417 12.818895
11.450885 -24.249796 13.518347
4.5412459 -8.7360954 3.420037
4.5751719 -8.7765207 3.174226
4.5934229 -8.786706 2.916589
4.6679549 -8.9041233 2.693186
4.6843209 -8.9102459 2.4355919
7.6525822 -14.274186 1.24625
5.3024588 -9.8630867 0.63411099
4.7850518 -8.7302408 -0.51684499
4.794879 -8.724164 -0.61544001
4.7121382 -8.5267954 -0.74963701
4.6538548 -8.3299313 -0.83184302
4.8364692 -8.5633993 -0.69040102
4.9552708 -8.703001 -0.40445301
4.439415 -7.2782121 4.704083
4.4252572 -7.2361288 4.868669
5.0882769 -8.2986441 5.7916212
5.0706968 -8.2485123 5.9509082
5.041049 -8.1790276 6.0764098
5.0147738 -8.1153049 6.1881752
4.980689 -8.0185366 6.3704271
4.9516931 -7.8899841 6.5179019
5.1612682 -8.0982828 6.3649478
4.4552898 -6.9727311 5.3675108
4.3281579 -6.7564988 5.0747218
5.7212539 -8.707305 4.1747179
6.7599888 -9.761898 -0.61644
6.023025 -8.6761484 -0.65295601
5.9466701 -8.5239258 -0.79973602
5.9449959 -8.4378681 -0.89984602
6.0469398 -8.4986067 -0.732207
6.4666171 -9.0439711 -0.57719302
6.5224419 -9.0997438 -0.45214999
5.553874 -7.275528 5.0504751
5.5291409 -7.0551252 6.271955
6.723619 -8.4376278 6.9984989
6.6854358 -8.3105183 6.1221762
9.4734707 -11.528355 5.1830478
12.164769 -14.323995 0.362194
12.192627 -14.323195 0.045085002
8.0239878 -9.3820391 -0.339782
8.0858831 -9.3882446 -0.76599902
7.4747481 -8.6381922 -0.87898803
7.5116649 -8.6000795 -0.99546701
8.1254501 -9.2163763 -0.86252803
8.1094742 -9.1554508 -0.63494903
8.2888861 -9.3362293 -0.50420499
12.771977 -14.318896 -0.252038
12.818254 -14.337366 0.046096999
12.908565 -14.371301 0.72264397
13.06707 -14.413052 2.340862
10.108586 -10.944553 4.7781358
7.1366582 -7.6021681 5.2561851
11.510072 -12.175727 9.617363
6.1539159 -6.4947019 5.3232598
6.8700809 -7.002562 6.5019588
10.527277 -10.533095 7.5068421
10.420107 -10.401736 7.052012
13.965514 -13.27819 -0.25312901
9.519556 -8.988224 -0.67969102
9.1790438 -8.5268984 -1.092217
9.8399382 -9.0562201 -0.938788
9.9779224 -9.1405716 -0.70250303
10.027738 -9.1648617 -0.54863298
10.067105 -9.1794577 -0.374971
11.06037 -9.6028528 6.6395898
6.748549 -5.5507679 5.5263901
10.709799 -8.6231995 5.8739209
11.358192 -9.0803452 5.0511422
12.275006 -9.310379 -1.185487
11.522223 -8.1443653 4.9011898
11.440863 -8.0273428 5.970562
12.801407 -7.2748909 3.1865611
6.9739861 -3.7521789 5.344491
6.828969 -3.6334209 5.412571
7.9404788 -4.1776962 6.14325
7.7490239 -3.1996911 5.4382582
7.6604209 -3.1423299 5.5878291
7.3145418 -2.9608591 5.5214992
7.6335688 -3.0488501 5.6280169
7.8107018 -3.098597 5.5693979
7.9110851 -3.1278069 5.5182571
8.3734846 -3.299403 5.692091
7.3685799 -2.8935599 4.865449
7.3947101 -2.8939281 4.724515
7.8267689 -3.0316441 4.4348469
7.8990102 -3.049082 4.268146
14.365233 -4.5342941 4.0353799
12.058685 -3.74475 4.7225332
12.051775 -3.7272511 5.0547409
10.988391 -3.384409 4.9118271
10.464728 -3.2098269 4.9617329
10.690356 -3.265444 5.3539128
7.982688 -2.428241 4.206028
7.8797722 -2.3869469 4.3502889
7.8367972 -2.363987 4.516634
7.7670922 -2.333128 4.6551042
7.6267009 -2.281296 4.7362752
7.6302299 -2.272706 4.8932009
7.6205821 -2.260205 5.0271492
7.6951618 -2.2725971 5.2047939
6.0561342 -1.773272 4.2586989
7.6479282 -2.2393579 5.3780541
6.1124969 -1.758983 4.4505649
8.210887 -2.362833 5.9784222
6.042326 -1.708443 4.2992582
6.114325 -1.7134711 4.2086768
7.8061671 -2.1778221 5.2570372
7.6742659 -2.1314249 5.0373049
7.7031689 -2.129811 4.9120512
7.7596889 -2.135746 4.7884288
7.910337 -2.167336 4.7078729
7.8515201 -2.141413 4.4905462
8.8339109 -2.409348 5.0524082
10.529472 -2.8586669 5.7648811
10.747899 -2.9045589 5.6122389
10.478969 -2.818835 5.1975379
11.80784 -3.161607 5.5409741
8.2780676 -2.2061851 3.6598079
8.5236273 -2.2610359 3.533484
8.4501638 -2.2310531 3.2687449
13.086644 -3.4389329 4.7000499
13.123988 -3.432466 4.3505888
14.095513 -3.6166999 3.149333
13.960383 -3.564739 2.7584851
12.948786 -2.65712 3.1982279
12.271641 -2.503459 3.3550971
12.174846 -2.4690101 3.654273
8.747736 -1.742329 3.336005
8.5203209 -1.686749 3.4802949
8.6431417 -1.70065 3.763128
8.5238819 -1.666919 3.9370191
8.6991472 -1.690709 4.2445979
6.1995521 -1.197445 3.182879
6.4290118 -1.234033 3.4589281
6.4693069 -1.2339799 3.633985
6.1096249 -1.1580319 3.569361
6.0520272 -1.139836 3.6640551
5.5202489 -1.033054 3.451683
6.6733708 -1.248848 4.1727042
6.4927688 -1.2072591 4.1767302
6.033988 -1.114706 3.9803281
5.8492498 -1.066555 4.0125632
5.7922888 -1.028412 4.1163278
6.01192 -1.038655 4.1772299
6.0756149 -1.035143 4.0849252
5.953331 -1.007206 3.916656
6.764504 -1.136376 4.3381548
5.5169482 -0.91363698 3.327101
6.6123681 -1.095045 3.987715
5.6088562 -0.922176 3.2627051
6.9310532 -1.139564 4.0318351
6.4532652 -1.053314 3.607897
6.051887 -0.98059702 3.2393579
6.1714201 -0.992612 3.1509199
7.9108791 -1.272387 4.0390291
7.9860668 -1.274981 3.8735311
6.6280389 -1.05029 3.0419409
8.6673841 -1.363133 3.7481999
8.9202003 -1.392295 3.617543
9.1550684 -1.418081 3.4649191
9.0330782 -1.367008 2.687438
9.2270231 -1.3744611 2.257103
11.668708 -1.133473 3.140584
12.708697 -1.21962 3.755584
12.351868 -1.156451 4.3092542
9.0607529 -0.83771998 3.403264
11.91468 -1.101583 4.475214
11.824141 -1.079366 4.7575569
6.5288949 -0.57308298 3.1391709
6.1713772 -0.534491 3.1225619
6.4230628 -0.54878497 3.4061379
6.2451038 -0.52627599 3.4581311
6.4891772 -0.53926599 3.7376239
6.5190158 -0.53412402 3.8915889
6.3604221 -0.51370603 3.9218919
6.1485052 -0.48941401 3.900918
6.8683739 -0.53868902 4.4690261
8.9965553 -0.68461299 6.0890498
5.560636 -0.39719799 3.9007659
8.431344 -0.56294298 5.7856379
6.9175811 -0.43769401 4.4962358
5.7925291 -0.35976499 3.670541
6.5938158 -0.40184599 4.0601258
6.7299452 -0.402309 4.0112362
6.2449789 -0.36605099 3.5907681
6.4850669 -0.37256801 3.584224
7.7840028 -0.44719201 4.3021321
6.5492711 -0.368637 3.4659359
6.4436569 -0.35518599 3.2530999
6.732698 -0.36328799 3.229454
10.505054 -0.55462301 4.7685161
10.772607 -0.54368001 4.3220081
11.193225 -0.55189598 4.191462
11.377228 -0.54772502 3.9565201
12.192202 -0.57278901 3.9144919
11.31139 -0.51826298 3.3308661
11.625111 -0.51911002 3.117296
6.3971968 -0.278229 1.5492589
6.1674538 0.018152 1.0306261
6.3181958 0.025922 1.2096339
6.2775831 0.033045001 1.358598
6.3622909 0.04087 1.5393831
6.2610521 0.047423001 1.67729
11.726697 0.102434 3.4496739
6.1815572 0.061182 1.9825931
6.0008969 0.066359997 2.0845721
5.97434 0.073002003 2.2346289
6.1482072 0.082273997 2.463768
10.923714 0.15886 4.6670799
10.30893 0.161888 4.6735582
7.098629 0.119728 3.400517
7.073791 0.12752201 3.566391
8.1275387 0.155955 4.2951632
6.2545619 0.127288 3.4518509
6.02881 0.129695 3.4613349
5.9016719 0.13382301 3.5121961
5.944097 0.141688 3.6543231
6.1398349 0.153484 3.8843479
5.7129798 0.14945801 3.7071371
6.6187382 0.173154 4.2948799
5.7982841 0.165161 3.914669
7.611608 0.25220999 5.3288679
5.7470279 0.217153 3.937691
5.7609372 0.23108099 3.8213999
6.14428 0.25360101 3.9890361
6.7889481 0.288104 4.2975311
5.870348 0.25595701 3.611387
5.737596 0.256841 3.4170921
6.4561729 0.29651701 3.7097459
6.421226 0.30239201 3.547024
6.693316 0.322992 3.540683
8.4286861 0.40673399 4.458673
7.1813679 0.35490999 3.6244581
6.0799499 0.30755201 2.9158399
6.0414181 0.31263399 2.7422061
6.2316999 0.329743 2.6658931
6.184278 0.33443299 2.481621
5.8572068 0.32356399 2.1939931
6.92802 0.382718 2.595099
5.9455252 0.33537501 2.0684941
6.1012912 0.35126701 1.959995
6.0143781 0.353268 1.772248
5.8026328 0.34759799 1.557225
5.6249199 0.34350601 1.36348
5.8304811 0.36285201 1.2642601
6.458499 0.40947199 1.238968
6.6723938 0.43081 1.117322
11.334725 0.75828302 1.366887
11.253703 0.76598501 1.107699
11.249093 0.79192799 0.63857698
11.768519 0.96594697 -0.908602
10.669124 0.97557902 -0.75209498
10.349588 0.97060901 -0.539657
10.466353 0.99381602 -0.42458901
12.117726 1.1790299 -0.159926
12.116365 1.193096 0.029182
10.934808 1.089583 0.211794
7.8490181 0.80972898 0.60716701
10.929809 1.140376 1.079161
8.6611061 0.91383201 1.047923
6.2079558 0.66229701 0.89492702
6.0073748 0.64795101 1.009694
5.7860022 0.63086897 1.1143
5.907639 0.65108103 1.286258
5.6751442 0.63212502 1.381588
5.5509911 0.62476301 1.496416
5.5152712 0.62723303 1.632838
5.5227628 0.63459402 1.782868
6.5775561 0.755795 2.123378
5.9527888 0.69101399 2.081619
6.8817391 0.79884899 2.406462
5.9666882 0.69965398 2.2468901
5.744729 0.68040299 2.317965
5.969799 0.71409398 2.568465
6.032969 0.72876102 2.7545919
6.9766812 0.85099399 3.3663909
6.6434531 0.81818199 3.3741851
6.2410259 0.77598298 3.3229821
6.2792578 0.78815597 3.4919491
5.8972011 0.74716097 3.412051
6.3354359 0.810175 3.8000641
6.266963 0.808819 3.8836679
7.0282588 0.90707302 4.3554459
7.3264809 0.95421702 4.6727629
7.960906 1.036845 5.077394
6.6651988 0.87597698 4.3607292
6.7887039 0.90825999 4.6223078
6.7905908 0.94067699 4.7968411
6.721334 0.96294898 4.648962
6.6168199 0.963682 4.4318728
6.9550018 1.021189 4.5599089
7.4383192 1.100983 4.7556138
6.4688411 0.965177 4.0198078
7.3072538 1.0902719 4.5408068
6.047452 0.90948802 3.63849
6.169611 0.93519098 3.5818069
6.5857081 1.006102 3.6760161
6.3547912 0.97838199 3.3972621
6.7018652 1.0398 3.4187479
6.628602 1.036321 3.2134709
6.2331219 0.98191202 2.8602841
6.3594422 1.009394 2.7507491
6.3704281 1.0187269 2.585022
5.9273911 0.954943 2.2454889
5.7437911 0.932221 2.021244
6.1412678 1.004056 1.995725
5.798892 0.95499802 1.728788
5.9023852 0.979096 1.602767
5.6935272 0.951249 1.396638
5.6846309 0.95655203 1.24755
5.9728169 1.012192 1.1598051
5.9162402 1.0096771 1.002936
6.6778431 1.147639 0.97126597
6.288497 1.088261 0.76790297
7.618011 1.327458 0.759381
7.717947 1.354113 0.602947
5.7476611 1.0153199 0.330511
5.771337 1.026419 0.21928699
5.728816 1.025733 0.112169
5.9048281 1.06433 0.014381
5.7712598 1.047179 -0.077046998
6.39573 1.168174 -0.17894299
6.1704688 1.1344399 -0.253373
5.995007 1.1093839 -0.316515
6.4564271 1.20254 -0.40601501
5.9432778 1.121259 -0.46538699
8.1183643 1.531611 -0.63570702
5.8870788 1.139033 -0.52274603
5.7026429 1.1308759 -0.40812001
5.8727932 1.178817 -0.31096801
5.6267452 1.1362309 -0.23182499
5.9491892 1.208539 -0.16708501
5.6340652 1.15135 -0.075537004
6.6959682 1.376461 0.016385
5.5456309 1.146718 0.109144
5.6275439 1.170475 0.21502499
5.9631472 1.247506 0.34498399
6.5322251 1.374493 0.51364499
6.5594659 1.388185 0.65842301
5.1147089 1.08864 0.62920702
6.2926641 1.347016 0.92245501
6.0804548 1.30898 1.039362
5.776825 1.25064 1.1315989
5.6469321 1.229398 1.250723
5.6578808 1.238669 1.401341
5.4893808 1.2083991 1.505731
5.663178 1.253545 1.706212
5.5889859 1.243933 1.8363121
5.7780542 1.293048 2.0566821
5.4498329 1.226234 2.089251
5.443121 1.231367 2.2361369
5.8796668 1.337293 2.5759301
5.8733168 1.343014 2.7310591
