# .PCD v0.7 - Point Cloud Data file format
VERSION 0.7
FIELDS x y z
SIZE 4 4 4
TYPE F F F
COUNT 1 1 1
WIDTH 1547
HEIGHT 1
VIEWPOINT 0 0 0 1 0 0 0
POINTS 1547
DATA ascii
2.6739249 -8.3093777 0.85721099
2.6832819 -8.3055067 0.67161202
2.6860659 -8.2813292 0.49299601
2.7039509 -8.3037367 0.32668701
2.704396 -8.2725534 0.167743
2.7169509 -8.278533 0.020884
2.7269211 -8.2765951 -0.114467
2.735076 -8.2691154 -0.23971801
2.7361979 -8.240531 -0.35066301
2.7486889 -8.246253 -0.45126101
2.7573209 -8.2403297 -0.53719902
2.7658291 -8.2026606 -0.66608799
2.8075609 -8.2008514 -0.75567597
2.853188 -8.2099581 -0.61014903
2.874718 -8.2105761 -0.45162401
2.890049 -8.2238588 -0.35203499
2.908138 -8.2448378 -0.24062601
2.9178691 -8.2419891 -0.114848
2.9400311 -8.2741613 0.021047
2.950078 -8.2720642 0.169265
2.963511 -8.2794552 0.32896701
2.981544 -8.299572 0.499385
2.992187 -8.2989826 0.67882401
3.0036931 -8.3007975 0.86688602
3.023386 -8.325119 1.065722
3.0344999 -8.3256598 1.270237
3.0541899 -8.3496599 1.485697
3.0729179 -8.3708401 1.707177
3.0871761 -8.379673 1.9326659
3.5395751 -9.5397396 2.72579
3.312072 -8.832551 3.2766471
9.0019693 -23.922119 9.559617
3.6642809 -9.7035036 4.1561208
2.483434 -6.4632149 3.6584101
2.2984509 -5.9611831 3.5252841
2.238168 -5.7849159 3.560401
2.1547799 -5.5502949 3.5423629
3.4610839 -8.915081 5.6898699
2.11588 -5.4314899 3.582588
2.072608 -5.3022881 3.6005189
2.0408089 -5.203177 3.6255059
2.0093541 -5.0883622 3.692028
3.037169 -7.6911359 5.5805569
1.989331 -4.9702511 3.7459741
3.062547 -7.6516309 5.7668729
3.119756 -7.6913061 5.682817
4.1258321 -9.9725151 6.4210448
4.0928569 -9.8605471 6.12815
2.1178269 -5.0856628 3.0397539
4.0570679 -9.6480684 5.0130839
3.9109571 -9.1815834 3.7325561
3.940599 -9.2215672 3.4833651
3.959373 -9.2359543 3.2227831
3.975497 -9.2440615 2.9600489
3.935883 -9.1228514 2.661617
3.9597969 -9.1492052 2.412076
3.967973 -9.1391163 2.1562431
3.9764659 -9.1297493 1.906495
3.975076 -9.0978317 1.659089
3.9820809 -9.0852413 1.421922
3.998122 -9.0932121 1.195219
3.9788511 -9.0210819 0.96823502
3.9651799 -8.9620275 0.75408697
3.9635041 -8.9303036 0.55326402
3.9765899 -8.9319429 0.36575201
3.991823 -8.9383125 0.18866999
4.009829 -8.9508429 0.023508999
4.0132751 -8.9308653 -0.128613
3.9875109 -8.8461447 -0.267066
3.9511149 -8.7384377 -0.38730299
3.8881559 -8.5727997 -0.488693
4.0153308 -8.8260412 -0.59945899
3.923465 -8.4678154 -0.813604
3.8890531 -8.2928247 -0.64299202
3.723799 -7.8929191 -0.453076
4.1151118 -8.6703682 -0.26414999
4.3535428 -9.0108299 0.77004498
4.3354998 -8.9470835 0.97634703
4.3367701 -8.9234161 1.193786
4.3619022 -8.9487791 1.42703
4.3829451 -8.9656363 1.667659
4.3998432 -8.9739103 1.913452
4.4184771 -8.9856033 2.167031
4.446866 -9.0170107 2.4325349
4.4699202 -9.0353518 2.7004321
12.006355 -24.058601 9.3397236
3.3753581 -6.628593 3.9303031
4.7515869 -8.6512337 4.7275481
4.485692 -8.1447592 4.2148719
4.7862172 -8.6666431 4.2294431
5.0259838 -9.026557 3.5886929
8.2004309 -14.3347 1.621771
5.025537 -8.5990238 -0.40223399
5.0504851 -8.6187973 -0.51860797
5.0192041 -8.5426998 -0.61254001
5.1736588 -8.7590933 -0.78277999
5.3487272 -8.9604187 -0.90974599
5.047986 -8.3682947 -0.686059
5.1413479 -8.4785957 -0.514772
5.220336 -8.586422 -0.40582499
5.6157141 -8.7724371 4.1736021
5.1463308 -7.8574672 5.7728782
4.3467288 -6.6031709 5.1280599
4.3445091 -6.5009022 5.4710479
4.3895831 -6.4543762 5.0633001
5.5160069 -8.0703468 6.0079818
5.2775378 -7.6641049 5.1345372
9.5562468 -13.774907 8.0300064
5.9814019 -8.5793819 4.4679041
10.355957 -14.31685 1.000578
10.397731 -14.339588 0.66260701
6.6932769 -9.1412449 -0.311829
6.3083348 -8.5529604 -0.65702897
6.309063 -8.5125856 -0.81531
6.4416671 -8.60777 -0.93727797
6.438395 -8.5207653 -0.74971402
6.9445791 -9.1245251 -0.463085
7.1032119 -9.288187 -0.153595
7.6529908 -9.9830894 0.03015
7.0511899 -8.8744287 3.937161
5.193572 -6.1618419 5.3412299
5.8345618 -6.8576889 5.357007
7.5129209 -8.8096972 6.6458821
6.733005 -7.8398609 5.2093711
6.8912969 -7.9867282 4.7817268
7.6736951 -8.831336 4.3757262
10.030926 -11.463568 4.4808512
12.941507 -14.381917 0.37288901
8.3558187 -9.1785126 -0.64438498
7.9190688 -8.6785507 -0.72632301
7.8216829 -8.5321102 -0.89064997
8.1319418 -8.7885313 -1.043842
8.0478859 -8.6173544 -0.82772398
8.4184437 -8.972414 -0.63873398
8.9747467 -9.5431833 -0.52906197
8.970499 -9.5165901 -0.35994899
9.1001921 -9.6318083 -0.174059
5.989553 -6.0105319 4.4834328
6.9853768 -6.8174911 6.8297801
6.3750601 -6.1074648 5.5835829
6.138721 -5.8131862 4.467082
8.1685476 -7.5929422 3.576731
13.174844 -12.048704 2.5592051
10.29765 -9.2435532 -0.181769
10.319503 -9.2415724 -0.381271
10.333149 -9.2322416 -0.559609
9.6914654 -8.5784636 -0.99590999
9.7896929 -8.5847721 -1.13512
9.8401861 -8.5486794 -0.91504902
6.8586569 -5.4997258 5.7027431
6.8885031 -5.3295698 5.3529372
11.048695 -8.3453655 5.178637
12.413196 -8.7797651 -1.3254941
11.991303 -7.9489379 5.3807659
16.60186 -9.5173569 -0.77283102
16.595377 -9.4881363 -0.99242198
16.596172 -9.4630842 -1.181085
16.838634 -9.2936811 -0.99848801
16.905586 -9.1526537 1.088605
8.0590525 -4.0421238 6.0845742
7.9978251 -3.9650171 6.2461562
8.0668154 -3.952651 6.1505952
8.1163254 -3.9535561 5.983747
8.052165 -3.9107461 5.8066859
7.9788432 -3.091897 4.5212741
7.8752918 -3.041256 4.6581869
7.4766741 -2.857456 4.9193821
7.5995922 -2.8943369 5.1431398
7.5032001 -2.8476541 5.2058821
8.0504026 -3.033989 5.805994
7.8769522 -2.9269359 5.8798141
7.7524538 -2.8398061 5.6528749
8.2391777 -2.996428 5.8108258
7.6667619 -2.7781889 5.28969
7.565341 -2.7315159 5.0870161
7.644609 -2.750107 4.9932122
7.6911359 -2.7567761 4.8610349
7.839252 -2.7996111 4.7780662
7.851346 -2.793654 4.5982809
7.9718208 -2.8261111 4.4689498
10.613219 -3.748652 5.6739068
10.41313 -3.664403 5.2873888
10.705083 -3.753196 5.1421518
14.535414 -4.1671009 3.272438
14.136188 -3.9642091 5.0997052
8.361001 -2.334219 3.246676
8.7378502 -2.428494 3.633909
8.4890137 -2.3487339 3.7627349
12.03256 -3.3141429 5.6574001
10.499162 -2.878684 5.214385
10.548481 -2.8790591 5.5118589
9.6688814 -2.62694 5.293973
10.564081 -2.8569889 6.038444
8.9391203 -2.4064081 5.3137188
7.9865012 -2.1400199 4.9193239
8.0021152 -2.1342609 5.0900812
7.6727901 -2.0368979 5.0207348
7.6260972 -2.0150261 5.116632
6.3068228 -1.650798 4.3996668
7.7462058 -2.027554 5.4037871
6.1670179 -1.583654 4.455152
6.308301 -1.58877 4.4540539
6.421597 -1.601464 4.3865709
8.9649391 -2.2247009 5.9917169
8.7371464 -2.1359179 5.3513818
9.2268362 -2.2442939 5.4506192
10.742072 -2.5996449 6.09835
9.7091932 -2.3377669 5.2766881
8.6344395 -2.0683839 4.475657
11.40201 -2.7313571 5.9102259
11.904273 -2.837081 5.861485
12.386776 -2.936898 5.7705231
8.3525171 -1.970136 3.6660941
8.6096315 -2.0202451 3.5435259
8.4899549 -1.981778 3.2606881
13.436088 -3.1198881 4.7912679
12.19698 -2.802367 3.681365
14.184273 -3.2416289 3.8977189
13.977438 -3.1602671 3.1013179
13.100262 -2.2977369 3.2179821
9.0779238 -1.527262 3.688585
8.8462992 -1.477746 3.8314841
8.4577761 -1.402765 3.8862369
6.719646 -1.1064709 3.261852
6.5830488 -1.076139 3.3624821
8.0433064 -1.314849 4.1083498
6.457478 -1.047925 3.456593
6.3897452 -1.029319 3.5711801
6.1506791 -0.98349202 3.575335
5.6570692 -0.89782798 3.4078889
5.5190611 -0.86936498 3.4338801
6.4708838 -1.0192961 4.0260911
6.6458802 -1.038965 4.2542348
6.682838 -1.0367939 4.3868508
5.9889412 -0.914922 4.0886421
6.0269599 -0.89212102 4.2630939
6.2263479 -0.89213097 4.306603
6.2225518 -0.876854 4.1650329
6.7442431 -0.942393 4.417326
5.5855289 -0.77388 3.566309
6.8956828 -0.95540297 4.4028311
5.6946549 -0.78226101 3.5328441
5.7853308 -0.78788197 3.4738481
5.8676958 -0.79216897 3.3986089
6.771872 -0.91423798 3.9223149
6.0773511 -0.81328899 3.3832481
6.1354332 -0.81382102 3.2701919
6.2000699 -0.81506902 3.1522701
8.944726 -1.1442291 3.8523049
9.3119469 -1.169261 3.5101089
9.1106939 -1.133245 3.189038
9.3257732 -1.138041 2.763634
12.048447 -0.80621499 3.552115
11.496178 -0.75583899 3.694917
11.252593 -0.71359301 4.2170348
11.431605 -0.71160603 4.589437
10.993059 -0.64586902 5.2744298
6.7530012 -0.38889101 3.4097459
6.4847789 -0.36589301 3.431833
6.5645461 -0.36274001 3.6277039
6.4907818 -0.351107 3.7311521
6.2193351 -0.32917401 3.705472
6.743557 -0.349071 4.1501889
6.09339 -0.30832499 3.858691
5.9006882 -0.29169899 3.832304
6.4939408 -0.321026 4.2176018
5.732111 -0.27002701 3.872714
6.5369091 -0.30794001 4.4164491
5.582067 -0.236972 3.9093649
5.7123942 -0.215931 3.913964
5.955204 -0.211257 3.9495709
5.7878742 -0.198595 3.756659
6.5760241 -0.225638 4.2682142
5.8300681 -0.193268 3.689249
6.0151248 -0.192403 3.6988311
6.2508531 -0.192681 3.7208109
6.1905308 -0.18362901 3.554925
6.526381 -0.186 3.602582
6.7215819 -0.183755 3.55283
6.793117 -0.177809 3.4254999
10.534329 -0.26349899 5.0472102
10.657826 -0.25421 4.832509
11.190513 -0.25390199 4.7817931
6.1541052 -0.118182 2.138057
10.93213 -0.209938 3.7980361
6.4521942 -0.116415 2.0696299
6.3720808 -0.107571 1.874688
6.2479029 -0.09821 1.673926
6.297606 -0.091679998 1.523862
11.482154 0.35299799 1.646683
6.2156072 0.198309 1.039197
6.4090338 0.211927 1.227686
6.2554359 0.214127 1.354579
6.1068621 0.216139 1.478475
5.7406211 0.20978899 1.538853
6.368464 0.240136 1.874688
6.1572132 0.239337 1.97618
5.9332209 0.237528 2.062588
6.2588968 0.25784299 2.342875
6.2591758 0.26514199 2.5102611
6.0241261 0.262191 2.5759301
5.9952469 0.26790601 2.720325
6.2065649 0.284578 2.975884
6.1412621 0.28872699 3.0991549
7.0653501 0.33217299 3.565491
8.396924 0.404544 4.441855
9.9812832 0.48087499 5.2799578
6.7082391 0.33100301 3.7059691
6.4530182 0.325919 3.708751
6.121902 0.316329 3.647182
5.894114 0.31141901 3.627619
5.853478 0.31608599 3.707422
6.518806 0.359613 4.2350168
7.842525 0.45089999 5.3014169
6.8234229 0.42412299 4.7836552
7.5291529 0.467989 5.2784171
7.8393688 0.52383202 5.3794398
8.5589247 0.57191402 5.8732052
7.881433 0.54503697 5.2362618
5.7904038 0.407186 3.765367
5.7931318 0.41413599 3.673213
5.9055119 0.42907 3.639138
6.0328698 0.44536299 3.5991189
6.3782892 0.47830701 3.6714139
6.252635 0.47619301 3.4600639
6.4687099 0.500202 3.4280951
6.2297869 0.489012 3.1500199
7.004282 0.549806 3.5416341
6.1862721 0.49282199 2.9724281
6.0207558 0.486669 2.7380769
5.7997732 0.475593 2.4859669
6.7997022 0.55758899 2.9145679
6.0776482 0.50548202 2.4436829
6.1832461 0.521492 2.320806
5.7479081 0.49150401 2.003854
5.8656268 0.50842899 1.8882281
5.6900802 0.49986801 1.680249
5.7150912 0.50875998 1.5370409
5.8130002 0.52427697 1.412159
5.8924789 0.53834099 1.280547
6.1339169 0.56758898 1.179361
5.8852558 0.55146998 0.987773
8.8671389 0.84126699 1.276764
11.194368 1.075193 1.3531491
7.9837742 0.77617598 0.787723
8.3521795 0.85118198 0.161808
8.2731361 0.85282999 0.019935001
8.7846241 0.91586202 -0.116017
8.5583048 0.90232402 -0.236857
8.6131344 0.91821402 -0.34981599
10.373868 1.118099 -0.54167902
10.388567 1.1319 -0.64604503
10.209585 1.136387 -0.790452
8.506156 1.026877 -0.601466
8.0820494 0.99473101 -0.422746
7.9572692 0.98875099 -0.323829
8.3870745 1.052045 -0.232648
7.3992801 0.936876 -0.097970001
6.884985 0.87987798 0.016636999
7.257524 0.93606198 0.14103501
8.0514069 1.047958 0.303734
10.893841 1.430786 0.622181
8.0703773 1.0694979 0.62642401
8.3925867 1.122112 0.83150703
9.4850702 1.279388 1.151616
7.4877601 1.018845 1.083221
5.9577608 0.81770498 1.004914
5.871357 0.81279099 1.134796
5.9840798 0.83548498 1.307622
5.7969089 0.81621403 1.416392
5.937983 0.843045 1.606648
6.0722022 0.86929297 1.804419
6.1994991 0.894871 2.008857
5.9359002 0.86385602 2.0835879
5.7826881 0.84841502 2.185936
6.38837 0.94486499 2.587626
6.3368258 0.944758 2.736999
6.2714481 0.94245398 2.8747339
6.37219 0.965168 3.0869019
6.8103108 1.039616 3.472764
6.7472792 1.03801 3.6070211
6.6769142 1.03513 3.7281921
6.5611911 1.02499 3.811799
6.4137602 1.009596 3.8629551
6.4731722 1.026649 4.0281858
7.650496 1.222479 4.8999338
6.6470032 1.070055 4.367259
6.4389081 1.051896 4.4030228
6.5803552 1.106416 4.6689939
6.8825531 1.190123 4.782289
7.0730438 1.2399909 4.7594848
7.7892241 1.374867 5.1307812
6.6536298 1.18239 4.2740121
6.7879381 1.214398 4.2381558
6.6267462 1.1935 4.0061231
6.4378171 1.167189 3.7555461
6.0379272 1.101939 3.3866301
5.7568569 1.057549 3.0926671
6.1939621 1.14529 3.1752269
6.0647612 1.128682 2.9547169
6.2021298 1.161697 2.8602841
5.9751682 1.126375 2.5975361
6.1914868 1.174597 2.5251391
5.8071489 1.108669 2.211158
5.8025742 1.114787 2.0524161
5.7029929 1.1025209 1.86288
5.7085981 1.11048 1.710727
5.7275329 1.121074 1.563435
5.6541209 1.11352 1.394287
5.9316869 1.175338 1.308679
5.840898 1.164405 1.140249
5.3329201 1.0760159 0.77985102
6.3032479 1.271798 0.921745
5.3602409 1.088014 0.658117
6.6348681 1.346736 0.81461298
6.7222929 1.3726079 0.67376697
6.0279689 1.238126 0.47352001
5.6484618 1.16702 0.32661
5.6629591 1.1768709 0.216371
5.6586232 1.182832 0.111418
5.5946722 1.176244 0.013703
5.6045761 1.1851211 -0.075248003
5.8186178 1.237448 -0.163728
5.539103 1.184725 -0.22875801
6.2562881 1.345716 -0.33222401
6.2843761 1.3594019 -0.39750001
5.7701039 1.2621861 -0.45449299
5.7836781 1.293341 -0.516666
5.7133212 1.3055 -0.41141099
5.578455 1.288325 -0.29722899
5.2694359 1.223403 -0.21846899
5.3832321 1.25641 -0.152145
5.0864301 1.193374 -0.068627998
5.7132411 1.347434 0.01407
5.449903 1.292016 0.107949
5.6040521 1.335433 0.21551099
5.5955081 1.3402621 0.325818
5.5718541 1.341446 0.44099
5.6335282 1.363214 0.56919301
5.7998738 1.410596 0.718207
5.362679 1.310868 0.79134399
6.1110291 1.501316 1.051558
5.6096039 1.385036 1.106215
5.3766971 1.334162 1.1989
5.388731 1.3437901 1.343726
5.7370672 1.437668 1.5843951
5.3632302 1.350611 1.626912
5.38275 1.362188 1.780731
5.5140319 1.40223 1.9762909
5.539216 1.415488 2.138294
5.4925208 1.410364 2.2722161
5.69169 1.468558 2.5111091
5.6213832 1.4573849 2.632386
5.7235489 1.490981 2.8329
5.781827 1.513337 3.0127299
5.6504531 1.485968 3.0870609
5.7452378 1.518043 3.2788961
5.5273981 1.467356 3.282618
5.88731 1.570236 3.625196
6.1307678 1.642802 3.9009471
5.7298489 1.542509 3.752857
6.0172238 1.627382 4.0434561
6.0493279 1.651158 4.2318478
7.437871 2.067373 5.4016781
7.452035 2.1086781 5.3026071
5.6194191 1.60423 3.8733311
5.6895289 1.631397 3.8393791
5.75244 1.65667 3.7859969
5.789391 1.6746089 3.704067
5.8924642 1.711844 3.6507609
5.9245372 1.728628 3.542479
5.9891229 1.755036 3.4436381
5.727881 1.685711 3.1548009
5.4000878 1.596071 2.8385291
6.1749759 1.832903 3.0851741
6.8320718 2.0279479 3.413476
5.8026438 1.729723 2.744683
5.5201831 1.652518 2.4616101
5.6128511 1.687368 2.348465
5.2024441 1.570581 2.0325
5.2531738 1.592567 1.906729
5.2188301 1.588778 1.749581
5.2853851 1.615752 1.625783
5.250524 1.611776 1.471316
5.1800861 1.596741 1.311509
5.2229638 1.616605 1.183247
5.6771598 1.764428 1.138181
5.5692191 1.737978 0.97491699
5.6477342 1.769683 0.84838599
5.2609782 1.65522 0.66361302
5.0362778 1.590956 0.51866603
4.8859682 1.549719 0.39442101
4.9288182 1.569623 0.292914
4.716321 1.507989 0.185231
4.6541548 1.494083 0.094209999
4.5971122 1.4816639 0.011577
4.6302042 1.49827 -0.063925996
4.9617548 1.611935 -0.143589
5.0308609 1.6408499 -0.213707
4.9057488 1.606352 -0.267988
5.177043 1.701856 -0.33690599
5.0039382 1.657845 -0.40562201
5.2705488 1.7734179 -0.48479301
5.0181441 1.714499 -0.37226599
4.4097271 1.518087 -0.242117
4.3876362 1.516186 -0.18747801
4.4472828 1.5425839 -0.129557
4.7083611 1.639281 -0.065489002
5.2288852 1.827322 0.013276
4.6578398 1.633844 0.095135003
4.6441221 1.635094 0.184184
4.97504 1.7581021 0.298794
5.2979889 1.879163 0.432551
4.6287918 1.6478601 0.48250499
5.1337981 1.834367 0.655967
5.3884559 1.932431 0.82057399
5.5032668 1.980824 0.97738898
5.5239401 1.995517 1.124454
5.1409378 1.863923 1.183459
5.1376848 1.8695 1.3227969
5.1645441 1.886004 1.472869
5.3946729 1.977144 1.6901259
5.2531128 1.932191 1.795084
5.6104412 2.0710189 2.077354
5.360281 1.9857481 2.137944
5.1090498 1.899434 2.1840651
5.2841129 1.971503 2.4093599
5.2022381 1.9478379 2.518024
5.376204 2.020102 2.7508249
5.1067929 1.925639 2.7512031
5.2568798 1.989205 2.9698009
5.1411881 1.952261 3.03444
5.2905192 2.015996 3.2497621
5.7987781 2.2173951 3.693711
5.5463619 2.1282561 3.6511819
7.8894401 3.0378549 5.3467922
8.2502298 3.209826 5.9743729
7.209609 2.882365 5.3161659
5.8864851 2.385155 4.0169091
5.7353001 2.331661 3.805125
5.859056 2.3899021 3.7647841
5.0904932 2.0833011 3.157167
5.077497 2.0848761 3.0286429
4.9590259 2.0429599 2.8338549
4.98037 2.058527 2.716543
5.1160259 2.1215539 2.652766
5.2027621 2.164603 2.5543549
5.1079531 2.1321261 2.3645749
5.129539 2.1481309 2.2283261
5.0636568 2.1274531 2.054219
5.6206012 2.369138 2.1186969
5.2613211 2.2248931 1.832036
5.0834842 2.1566491 1.624372
5.0243168 2.138442 1.462777
4.9923158 2.13167 1.31339
4.8460541 2.075871 1.1409431
5.0442338 2.167706 1.05112
4.2234559 1.820796 0.76856101
5.4452968 2.3475499 0.99090397
4.745357 2.052331 0.74111402
4.883739 2.118921 0.64055598
4.8673968 2.1185479 0.52130502
5.1727238 2.2585869 0.434315
4.7436042 2.0777869 0.293253
4.7774849 2.0992401 0.19521201
4.4975419 1.9824719 0.094729997
4.8682928 2.152648 0.012759
4.7712402 2.1163571 -0.068562001
4.6797071 2.082269 -0.140975
4.5402088 2.026515 -0.200794
4.5956011 2.0576401 -0.26140401
4.4904752 2.016839 -0.304326
4.3793378 1.979154 -0.369793
5.0051141 2.2900231 -0.47984201
4.2932181 1.98847 -0.33214
4.703414 2.1917429 -0.26938799
4.7812099 2.2347541 -0.21314199
4.4512439 2.0868249 -0.135308
4.5605102 2.14452 -0.066197999
4.6804981 2.207581 0.012404
4.5071621 2.1322341 0.096097998
4.4482021 2.1106629 0.184184
4.4534631 2.1194961 0.27928901
4.4494858 2.12395 0.379383
5.264637 2.5205679 0.57319999
4.6656189 2.2404339 0.62275702
4.4217072 2.1296351 0.70351201
4.4672909 2.1579821 0.82905
4.6386328 2.247395 0.986812
4.6345129 2.252054 1.1151381
4.7713518 2.325398 1.28423
4.89254 2.3920119 1.458895
4.9029288 2.404146 1.606311
4.8731279 2.396564 1.741641
4.8772569 2.4056289 1.88901
5.2554588 2.5997601 2.1929419
4.919395 2.4406371 2.2004299
4.8361502 2.4063361 2.3076119
4.981842 2.486047 2.5238039
5.0939641 2.5493979 2.7283621
4.8530869 2.4358931 2.7372489
4.877512 2.4552441 2.8852429
5.5053649 2.7712941 3.256644
4.7826338 2.4144559 2.956176
7.5588751 3.8270249 4.863193
7.0549879 3.6131871 5.1416659
7.2311168 3.7246051 5.4893751
4.8249202 2.513653 3.8067441
4.9004598 2.582016 3.7925
7.5693331 4.0107179 5.677681
7.8190341 4.1546559 5.7435579
8.0293856 4.2783861 5.7540951
6.971314 3.73542 4.705596
7.5565162 4.0602832 4.9239259
7.5190301 4.0514112 4.712779
7.788909 4.2085009 4.6777759
5.0287161 2.7246699 2.8830919
5.0353498 2.7358301 2.744777
5.0650911 2.759608 2.6146331
6.3055701 3.435457 3.254976
4.8081932 2.626895 2.340611
4.9854932 2.7312789 2.2777951
4.8524389 2.665714 2.070684
5.4343629 2.9936249 2.1551189
5.5962291 3.091264 2.05039
6.6689649 3.683826 2.4434271
4.798636 2.6579609 1.6136481
4.8495822 2.6935511 1.486065
4.5514069 2.5348561 1.260478
4.5832009 2.5595379 1.136078
6.3414102 3.5511041 1.3914649
4.6578579 2.6154439 0.89267099
4.5862188 2.5822239 0.75445199
4.52774 2.5562339 0.625624
4.3805642 2.479852 0.49432999
4.227097 2.399457 0.37401301
4.339345 2.469847 0.282738
4.45929 2.5449729 0.192072
11.950167 6.8201122 0.51472199
4.1748562 2.38908 0.092707001
4.067893 2.334142 0.011241
4.143712 2.3840449 -0.062795997
4.004652 2.3102369 -0.12724601
4.1567721 2.404428 -0.19393399
3.93926 2.284718 -0.236414
4.4986668 2.616159 -0.32172701
4.2236452 2.4693611 -0.376468
4.4702058 2.641458 -0.45265901
4.4235601 2.64169 -0.36169201
3.846097 2.308975 -0.232889
3.9293499 2.365164 -0.18521801
3.9745309 2.398649 -0.12776899
4.6179419 2.7942779 -0.070900001
4.0431108 2.452868 0.011335
4.4264722 2.6924889 0.099855997
4.1489148 2.530261 0.18179201
4.2981172 2.628103 0.28528199
3.8497939 2.360126 0.34746799
4.719182 2.9006481 0.54397798
3.8339739 2.36269 0.54188102
4.3949771 2.715462 0.74054599
3.9291241 2.433938 0.77235103
4.566359 2.83602 1.02912
4.0189462 2.502517 1.0246069
4.7712612 2.9786589 1.360893
4.5704761 2.8606241 1.444405
4.9195571 3.0870709 1.708469
4.7351708 2.9790511 1.794168
4.6612201 2.9400899 1.914276
4.7347188 2.9941449 2.095206
6.9020462 4.3759699 3.2746091
5.0049829 3.18137 2.5335021
4.8927102 3.1179919 2.629909
4.9370108 3.1543059 2.806118
4.961041 3.2104161 3.515775
4.8436241 3.142422 3.548553
4.7907271 3.1160181 3.6144159
4.7561669 3.101419 3.6831911
4.7433491 3.108793 3.8274031
7.189105 4.7596822 6.032886
4.7442918 3.188859 3.7888041
4.7087641 3.1729269 3.6831911
4.7286711 3.1943359 3.609071
4.7629519 3.22557 3.5354619
4.8171272 3.2704279 3.464133
4.9198651 3.3485351 3.416033
9.0615978 6.1983409 5.8008528
4.7883701 3.2835391 2.926755
4.8889499 3.3692379 2.6914239
4.3367162 3.0035601 2.1137669
4.6085358 3.199749 2.0983591
4.4945092 3.128335 1.902135
5.0681419 3.536351 1.9819829
4.5500741 3.18273 1.6334029
4.7927032 3.3607571 1.5680929
4.6039219 3.2363651 1.361599
4.3262019 3.048655 1.145385
4.1264391 2.9150741 0.96725601
4.3602619 3.0878551 0.89283597
3.9090791 2.775161 0.68719399
4.1310649 2.9399891 0.61009401
3.9876361 2.8448989 0.48103899
3.7832689 2.7057359 0.35790199
3.7746811 2.7062359 0.26300699
3.659708 2.63025 0.168596
3.811841 2.74632 0.090548001
3.9544539 2.8560531 0.011692
3.6640911 2.6528251 -0.059420999
3.805553 2.7619979 -0.12942
4.6910639 3.413013 -0.23428699
3.8035209 2.774039 -0.244399
3.748203 2.74038 -0.287049
3.6832809 2.7060699 -0.35168701
3.6099911 2.6781621 -0.391864
3.7068689 2.7768431 -0.32513699
3.7468071 2.8203859 -0.24346501
3.7814081 2.8533199 -0.191311
3.9072981 2.9554429 -0.13484
4.0452309 3.067179 -0.066684
3.8381901 2.9172261 0.011555
3.843636 2.928426 0.093130998
4.059835 3.1006069 0.1911
3.7013841 2.833662 0.26396799
3.682018 2.8256371 0.35713401
3.690876 2.8392539 0.45728999
3.819514 2.9452801 0.580347
3.7702589 2.9143 0.683079
3.860924 2.991554 0.816194
4.1460142 3.220165 1.005051
4.4598551 3.4722481 1.223225
4.132288 3.224936 1.268239
4.7801452 3.739397 1.625796
4.6292338 3.6300199 1.730481
4.7927818 3.7672789 1.955108
4.277885 3.378664 2.038806
4.9565358 3.9522281 3.036361
7.8300438 6.2434959 4.7966642
4.7892518 3.82795 3.0906019
4.7549262 3.8095751 3.21927
4.6912599 3.7675359 3.3199601
4.7162142 3.7965989 3.4752741
4.9677529 4.183207 3.991533
6.3662581 5.3608489 5.1152148
5.186842 4.378005 4.0383348
6.529851 5.5115852 5.0839658
4.675683 3.96521 3.3827651
4.6267362 3.932951 3.2085249
4.7068772 4.0105171 3.1171601
4.6922779 4.0074968 2.9555809
4.8536282 4.1550608 2.8962021
8.9343443 7.666482 5.0292888
4.0151639 3.4616089 1.982756
9.9251165 8.5567789 4.9011912
4.3805208 3.803304 1.706494
4.00354 3.492357 1.285406
4.2741461 3.737164 1.228724
3.7862289 3.318327 0.96387202
3.759124 3.3023009 0.836137
3.6150479 3.183183 0.69045699
3.5171731 3.1042719 0.56445903
3.65539 3.2338259 0.47927999
3.4442799 3.054203 0.35421899
4.478981 3.9717209 0.46063101
3.4311969 3.0497401 0.25995401
3.6113081 3.217346 0.180932
3.637754 3.2485061 0.093998
3.693506 3.3060131 0.011881
3.5806911 3.2125349 -0.063189998
3.453265 3.105469 -0.12782399
3.586195 3.2325549 -0.19498301
3.6183269 3.269145 -0.25316
3.684253 3.336503 -0.30728799
3.717639 3.382494 -0.386749
3.485265 3.200819 -0.412534
3.4200909 3.170399 -0.327378
3.348542 3.118582 -0.237555
3.3854051 3.1602659 -0.187034
3.482476 3.258461 -0.131263
3.4337511 3.220371 -0.061836999
3.579659 3.365037 0.011776
3.9338341 3.7066071 0.104172
3.5097649 3.3147399 0.18059599
3.5970089 3.4050519 0.280476
3.571559 3.3888471 0.37884599
3.3497391 3.1857779 0.45396701
3.8791859 3.697902 0.64485699
3.7602799 3.5929129 0.74551201
3.8822179 3.7180619 0.89827502
4.0797648 3.916353 1.08271
4.3286042 4.1649108 1.300007
3.8478479 3.710954 1.293401
4.0566192 3.9213159 1.5114239
4.899056 4.7356558 1.8253011
4.7988639 4.6495919 1.9655581
4.7209592 4.5847611 2.1105521
4.673296 4.5490251 2.2653689
4.5500379 4.439342 2.3775561
4.4843059 4.3853951 2.513237
4.4289231 4.341301 2.6493931
4.3893108 4.3124752 2.7892721
4.369679 4.3031802 2.937438
4.2852759 4.2298698 3.0352359
4.245748 4.2005939 3.155735
4.1933479 4.1584072 3.258605
4.1114039 4.0866222 3.3274209
4.1113219 4.0960512 3.452884
4.082458 4.0767469 3.5459349
4.0887961 4.092566 3.6587811
4.1162372 4.129622 3.7822371
4.1601839 4.1931348 3.9862721
4.1124458 4.1837168 4.1048622
4.0804148 4.1898799 4.004355
4.0750308 4.203845 3.880513
4.0820088 4.2208362 3.808903
4.112546 4.262301 3.745908
4.098083 4.2572031 3.631808
4.086628 4.255178 3.5101509
4.1071372 4.2864799 3.4075699
4.1092329 4.2986579 3.281311
4.1299548 4.3303881 3.161808
4.2022672 4.4164758 3.0730469
4.2341089 4.4602971 2.945646
4.2719622 4.5106449 2.816108
4.2782869 4.527854 2.6611781
4.3215122 4.5842481 2.524395
4.4154692 4.6948218 2.410485
4.4263501 4.7173672 2.246994
4.5136719 4.8216329 2.118187
3.6853111 3.945925 1.58825
3.2213449 3.457195 1.26586
3.24001 3.4853289 1.1513619
3.190196 3.4397409 1.0153
3.8295641 4.1291218 1.218783
4.6995568 5.0671692 1.495664
3.6854119 3.98297 1.038898
3.541167 3.8360009 0.87239802
3.26648 3.546694 0.691167
3.208956 3.492373 0.57067102
3.316802 3.6181641 0.482016
3.0798459 3.367517 0.35115001
3.0854709 3.381552 0.25921899
3.3190949 3.646086 0.18444601
3.195565 3.5185919 0.091608003
3.1584899 3.4858899 0.011275
3.402945 3.7644579 -0.066657998
4.1599751 4.6019111 -0.081487
3.2683661 3.6240399 -0.134317
3.2146151 3.5727689 -0.194096
3.1187029 3.474273 -0.242377
3.076957 3.4357929 -0.28513601
3.5215549 3.9506559 -0.407233
3.5200241 3.986069 -0.46360201
3.047662 3.483644 -0.324927
3.0685201 3.523972 -0.242584
3.313096 3.8137791 -0.20402201
3.139236 3.622129 -0.131923
3.46752 4.0103192 -0.069638997
4.1574931 4.8082981 -0.083495997
3.2247419 3.7382979 0.011833
3.9830821 4.6174068 0.014616
3.1558919 3.667093 0.093245998
3.109005 3.621103 0.17853899
2.9818449 3.4811649 0.25955799
3.0288341 3.544353 0.35874599
3.0281761 3.5519221 0.45836499
3.2001629 3.7624941 0.59432501
4.814075 5.6599998 0.89405501
3.1510451 3.7134809 0.69812
3.057673 3.611933 0.790811
3.4658229 4.1037169 1.028368
3.636883 4.3164291 1.2215329
5.0564342 6.015377 1.9013
3.070544 3.661411 1.280091
5.0213671 5.9876318 2.0933781
5.0867171 6.0798769 2.3318601
5.2066598 6.237956 2.605895
5.1869731 6.2290521 2.8156331
4.9744 6.0020719 3.1236
4.922884 5.9539661 3.300348
6.6875539 8.1073847 4.7639742
4.8388638 5.8940411 3.8441219
5.7474771 7.0173802 4.7926989
6.3625679 7.805295 5.7801752
5.37395 6.6081738 5.0676041
5.2301688 6.4466429 5.1021242
5.2496052 6.4859719 5.2773042
5.111867 6.3308272 5.2782612
4.8361769 6.0179262 5.2102351
4.6573071 5.8508129 5.232553
3.9847641 5.0781341 4.2782879
4.8420229 6.1706152 5.1986942
5.11763 6.553112 5.2585959
7.1533728 9.2038708 6.9354239
4.6519299 6.0141778 4.195363
5.9475412 7.7076602 5.144011
5.3832331 6.9931402 4.4486489
6.2738118 8.1500549 5.1846142
4.7141709 6.1387162 3.7072201
4.4443369 5.8152599 3.126708
4.5254879 5.9357109 2.9908149
3.9883981 5.243866 2.464083
3.9849141 5.2519431 2.289978
4.0044742 5.290463 2.127959
4.0380831 5.347754 1.971202
4.0607109 5.390738 1.807964
4.1147299 5.4756641 1.6572
3.3128729 4.4192672 1.195304
4.188138 5.5868421 1.5111049
3.0516019 4.0806141 0.97553003
3.0285151 4.059557 0.84635597
2.850322 3.829967 0.68435597
3.2526679 4.3812199 0.656564
2.9076581 3.926019 0.47976801
2.8575139 3.8676901 0.370024
3.389982 4.5995722 0.32355699
4.346025 5.8967419 0.41480601
2.7833011 3.7948461 0.090703003
2.9470999 4.0279698 0.011963
2.905628 3.9809761 -0.064740002
2.8213079 3.8748989 -0.131923
2.887804 3.9759181 -0.19845399
2.832438 3.909225 -0.25062001
3.2501919 4.4967852 -0.34301499
3.0587959 4.2527399 -0.40309
2.751549 3.8633051 -0.41349
2.9970739 4.2496648 -0.365053
2.8264489 4.0275631 -0.25544199
2.8175409 4.024796 -0.198413
2.7185171 3.8929529 -0.130685
2.777653 3.9875021 -0.063833997
2.830317 4.0731759 0.011889
2.8626561 4.129951 0.09685
3.3815229 4.8906369 0.222427
2.776468 4.025537 0.27691501
3.087913 4.488246 0.41920099
2.76109 4.0232048 0.479182
2.6791761 3.9135759 0.57067102
2.7850039 4.0783248 0.70791
2.637563 3.872057 0.78289998
2.976337 4.3803101 1.013889
3.0466881 4.4950771 1.17521
3.698139 5.4562268 1.426496
4.0306339 5.9616771 1.741153
3.951885 5.8597178 1.893355
3.8207181 5.6794391 2.0135331
3.7268839 5.5538831 2.145061
3.6361229 5.4322462 2.2706189
3.553303 5.3218679 2.3933201
3.505091 5.2628961 2.533694
3.4327791 5.1673102 2.6501789
3.3627701 5.0746961 2.759546
3.3394461 5.0522418 2.9007199
3.3035491 5.0105648 3.0253329
3.2633071 4.9620538 3.1379819
3.1989219 4.8764892 3.2180231
3.1597509 4.8289881 3.3124869
3.1320341 4.7987938 3.4094219
3.1124029 4.7808309 3.50614
3.082525 4.7469769 3.5796721
3.0174699 4.6586409 3.600472
3.0038481 4.6612911 3.7423739
2.7909141 4.3753772 3.6313131
2.9042101 4.5999761 3.7247059
2.981087 4.74613 3.7147739
2.972636 4.744894 3.632036
2.990417 4.785614 3.5689819
2.9750609 4.773376 3.4569199
3.016783 4.8528562 3.399708
3.0410621 4.9045992 3.3124869
3.079062 4.978797 3.2301011
3.105824 5.0351262 3.1258359
3.129869 5.0873318 3.0109291
3.212724 5.2356129 2.9421899
3.357816 5.5006862 2.7531061
3.0011251 4.9292202 2.312386
3.5717981 5.881886 2.57373
3.7099249 6.1253829 2.487509
3.395308 5.6206388 2.1059711
3.3324549 5.5310869 1.8995219
2.556797 4.254858 1.329774
2.5352681 4.230144 1.193221
2.604135 4.3565111 1.098428
2.6143191 4.3851118 0.97741002
2.5870121 4.3507829 0.84586197
2.6245999 4.425684 0.73756599
2.712193 4.585525 0.64103401
2.5611391 4.34163 0.495015
2.96364 5.0239482 0.57280999
2.6776149 4.5511432 0.40631199
3.882946 6.5998449 0.58921403
2.658757 4.5311322 0.29749399
2.7467401 4.6935482 0.203436
2.639878 4.5229969 0.100935
2.614985 4.4923158 0.012459
2.8194001 4.8564391 -0.073762998
2.646138 4.57022 -0.14534999
2.6087019 4.5176468 -0.21067999
2.526818 4.3875961 -0.26285499
3.0387771 5.2907772 -0.37719899
2.889792 5.058537 -0.44827899
2.9221959 5.1708899 -0.51779598
2.412816 4.3162098 -0.34712601
2.935585 5.2513752 -0.42233601
2.436028 4.3816009 -0.260263
2.5145979 4.5353098 -0.20942999
2.582499 4.6705508 -0.14689
2.729913 4.9507351 -0.074262999
2.652596 4.8237519 0.013195
2.668618 4.8662748 0.106966
2.5772121 4.7125611 0.200932
2.4197991 4.4369488 0.28618601
2.612884 4.8042669 0.42081299
2.7092521 4.9952612 0.558052
2.5557759 4.7253661 0.64640999
2.350023 4.3570452 0.70961303
2.3874609 4.4387798 0.84223598
2.41868 4.5093608 0.97966701
2.4141171 4.5134392 1.107734
3.037745 5.695262 1.561723
3.5354481 6.6467762 2.0167849
3.1503429 5.9561272 2.1609409
4.1793842 8.0367756 4.338769
3.62818 7.0166159 4.1736989
5.1745129 10.035703 6.2302399
2.652992 5.1600499 3.3304081
4.0580058 7.8927941 5.0941811
2.488446 4.8678112 3.36005
4.347898 8.5052052 5.8707938
2.372411 4.6675739 3.396394
2.6677749 5.2486839 3.819243
2.643194 5.2303758 3.9549451
2.3872681 4.779027 3.737947
2.414598 4.8904748 3.7343099
2.281538 4.6481729 3.4319119
2.3145249 4.7292609 3.415442
4.1652012 8.5358438 6.0069218
2.654177 5.4553599 3.728677
2.4736719 5.0994048 3.372097
2.191582 4.7259741 1.127406
2.4729381 5.3489919 1.128215
2.437125 5.2876482 0.97293901
2.435617 5.3005672 0.83618301
2.441668 5.330071 0.70542401
2.3007319 5.0378618 0.543881
2.3400199 5.1396861 0.43454599
2.278187 5.0193501 0.31213701
2.250098 4.9728069 0.204184
2.2425871 4.9715972 0.105116
2.2511621 5.0061178 0.013156
2.8056481 6.2391791 0.016396999
2.3519139 5.2464561 -0.075524002
2.2798669 5.1016321 -0.153796
2.570992 5.7710681 -0.25514901
2.4542949 5.5263839 -0.313923
2.544672 5.7479062 -0.38861501
2.0440531 4.6462431 -0.39058501
2.3909521 5.434763 -0.456871
2.5085571 5.7747951 -0.54888803
2.32967 5.431953 -0.414913
2.495394 5.8559098 -0.33046201
2.161777 5.0894022 -0.22331101
2.350502 5.5516281 -0.165929
2.3303421 5.5218968 -0.078727998
2.0135391 4.786727 0.012447
2.109663 5.031611 0.105155
2.2684269 5.4279442 0.220072
2.1084361 5.061635 0.31049699
2.3787091 5.7104678 0.350299
2.166996 5.219316 0.434852
2.3201981 5.6066952 0.59587401
2.236613 5.4225359 0.70578301
2.27372 5.5307431 0.85718298
2.228477 5.4386501 0.98216897
2.412379 5.9267101 1.384827
3.0827301 7.5988932 1.984077
2.8865919 7.1389809 2.062844
2.9318271 7.2751422 2.307308
2.964824 7.3817592 2.55123
3.71295 9.2444286 3.194993
2.9667339 7.411376 2.7729771
2.1754241 5.4528942 2.195745
3.0455239 7.6338782 3.0739729
2.4967129 6.3437109 3.2653079
2.5521049 6.5066042 3.5231791
2.5094631 6.4418712 3.8146689
2.6296201 6.7735529 4.1707268
2.0487449 5.2955298 3.378233
3.658406 9.4561319 6.0324478
2.678659 6.9717641 4.7235432
1.859257 4.9591522 3.705842
2.0948279 5.5874858 4.1753788
3.2740891 8.8578396 6.465836
1.888719 5.146543 3.6335609
2.666476 7.3183231 4.926125
1.9170949 5.29984 3.353178
2.404407 6.6470251 4.205534
2.4125061 6.6936922 4.084106
2.3359389 6.5049438 3.8137031
2.1228271 5.9331288 3.3295219
2.5351679 7.1116362 3.805861
2.6026759 7.354949 3.536546
3.806298 10.876624 4.3098669
3.6273401 10.404016 3.827239
2.6288841 7.568471 2.5695541
3.557477 10.319136 2.924001
2.200253 6.4306622 1.470916
3.2713759 9.5976295 1.941282
2.323292 6.8421192 1.207479
2.0027101 5.9205642 0.89591998
1.914603 5.6818442 0.72143197
1.991428 5.932579 0.61454099
2.067889 6.1841469 0.50175297
1.871335 5.6180449 0.335316
1.823696 5.4962921 0.21663199
2.1458049 6.4923091 0.131786
1.938834 5.8890319 0.014861
2.041826 6.226182 -0.086071
1.981537 6.0661449 -0.175641
2.089566 6.4221029 -0.27274299
2.1108699 6.5132651 -0.35545099
1.966596 6.0922298 -0.39577201
2.0899849 6.526258 -0.52730101
1.986063 6.3024111 -0.57607102
2.016382 6.5038438 -0.47800699
1.910746 6.2141161 -0.337513
1.8243819 5.9578519 -0.251638
1.914187 6.2771401 -0.180621
1.860088 6.1252432 -0.084086999
1.8655781 6.1690679 0.015448
1.618781 5.3755059 0.1082
1.8915091 6.281157 0.12642901
1.684907 5.6187038 0.219436
1.779712 5.9599891 0.35222101
1.726344 5.805871 0.46607801
1.7751991 5.9956398 0.61405301
1.8889591 6.4071689 0.80374199
1.926931 6.564086 0.98063099
1.797019 6.1479359 1.070348
1.846279 6.3437982 1.264917
1.908011 6.5844212 1.4836071
2.5013061 8.6318436 1.944934
2.6935639 9.3358364 2.3509331
2.6789269 9.3287449 2.6000321
2.888309 10.102054 3.090709
3.029084 10.641202 3.5483291
2.0337529 7.1762161 2.590868
2.5769701 9.1333904 3.5493441
2.6036401 9.269124 3.85782
2.6596 9.5107336 4.2188358
1.919703 6.8957109 3.2446549
2.2345369 8.0628757 4.007443
2.058058 7.4597192 3.9008391
2.9574151 10.768303 5.9003601
2.9973781 11.064677 6.8203788
2.8305471 11.443459 7.0136552
2.6182251 10.638033 6.2884479
2.552212 10.422004 5.9205642
2.0233979 8.3042927 4.5161352
1.558309 6.4279809 3.3341241
2.4170959 10.072518 4.6954398
2.4181819 10.128911 4.4486542
1.698887 7.1527891 2.9458101
2.200367 9.3122196 3.5787699
2.3790081 10.120802 3.6113341
2.2525101 9.6328344 3.172699
2.0557449 8.8376245 2.669095
1.890757 8.1713715 2.2468231
1.397058 6.1021962 1.354791
1.44039 6.3252511 1.241976
1.41951 6.267149 1.073809
1.4153709 6.2827172 0.92316401
1.4923739 6.660624 0.82130301
1.405286 6.306241 0.63447899
1.453189 6.5570469 0.51678997
1.5768861 7.1545482 0.41486299
1.442693 6.5820322 0.25207099
1.396387 6.406364 0.126371
1.444069 6.6622729 0.016340001
1.4347399 6.6565471 -0.089446001
1.450047 6.7657361 -0.19044299
1.363884 6.3999519 -0.26426899
1.517619 7.162118 -0.38007799
1.482726 7.0377731 -0.44464201
1.205974 5.9286399 -0.52743602
1.38433 7.0568161 -0.37333801
1.481841 7.6005821 -0.31273201
1.32116 6.8185549 -0.191158
1.311916 6.8132439 -0.091140002
1.244727 6.504962 0.015875001
1.295583 6.8136311 0.133674
1.33191 7.0492582 0.26837
1.348694 7.183784 0.41390201
1.264668 6.7796669 0.53067702
1.2742471 6.8752789 0.68666798
1.2440079 6.7558718 0.82655901
1.88478 10.302961 1.5013829
1.650573 9.0822353 1.54256
1.719236 9.586585 2.107805
1.736482 9.7478533 2.3956139
1.701798 9.6172237 2.616334
1.504079 8.5576992 2.5559311
1.237587 7.0897269 2.3081391
1.685087 9.7198334 3.4266
1.669808 9.698513 3.6807101
1.664201 9.7335272 3.956758
1.7604949 10.369096 4.4930472
1.6912971 10.032013 4.611629
1.518433 9.4755154 5.8980222
1.166456 7.7381139 5.4756341
1.285189 9.750432 4.458046
1.027333 7.936265 3.206543
0.88511097 6.9645061 2.4386179
1.134606 9.0111952 2.912812
1.266986 10.157596 3.0111279
1.350747 10.932466 2.950912
1.23967 10.129964 2.4692199
1.082041 9.0153866 1.738391
1.22896 10.340831 1.740181
0.92165297 7.9923339 0.79006898
0.90163302 7.8992071 0.61176997
0.85817999 8.1020346 -0.329034
0.94883502 9.058176 -0.47282901
0.64057899 6.327858 -0.48940101
0.54472899 5.6422658 -0.49417299
0.68389499 8.1729126 0.15807
0.654513 7.932476 0.29775301
0.65921199 8.2222328 0.63471001
0.62966502 7.969708 0.78508401
0.74091297 9.5183439 1.148749
0.75613898 9.8619537 1.417807
0.79071999 10.806272 2.3449199
0.69255799 9.774972 2.6251321
0.65494901 9.399025 2.7715361
0.52695298 7.6912012 2.4724391
0.67225403 9.9820137 3.475162
0.63285601 9.5627184 3.5843749
0.744919 11.45832 4.6009679
0.50114 7.8493729 3.3600619
0.64809197 10.340005 4.6962652
0.58961499 10.163893 5.617651
0.42782199 8.1988211 5.3256068
0.32976699 11.891291 5.6977658
0.25709099 10.119711 4.324513
0.212336 9.199976 3.441798
0.21389 9.759511 3.3908341
0.181244 9.251195 2.7218671
0.18083601 9.8132639 2.629272
0.099924996 9.7107716 0.95367301
0.091865003 10.06383 0.774418
0.075819999 9.5194473 0.53907299
0.057528 10.200943 0.19660901
-0.044372998 5.340559 -0.465599
-0.196225 10.453256 -0.137335
-0.250994 10.715889 0.60697299
-0.346957 11.866318 1.983786
-0.43399999 8.4548016 5.3542752
-0.58264899 8.4670391 5.3676381
-0.64260399 8.6081743 4.5609832
-0.76622403 9.8039589 4.457633
-0.84069502 10.598225 4.54176
-1.312837 15.629094 5.0300832
-1.4426219 16.938433 5.0006728
-0.70147198 6.60116 -0.41039601
-0.60881698 5.6053672 -0.433855
-0.57195699 5.047431 -0.44284499
-0.69942701 5.9261832 -0.41890401
-1.60743 12.849813 0.03104
-1.776132 14.065671 0.27324501
-1.862897 10.433164 6.0833468
-1.313498 6.1513181 -0.388861
-1.1205471 5.1886911 -0.408461
-1.027042 4.6508851 -0.415227
-1.238683 5.4881029 -0.39495501
-1.793606 5.5061789 -0.35800901
-1.548835 4.717577 -0.38206899
-1.432005 4.294363 -0.39464301
-1.677489 4.953815 -0.367154
-2.0594771 6.0357218 -0.33108401
-1.325291 -4.3775139 1.225234
-1.5862139 -5.2612672 1.61647
-1.436958 -4.7862349 1.602688
-1.283911 -4.2944741 1.556949
-1.222416 -4.1060619 1.602319
-1.254789 -4.2327032 1.768973
-1.158515 -3.9582651 1.975427
-0.97688001 -3.3520379 1.7600141
-0.912911 -3.146065 1.730866
-1.026204 -3.567292 2.1306651
-0.98247099 -3.773946 2.1517899
-0.97503799 -3.781234 1.968425
-1.0913 -4.272913 1.999061
-1.077831 -4.240634 1.869189
-1.019065 -4.028913 1.6652009
-1.227707 -4.901432 1.755136
-1.195248 -4.7953448 1.584975
-1.230944 -4.9629831 1.504153
-1.2671731 -5.1344728 1.4167171
-1.388701 -5.6549702 1.408867
-0.92426097 -3.782573 0.84269899
-1.373632 -5.6216402 1.2524149
-0.81905103 -3.368897 0.66376603
-0.78916103 -3.262367 0.56088603
-0.858639 -3.56762 0.52600199
-0.90607798 -3.7839661 0.46817201
-1.025407 -4.3042598 0.43451801
-0.93931103 -3.9631679 0.31340399
-0.81867498 -3.4720731 0.202004
-0.83570898 -3.562737 0.136895
-0.888587 -3.807972 0.075364001
-0.94969702 -4.091207 0.010067
-0.91991901 -3.9838159 -0.053707
-0.92802101 -4.0402188 -0.114095
-0.81345099 -3.560277 -0.147488
-0.92620498 -4.0754499 -0.21697199
-0.91106898 -4.0304208 -0.255456
-0.82900798 -3.7072101 -0.29230601
-0.81415898 -3.721535 -0.33211201
-0.852054 -3.982856 -0.28592199
-0.84254003 -3.9833879 -0.211373
-0.80280697 -3.8173161 -0.157536
-0.69705999 -3.333612 -0.093736
-0.80799001 -3.8865581 -0.052143998
-0.87299299 -4.223712 0.010338
-1.0810699 -5.2304311 0.012802
-0.696289 -3.3885601 0.066673003
-0.71381903 -3.4943421 0.13341901
-0.815642 -4.0164528 0.232081
-0.77201903 -3.824321 0.300208
-0.763834 -3.806442 0.38125399
-0.77879399 -3.9043691 0.47904301
-1.11695 -5.633636 0.82327002
-1.273077 -6.421102 0.93834698
-0.73381901 -3.723757 0.63423097
-0.67886502 -3.4659979 0.67617702
-1.1573091 -5.945188 1.310794
-1.07077 -5.5347171 1.36395
-1.077512 -5.6041341 1.528761
-0.98757797 -5.1685529 1.547895
-3.421268 -23.443371 10.121042
-1.077353 -7.6928172 2.2850139
-0.795322 -5.7271662 1.548944
-1.071412 -7.7153139 2.0866499
-0.79521197 -5.7753 1.410513
-1.0571899 -7.6779342 1.8751971
-0.76914501 -5.6341009 1.230628
-1.0494111 -7.6870909 1.679052
-0.84276903 -6.2271032 1.203053
-1.041013 -7.6919031 1.486047
-0.82325101 -6.1361742 1.034582
-0.66760802 -5.0200381 0.72593099
-0.525603 -3.987498 0.48394099
-0.51051402 -3.9078369 0.38701999
-0.54534298 -4.2122898 0.32683
-0.50385398 -3.927469 0.224223
-0.668881 -5.2619472 0.19842701
-0.50722402 -4.027431 0.078235
-0.49003801 -3.927536 0.0094870003
-0.64207602 -5.1460838 0.01243
-0.47442499 -3.838459 -0.050804
-0.67659402 -5.5266299 -0.153246
-0.61519802 -5.0736728 -0.206403
-0.62902099 -5.2382631 -0.27389801
-0.46704999 -3.9277771 -0.244535
-0.42841199 -3.6751771 -0.28470999
-0.43268499 -3.86711 -0.33923301
-0.407502 -3.8008101 -0.268345
-0.79166198 -7.548378 -0.39402401
-0.56618702 -5.4592438 -0.22165599
-0.77498299 -7.5574918 -0.209097
-0.50274497 -4.9591522 -0.065476
-0.50533801 -5.0427279 0.012147
-0.44068599 -4.449399 0.086173996
-0.62397701 -6.2999992 0.122016
-0.48438799 -4.948873 0.18601599
-0.57258302 -5.8499341 0.21988501
-0.375983 -3.887604 0.22116999
-0.479761 -5.0212221 0.38813001
-0.53537101 -5.6723838 0.55951798
-0.492268 -5.2808499 0.63816702
-0.49469799 -5.374115 0.77360702
-0.70575202 -7.6668859 1.103653
-0.48986301 -5.3897409 0.90437299
-0.60520899 -6.6588402 1.117322
-0.697878 -7.678442 1.288406
-0.563667 -6.2822089 1.207566
-0.68874103 -7.6761899 1.475517
-0.54938102 -6.2035451 1.347811
-0.68077803 -7.6872549 1.670168
-0.67190301 -7.688024 1.867201
-0.66185898 -7.6748972 2.0636201
-1.99354 -23.432961 6.917974
-1.96992 -23.476551 7.5556598
-1.89364 -23.546198 9.4652729
-1.655834 -23.664793 14.580116
-1.1600749 -23.622101 14.071282
-0.99377 -23.567741 10.692622
-0.85405898 -23.47401 7.5333672
-0.79759997 -23.410494 6.2749581
-0.80723602 -26.378349 5.0525222
-0.16690101 -5.8993149 0.84597403
-0.140067 -5.1618538 0.62132299
-0.132852 -5.113668 0.50234401
-0.128323 -5.1691222 0.39787301
-0.160688 -6.4728661 0.49822399
-0.13094699 -5.5325851 0.31338
-0.131263 -5.8304429 0.218165
-0.114896 -5.3797741 0.10371
-0.105798 -5.2369161 0.012555
-0.152476 -7.5474381 0.018093999
-0.094145998 -4.942677 -0.064937003
-0.089552 -5.0053029 -0.137784
-0.135061 -7.548933 -0.20780399
-0.12629201 -7.5457911 -0.30478299
-0.11794 -7.5688872 -0.39298701
-0.082006 -5.6845551 -0.351468
-0.108885 -7.5478029 -0.46667099
-0.091376998 -7.541152 -0.58031499
-0.056697 -7.5631008 -0.65935999
-0.021787999 -7.5713358 -0.53150803
-0.00284 -5.0032611 -0.259745
0.0031379999 -5.349638 -0.216047
0.0044519999 -7.5898118 -0.30651799
0.0089729996 -5.1540399 -0.141856
0.014236 -4.9145551 -0.064556003
0.022135001 -5.4639392 0.013097
0.028256999 -5.426919 0.104596
0.048978001 -7.6994591 0.28803301
0.057925001 -7.7074351 0.43645999
0.066803999 -7.7039361 0.59281999
0.075810999 -7.7155118 0.75771898
0.053544998 -4.8765302 0.58679801
0.084885001 -7.7307692 0.93025202
0.41210899 -26.415192 5.7174072
0.44320601 -26.450977 6.4006901
0.590877 -7.5534792 0.74403697
0.600878 -7.5687418 0.58422798
0.60918301 -7.5623488 0.42961901
0.61995 -7.5863872 0.28474399
0.62914097 -7.5905571 0.146797
0.63870502 -7.599184 0.018278999
0.64735299 -7.5968099 -0.100151
0.65647399 -7.5998111 -0.20995
0.66819602 -7.6325612 -0.309423
0.67454499 -7.6038589 -0.39630499
0.68457401 -7.6166978 -0.47277901
0.69843501 -7.5743809 -0.585302
0.74046499 -7.6430912 -0.66943401
0.78360701 -7.7162261 -0.54446298
0.79895002 -7.690197 -0.40138599
0.809524 -7.705276 -0.312893
0.82121998 -7.7305589 -0.213966
0.83564597 -7.7805791 -0.102791
0.84536099 -7.786221 0.018772
0.85356599 -7.7778502 0.150805
0.85683 -7.7251921 0.29076201
0.87432402 -7.8005791 0.44448799
0.88710099 -7.832623 0.60655302
0.89710701 -7.8398809 0.77491999
0.90902698 -7.8635359 0.95247197
1.3804899 -10.272752 5.4766369
0.84624898 -6.242537 3.476006
1.285578 -9.2424688 5.735177
0.99878502 -6.7243099 4.7567101
1.2838449 -8.2493944 5.5334878
1.147374 -6.899364 3.3499761
1.421743 -7.7700219 0.950441
1.437024 -7.802609 0.77912301
1.449075 -7.817327 0.61176997
1.459357 -7.8222852 0.45059401
1.472115 -7.840415 0.298426
1.482317 -7.844698 0.153869
1.4922121 -7.8473611 0.019145999
1.511112 -7.8970289 -0.105615
1.5150779 -7.8684282 -0.220542
1.527874 -7.8858032 -0.32439399
1.605314 -7.8938699 -0.702263
1.638685 -7.8714509 -0.564421
1.655638 -7.8617382 -0.41709501
1.66933 -7.8815889 -0.325362
1.682916 -7.900691 -0.22233
1.692341 -7.9000711 -0.106127
1.7072949 -7.9251628 0.019432001
1.7102211 -7.8943739 0.15568
1.724414 -7.9156809 0.30306101
1.736055 -7.9250822 0.45941401
1.744154 -7.9182138 0.62389201
1.756521 -7.9307351 0.797692
5.4188552 -23.686962 5.879096
5.4370828 -23.641495 6.498528
5.5459838 -23.9881 7.2425098
5.6285362 -24.091208 8.5935698
1.334368 -5.5377102 2.871388
1.791378 -7.3595662 4.1794209
2.10095 -8.6313896 4.9016762
1.790285 -7.3182712 4.324553
1.928328 -7.8043351 4.9408498
2.6082959 -9.8677511 6.7649322
2.5955851 -9.7739439 6.5598679
6.4552002 -23.972313 14.770755
2.1989999 -8.0917358 4.6267838
2.3758321 -8.7026863 4.7665381
2.4063251 -8.774415 4.5863891
2.4329419 -8.8314533 4.3875828
3.0655639 -10.979013 4.567493
6.7647281 -24.119587 9.3690481
2.4111149 -8.3730431 1.885708
2.4288411 -8.3980503 1.673707
2.4268639 -8.3550339 1.453886
2.4350481 -8.3471956 1.246399
2.4405611 -8.3302345 1.044458
2.4490199 -8.3234529 0.85203099
2.4558339 -8.3111401 0.66685599
2.461396 -8.2946386 0.489943
2.4743481 -8.3030987 0.32410699
2.477488 -8.2786331 0.166548
2.481462 -8.2571669 0.020666
2.493104 -8.2612638 -0.113351
2.502218 -8.256917 -0.237462
2.508333 -8.242774 -0.34796
2.519145 -8.244092 -0.447528
2.5290179 -8.2422705 -0.53300297
2.5403869 -8.2116146 -0.66140801
2.584851 -8.2205029 -0.75124598
2.6244891 -8.2136698 -0.605317
2.649478 -8.2262192 -0.44866899
2.663774 -8.237978 -0.349655
2.6744559 -8.2384882 -0.238398
2.6918969 -8.2596617 -0.114113
2.7050829 -8.2676897 0.020850001
2.724447 -8.2943897 0.168263
2.7410729 -8.312604 0.32743499
2.7431769 -8.2867794 0.49429601
2.7594221 -8.3036404 0.67330003
2.7724071 -8.3106194 0.86033797
2.784198 -8.3139544 1.054971
2.803473 -8.3394585 1.261156
2.820024 -8.3567133 1.47383
2.838851 -8.3805323 1.694015
2.848501 -8.3771133 1.914898
3.297713 -9.5891743 2.9829071
3.0522671 -8.7437639 3.710902
2.905803 -8.2933846 3.754092
3.3222079 -9.4120407 4.7806811
3.1660359 -8.775219 5.7336059
1.983153 -5.4768262 3.6839039
3.2194321 -8.6711884 6.4720378
3.2830751 -8.7188625 6.3788338
