# .PCD v0.7 - Point Cloud Data file format
VERSION 0.7
FIELDS x y z
SIZE 4 4 4
TYPE F F F
COUNT 1 1 1
WIDTH 1539
HEIGHT 1
VIEWPOINT 0 0 0 1 0 0 0
POINTS 1539
DATA ascii
11.869315 -23.900227 5.7751522
11.989511 -24.003159 7.1876092
12.12786 -24.070587 9.3623648
12.173989 -24.092703 10.095942
4.8966012 -8.7628555 4.0222201
4.867249 -8.6866999 3.724149
4.92453 -8.7650909 3.4922249
4.9626508 -8.8090487 3.2426341
5.0190282 -8.8850574 3.0018151
5.7935448 -9.9843569 0.65367198
5.190979 -8.8512268 -0.13478599
5.2052879 -8.8520966 -0.28263801
5.1239409 -8.6907206 -0.40743899
5.0479269 -8.5391874 -0.514979
5.1241932 -8.6453104 -0.62130201
5.3164291 -8.9224863 -0.79919899
5.3830509 -8.9398413 -0.90974599
5.3356771 -8.7690029 -0.72058201
5.234272 -8.5576401 -0.52078599
5.301805 -8.6455536 -0.409578
5.3439689 -8.6917191 -0.28082201
6.0861158 -9.8221102 0.2227
9.0105457 -14.392404 1.66751
5.7828598 -8.980546 3.9949379
9.2849731 -14.273333 8.1557112
3.785512 -5.7606778 3.9566641
4.6952162 -7.1450381 4.9074979
4.6735029 -7.0940499 5.0543098
4.7275681 -7.158052 5.2722998
4.728869 -7.142014 5.4173479
4.7079368 -7.0925121 5.5220661
5.6176801 -8.4206276 6.8313708
4.6711411 -6.9319639 5.848856
4.7187858 -6.9330959 5.742137
4.544518 -6.6438799 5.3351531
4.5694499 -6.6637478 5.2412548
4.537024 -6.5836778 4.9141459
6.0793052 -8.6489182 4.5162249
6.4155698 -8.6707983 -0.43560499
6.3222532 -8.5240068 -0.55096
6.3410888 -8.5287046 -0.65702897
6.5588799 -8.7790728 -0.84323603
6.6714129 -8.8438654 -0.96576399
6.416626 -8.4245901 -0.743411
6.479722 -8.46663 -0.5535
6.6900249 -8.7204666 -0.443878
7.0783439 -9.182476 -0.15229499
11.224023 -14.421748 1.034839
5.8809042 -7.1886411 5.3311419
6.9920149 -8.4266768 7.3896508
7.0136309 -8.2951241 7.4375482
6.892478 -7.9629321 5.3088498
12.975167 -14.407157 1.491909
13.022421 -14.392439 0.72608298
8.5184288 -9.3491163 -0.16613901
8.5705833 -9.3844843 -0.34979701
7.994112 -8.7329473 -0.47813699
7.91152 -8.6226606 -0.60752302
7.9150348 -8.6064463 -0.72286701
8.1052837 -8.7724676 -0.91903597
8.3992767 -9.0065823 -1.073631
8.143075 -8.6511745 -0.83402699
8.1865883 -8.6571312 -0.61856598
8.7054815 -9.1845312 -0.51106501
8.8114815 -9.2748384 -0.352108
9.0096025 -9.4613934 -0.171616
13.794023 -14.418696 0.38458499
7.7190962 -7.793119 4.1024842
7.7691541 -7.7892962 4.986918
7.5594931 -7.5265651 5.6364088
6.096869 -6.0562429 4.741765
6.5091391 -6.4209518 5.6194582
11.193901 -10.444094 6.9397378
10.338563 -9.1856661 -0.380638
9.7258987 -8.601079 -0.67404002
9.8164749 -8.6609049 -0.80931503
10.064489 -8.8383341 -1.030665
10.012765 -8.7110023 -1.157006
10.077732 -8.685771 -0.93395603
9.9870481 -8.5673342 -0.68311298
12.217852 -9.9753952 6.3200998
11.184258 -8.4194489 5.9803839
12.087883 -8.6046267 -0.91729802
13.008741 -9.124486 -1.385246
12.635637 -8.7756729 -1.079963
12.139062 -7.9598179 5.8164859
17.096296 -9.3230515 -0.78643
17.160215 -9.3321304 -0.53762603
8.2901688 -4.1173382 6.2467999
7.0652809 -3.4681649 5.5071659
8.2871866 -4.0203118 6.3065209
8.1235886 -3.100503 4.7978072
7.7283449 -2.9291201 4.9172788
7.7428899 -2.9243691 5.0869389
7.777019 -2.9269581 5.2553892
8.4679642 -3.175781 5.866549
8.2541332 -3.07377 5.9441652
8.1022196 -2.974448 6.0391932
8.2562466 -2.9875939 6.0116172
8.4462223 -3.0341871 5.9483891
7.902739 -2.8286059 5.4447889
7.7829928 -2.775568 5.2259898
8.1137505 -2.8829069 5.2921972
7.9814091 -2.825464 5.037437
8.1004744 -2.8570471 4.930398
8.1654243 -2.869298 4.7755828
8.3166704 -2.9116149 4.6558189
10.907807 -3.8187561 6.1063819
10.809149 -3.7701321 5.7706852
10.897711 -3.7868519 5.5258398
14.416864 -4.0359159 4.0105391
14.478547 -3.998894 5.2175012
8.7593575 -2.4083569 3.3976591
8.7031384 -2.371187 3.8534839
12.348763 -3.349067 5.7998362
10.908114 -2.9311919 5.6937132
9.958437 -2.663619 5.4467378
10.84767 -2.8879721 6.1940069
8.1889687 -2.169981 4.8626952
8.3513422 -2.202632 5.1386771
7.9848981 -2.0960829 5.0738492
9.1805716 -2.409955 5.8336172
7.9448581 -2.075727 5.1933851
7.9847212 -2.0762401 5.3517289
6.5452452 -1.6857409 4.5613332
8.0174026 -2.064899 5.5872688
6.4877729 -1.638865 4.6821799
6.3465352 -1.571895 4.4766521
6.6731372 -1.636359 4.553968
8.0420218 -1.962148 5.369688
9.2010117 -2.244926 6.1435499
9.1733065 -2.204366 5.613173
11.015392 -2.6335161 6.5010171
10.959194 -2.6066301 6.2157469
10.03838 -2.37532 5.4504752
9.0006151 -2.118726 4.6611109
12.525633 -2.933182 6.1617088
8.662879 -2.0180299 4.0319762
8.6692696 -2.008908 3.8016269
13.40404 -3.0569661 4.7755179
14.260552 -3.1827641 3.535218
13.033793 -2.186758 4.2385111
9.3833847 -1.540748 3.8102109
9.1533699 -1.492081 3.961911
7.0660238 -1.143415 3.2446549
9.1994524 -1.4776829 4.4627461
6.8341398 -1.0896209 3.488519
8.3826227 -1.336508 4.2789488
6.4650412 -1.023086 3.458461
6.6566882 -1.0454921 3.7180469
6.0122461 -0.93713403 3.492697
6.7817721 -1.057081 3.939739
6.820941 -1.046977 4.2412982
6.3243561 -0.95573503 4.1490321
6.3319201 -0.94186199 4.3202319
6.5470119 -0.94281602 4.6282902
6.289465 -0.87595803 4.3478441
6.3622131 -0.87104201 4.2561889
6.5151229 -0.88428098 4.2649479
7.3398008 -0.99621302 4.8048019
7.1347542 -0.959957 4.553031
6.6046538 -0.88082701 4.0952091
7.2667241 -0.96912402 4.5057249
6.057611 -0.800722 3.635422
6.160562 -0.80706298 3.5663741
6.2732568 -0.81441802 3.4905
6.3341432 -0.81485403 3.3743711
6.3732982 -0.81236899 3.2386961
9.3459578 -1.1802649 4.511992
9.2643404 -1.159045 4.2322121
12.041902 -1.478164 4.86133
9.3957453 -1.120163 3.034663
11.638769 -0.71930301 3.739809
12.253963 -0.74305999 4.2643008
11.678954 -0.68099099 4.6876311
6.8837681 -0.36934501 3.4750149
6.81109 -0.35752499 3.6037509
6.9392891 -0.35617399 3.8339939
6.5406141 -0.328107 3.7590301
6.9184279 -0.33900699 4.1211681
6.3951192 -0.305931 3.9349821
6.2161198 -0.29014301 3.935662
6.9717131 -0.32541099 4.4140558
6.9368181 -0.31571001 4.5043988
8.8460531 -0.38204601 5.975492
5.8162889 -0.224153 4.0727568
5.92348 -0.200762 4.0580249
6.1309381 -0.19354901 4.065589
6.1558952 -0.18719099 3.9950221
5.9862199 -0.17508399 3.7876
6.7727242 -0.19808701 4.2852368
6.8018732 -0.191035 4.1821289
6.3374648 -0.170637 3.7719419
6.3264499 -0.16299801 3.6325841
6.9034319 -0.169843 3.8103211
6.8318529 -0.160155 3.610759
10.89144 -0.23003 5.2178411
9.4148359 -0.187922 4.2685442
10.945925 -0.20576701 4.6769009
6.3584828 -0.112154 2.5481999
6.5247712 -0.099940002 2.266681
6.6982479 -0.094826996 2.1484201
6.6036358 -0.085828997 1.942699
6.7707748 -0.080136999 1.813916
6.539917 -0.069820002 1.582418
6.8158941 -0.064861998 1.4751461
6.716773 -0.056118 1.285977
11.968434 0.41394699 1.716637
6.5548639 0.234321 1.09606
6.7281408 0.248328 1.288985
7.094501 0.2701 1.536487
6.1768861 0.242338 1.4956419
6.2040138 0.250552 1.663317
6.2208409 0.25846401 1.831511
6.3512778 0.27127901 2.038785
6.4522591 0.283095 2.2433839
6.3392668 0.28551 2.3733521
6.5641112 0.30328199 2.633003
6.3950982 0.30291301 2.7350349
6.475419 0.31425101 2.9387269
6.5657368 0.32628399 3.148675
6.5931492 0.335318 3.327822
7.4697981 0.37990299 3.7703011
7.855814 0.408678 4.156414
9.2791672 0.48272401 4.909492
6.6938062 0.356029 3.6987219
6.4274731 0.34934601 3.6948121
6.4244022 0.356668 3.828186
6.4057822 0.36309299 3.9433601
8.5176172 0.49271601 5.395967
8.3581905 0.49324101 5.4311838
8.8393421 0.54223001 5.9766111
7.0416708 0.46480399 4.9378738
6.9862452 0.493745 4.7952828
8.1739397 0.57768399 5.6105042
8.1901989 0.59795702 5.442884
8.9059687 0.65021503 5.9185562
6.4974442 0.48195401 4.2263098
6.1218662 0.46124101 3.882745
6.0592761 0.463608 3.7349601
6.577765 0.51095903 3.9253349
6.616766 0.521716 3.809808
6.4881558 0.51916403 3.591471
6.653573 0.54017401 3.5271349
8.7263145 0.70845002 4.6259198
6.6336832 0.54632097 3.3552799
6.677753 0.55775499 3.209583
6.2021699 0.52528203 2.821475
6.460341 0.55471098 2.7699981
6.1487198 0.53514397 2.473067
6.1560092 0.542979 2.311347
6.0066051 0.53683698 2.094744
6.005887 0.54380101 1.934036
6.1782131 0.56663501 1.82502
6.2315092 0.57882702 1.676514
6.2870469 0.59134698 1.52786
6.5938292 0.62792498 1.433476
6.3633928 0.61344498 1.223925
9.183444 0.89606303 1.541901
8.300498 0.82938099 1.003722
11.036391 1.11569 1.089325
7.8067732 0.80752701 0.44443101
8.4976521 0.88896102 0.31962201
8.4979954 0.898983 0.164698
8.7112846 0.93177301 0.020998999
8.7969532 0.95126498 -0.116227
10.835329 1.184429 -0.299999
10.792475 1.192423 -0.43851101
9.433589 1.053369 -0.492789
8.5388498 1.084213 -0.446854
7.9276509 1.015958 -0.32278001
8.7690783 1.12379 -0.357039
7.5869122 0.98124301 -0.210555
7.406539 0.96666902 -0.098114997
7.2672291 0.95706701 0.017569
7.0427761 0.93583602 0.136931
7.4322648 0.99637198 0.28051901
7.4333119 1.0052969 0.424757
6.5715208 0.89652503 0.510346
7.1784959 0.98782098 0.71158999
8.3875227 1.164115 1.018893
7.0250049 0.98333299 1.016814
6.3803968 0.90065598 1.076776
7.7789469 1.098075 1.3128
6.3650732 0.90602899 1.230882
6.6212902 0.95035303 1.447648
6.149653 0.88994497 1.5034029
6.1612358 0.89885998 1.667974
6.099196 0.89704001 1.813449
6.5605478 0.97268498 2.127043
6.2772851 0.93813598 2.2046659
6.3897471 0.96252698 2.416791
6.7582188 1.026067 2.7390079
6.6813111 1.022325 2.8874609
6.4154129 0.98926198 2.9424419
7.0849581 1.100938 3.434211
7.0374141 1.101918 3.590698
7.1056948 1.121061 3.8008969
6.8432412 1.0878071 3.823365
6.9083228 1.106375 4.0159049
6.9977989 1.1290489 4.2172942
6.9846711 1.13525 4.3491631
7.9985552 1.3095731 5.1260352
7.4010882 1.2205859 4.8657532
7.3733592 1.233603 5.0452132
6.6778049 1.149152 4.741231
7.1338811 1.261777 4.960248
7.029675 1.2601939 4.7335191
7.8394661 1.405364 5.2788019
7.686471 1.3871469 5.066565
6.937593 1.260317 4.4594898
6.7287569 1.230459 4.2041211
6.7159371 1.236173 4.0628781
6.2414198 1.156322 3.6435361
6.3073659 1.176124 3.540261
6.1220832 1.148929 3.291214
6.4685531 1.221736 3.3183689
6.4015059 1.2167701 3.1210279
6.5322018 1.24947 3.014693
6.2995052 1.212552 2.740535
6.1112981 1.183683 2.494267
6.0556722 1.180203 2.3074939
5.9261789 1.162117 2.097697
6.0172901 1.1872391 1.967019
6.054347 1.201853 1.815707
6.075562 1.213406 1.659694
6.1643801 1.238587 1.521275
6.1560969 1.2443579 1.359233
6.5303268 1.3279051 1.275823
6.2520542 1.278879 1.0663919
5.7127042 1.175463 0.83604097
6.2864561 1.301138 0.772443
6.2999692 1.3115619 0.63193798
6.3920622 1.338477 0.50252002
5.992722 1.2621289 0.346793
5.8128662 1.231298 0.222277
5.8535309 1.247022 0.115349
5.5011392 1.1786259 0.013485
5.7221751 1.232932 -0.076889999
6.4459162 1.396715 -0.181529
6.1232138 1.334234 -0.25309101
5.71455 1.2521369 -0.303709
6.0851479 1.340755 -0.385221
6.5846529 1.466848 -0.51909202
6.0244312 1.3714581 -0.53863901
5.4167862 1.259618 -0.390403
6.6342268 1.542722 -0.478147
5.4587569 1.282752 -0.29111099
5.1412072 1.21443 -0.21334399
5.5865059 1.3264641 -0.158033
5.4727998 1.306187 -0.073908001
5.6574659 1.357204 0.013945
6.033915 1.454932 0.119627
7.1157041 1.7157789 0.141074
5.7134891 1.384688 0.21992201
5.202312 1.267197 0.303204
5.9404912 1.454322 0.470604
5.7490578 1.414531 0.58140999
5.7067151 1.41114 0.70733601
6.1530409 1.529097 0.90883303
6.1234078 1.529282 1.05469
7.7023458 1.923611 1.326645
6.3396721 1.591112 1.2513781
5.8946691 1.486712 1.315659
5.83672 1.479304 1.45684
5.6425848 1.437012 1.5598119
5.650774 1.446084 1.715807
5.6984239 1.465337 1.887006
5.8909202 1.5221291 2.113447
5.6606741 1.469648 2.1873369
5.734982 1.496057 2.3748729
5.9635658 1.5630831 2.6336789
6.0033011 1.580946 2.814043
5.8128381 1.538016 2.8799851
5.778584 1.536132 3.01408
5.6370411 1.505513 3.0828559
6.4109702 1.7122101 3.5061131
6.2011142 1.663886 3.542676
6.2000351 1.671314 3.6858511
6.111043 1.654946 3.766829
6.0562158 1.647646 3.857487
6.0068111 1.641696 3.9383349
5.9729438 1.6399029 4.017879
7.6709552 2.125263 5.371901
7.4701548 2.1070499 5.4309158
6.8919621 1.978565 4.9094028
7.4155111 2.147526 5.11693
5.8524518 1.702231 3.9536619
5.9764938 1.745836 3.9377999
5.9963498 1.759203 3.8407309
6.0235829 1.774789 3.73615
6.1574378 1.821998 3.6858511
6.0436811 1.795979 3.478905
5.8137879 1.735009 3.2057221
5.7977262 1.737558 3.0509911
5.6688032 1.706093 2.8354919
5.6399789 1.70456 2.6707821
5.8227429 1.767185 2.5995009
5.6348262 1.717298 2.3603671
5.5842609 1.708974 2.184185
5.5360479 1.701259 2.011729
5.5294161 1.706248 1.855857
5.8098078 1.800158 1.78918
5.8180742 1.8101341 1.632265
5.562727 1.737774 1.410042
5.7912731 1.816552 1.313544
6.0816989 1.915417 1.220728
6.0403409 1.9101011 1.058646
5.6711941 1.800611 0.85292602
5.029551 1.603326 0.63518101
5.8245258 1.8642 0.60056603
5.2806611 1.69689 0.426797
5.0283241 1.622254 0.29919001
5.0794549 1.645263 0.199735
5.4167318 1.761467 0.10978
4.9859948 1.627798 0.012572
5.1613698 1.691685 -0.071346998
4.8986678 1.61189 -0.141938
5.233366 1.728756 -0.22258399
5.3764501 1.782946 -0.29406601
5.2293072 1.740899 -0.34073201
5.8692002 1.969074 -0.476358
5.7438288 1.956749 -0.52899897
5.4962401 1.900938 -0.40825999
5.3281741 1.85668 -0.29292601
5.7391171 2.0073531 -0.245545
5.10075 1.79072 -0.148789
5.3821349 1.896536 -0.074959002
5.4378881 1.92328 0.013825
5.0455232 1.791109 0.103189
4.9156542 1.751434 0.19521201
5.0549049 1.807664 0.30399501
5.9647102 2.1408379 0.487636
5.1665859 1.86115 0.53928697
5.3528471 1.935269 0.68487698
4.9010372 1.778365 0.74735701
5.6190772 2.046294 0.99931002
5.4776912 2.0020101 1.116557
5.3458939 1.960886 1.23232
5.3960848 1.986405 1.391229
5.637682 2.082711 1.6100121
5.4888892 2.034986 1.722015
5.797389 2.1570289 1.983815
5.6725688 2.1180871 2.1032751
5.6755838 2.1267221 2.2668581
5.3973231 2.0296111 2.3105259
5.8849921 2.220794 2.6871071
5.4734459 2.072752 2.653029
5.480741 2.0828011 2.8082769
5.3006358 2.0214019 2.8596849
5.350975 2.0477159 3.0272629
5.4795961 2.1042421 3.2387969
6.1221619 2.359154 3.766
6.0806098 2.351263 3.8788061
6.2007771 2.4060061 4.0878782
6.172945 2.403455 4.189558
7.5300579 2.962101 5.460845
7.4021568 2.951575 5.5759621
8.0810299 3.2222719 6.0873499
8.171113 3.302259 6.034215
8.4365578 3.4323561 6.0367842
6.0902581 2.4942739 4.1622982
8.5945606 3.5199151 5.873827
6.0181088 2.4728971 3.998863
6.0256691 2.4841831 3.8777831
7.7974572 3.214632 5.0180068
5.8352098 2.4135909 3.624619
5.688313 2.3605771 3.3982251
5.3537621 2.2290311 3.0641699
5.1547351 2.153199 2.8160219
5.6670241 2.374918 2.943054
5.4020138 2.271234 2.656332
5.3702359 2.2652221 2.4898951
5.4899168 2.3232141 2.3886349
5.4712248 2.3227961 2.223069
5.5725942 2.3734801 2.1039319
5.4438539 2.3261161 1.8986109
5.177669 2.2194879 1.6571079
5.1600389 2.219034 1.504696
6.451158 2.7742691 1.881194
5.2663231 2.271987 1.387702
5.1593742 2.232954 1.216668
4.8487039 2.1051919 1.012009
4.9011521 2.1347289 0.89332998
4.8392429 2.11445 0.75700599
5.5377679 2.427331 0.727525
4.9760532 2.1880081 0.53381401
4.9325318 2.1757071 0.414828
4.8481021 2.1452 0.30020699
4.8371921 2.14709 0.197978
4.969614 2.212786 0.104847
4.9725161 2.220998 0.013053
5.244185 2.3496449 -0.075484
4.9818888 2.2390809 -0.15032899
4.8678079 2.194603 -0.215644
5.760777 2.6052389 -0.32823199
4.9391918 2.2406061 -0.335302
4.8090978 2.195066 -0.406773
4.6971779 2.170408 -0.45109501
5.4125361 2.531522 -0.41946399
4.8442831 2.2794721 -0.277942
5.1451039 2.4283209 -0.22976699
6.06497 2.862468 -0.27084601
4.9412379 2.3391199 -0.15046699
4.4648428 2.119956 -0.064924002
4.7877741 2.280102 0.012711
5.033247 2.4041851 0.107506
4.8737631 2.3349581 0.20216499
4.7073779 2.261966 0.29574099
4.7262368 2.2777939 0.40370399
4.5517979 2.200238 0.496481
4.9448781 2.3973291 0.66122299
5.1695099 2.513658 0.82397997
4.9122019 2.395596 0.91327298
5.1066279 2.497756 1.088351
6.327702 3.0950079 1.348593
5.09902 2.5013831 1.229147
4.9675708 2.444057 1.339493
5.4872942 2.708262 1.6392519
5.51897 2.7318671 1.811474
5.9660902 2.961828 2.136205
8.0079508 3.975497 2.8673091
5.6588821 2.817508 2.195806
5.1535249 2.573365 2.154408
5.377521 2.693028 2.4098361
5.2396512 2.6315949 2.504823
5.4109521 2.7255001 2.746335
5.3138218 2.6843231 2.851475
5.1123891 2.5900209 2.8889439
7.724165 3.924463 4.5778012
7.8488169 3.99928 4.8606119
7.4974031 3.8311889 4.8328261
7.230556 3.705435 4.8339348
5.2609491 2.719255 3.8415561
5.075459 2.6383281 3.8604071
4.9764872 2.6163199 3.9340179
4.997869 2.657263 3.8755469
5.0991602 2.72633 3.832449
5.1801152 2.7773499 3.8127129
7.5710158 4.1046309 4.9433408
7.6684442 4.1689911 4.816165
7.8872352 4.2998071 4.7464499
5.2974281 2.8959391 3.043339
5.1381769 2.816633 2.80655
5.3516521 2.9417391 2.7682159
5.316184 2.930294 2.593215
5.551249 3.068269 2.5415051
5.2389421 2.903595 2.2402339
5.6559758 3.143328 2.2476499
5.1055212 2.8451719 1.874485
5.0005441 2.7942829 1.685046
4.8597012 2.722997 1.492276
4.9054179 2.7560999 1.361364
4.9908509 2.811727 1.239723
5.1171999 2.8907499 1.125206
4.9089408 2.7806239 0.94277602
4.151329 2.3578501 0.68435597
4.1920362 2.387419 0.58046699
4.1361909 2.3619771 0.467747
4.1878109 2.3979051 0.371328
4.4322491 2.544714 0.28940901
4.4575372 2.5661161 0.192408
4.3598571 2.5166359 0.097023003
4.397542 2.545198 0.012179
4.2904391 2.489862 -0.065159999
4.6439829 2.7022541 -0.147881
4.6862869 2.7341559 -0.21911401
5.1779938 3.029098 -0.311434
5.156929 3.024826 -0.36961001
4.9761829 2.934355 -0.44451901
4.5176349 2.6923251 -0.45847699
4.3854518 2.641228 -0.35938099
4.7908158 2.9005539 -0.290748
4.565351 2.7712951 -0.215684
4.5649762 2.7783229 -0.147083
5.4641371 3.3255689 -0.176054
4.3257899 2.6396461 -0.066565998
5.3765101 3.280807 -0.082734004
4.444212 2.7189929 0.012488
4.2885361 2.630605 0.096965
4.3403111 2.669302 0.190614
4.1548362 2.5618861 0.27640599
4.1962872 2.5941811 0.379614
4.2811222 2.6535001 0.49462399
4.4567289 2.7695091 0.63135803
4.093257 2.55024 0.69130898
4.9137969 3.0693879 0.96815902
4.139523 2.5924239 0.93510199
5.0069842 3.14379 1.279489
5.175477 3.2579651 1.479651
6.1707611 3.8844969 1.764199
4.9208031 3.1055579 1.558777
5.4195318 3.429121 1.886541
5.4878802 3.4813139 2.0842879
4.9714189 3.1617961 2.04651
5.2588611 3.3618071 2.500963
5.1796432 3.319649 2.6281791
5.1737251 3.324342 2.787621
5.2450581 3.404742 3.4504011
5.1428542 3.3468959 3.522069
5.079277 3.31394 3.6083231
5.0478721 3.3018169 3.7072091
7.8886342 5.186193 6.1239591
7.223732 4.8215542 6.0770311
7.7925601 5.2537532 6.4347639
7.7533569 5.2535849 6.2074952
5.0217528 3.428293 3.7370551
5.0176258 3.4340291 3.6175261
5.0574899 3.4699471 3.520575
5.1060028 3.5119741 3.419482
5.246717 3.6177461 3.367363
4.5378079 3.1680059 2.21754
4.6210952 3.234144 2.1095691
5.194983 3.6447999 2.2043381
6.3431392 4.4613519 2.487098
4.7866879 3.374965 1.722862
5.8851571 4.1494651 2.1182311
4.8424182 3.422699 1.588535
4.9129748 3.481137 1.45684
4.7123842 3.3472371 1.250934
4.2619209 3.0347359 1.001667
4.2306762 3.019901 0.86860698
4.064507 2.908422 0.71642399
4.1434388 2.9721971 0.61355799
3.997978 2.8748951 0.48357999
4.6191468 3.3297181 0.438151
4.1812892 3.021486 0.29212299
4.0633888 2.943481 0.18769801
4.1817808 3.0366671 0.099605002
4.4385352 3.2309959 0.013159
4.378675 3.1952109 -0.071202002
4.1929522 3.067167 -0.142984
5.0578451 3.6998401 -0.17247701
4.4260659 3.2455909 -0.22165599
4.2123451 3.0964029 -0.27140999
4.1774502 3.0782461 -0.32080099
4.1194582 3.050308 -0.39442101
4.140902 3.0961039 -0.450748
3.9973991 3.0178821 -0.35160801
4.4968491 3.411391 -0.29302901
4.207355 3.1994841 -0.21346501
4.8961201 3.7232561 -0.24841
4.2412429 3.2330379 -0.14678
4.1481438 3.1697071 -0.068575002
3.939985 3.017904 0.011896
4.2053781 3.2289569 0.102187
4.0814729 3.1413651 0.19267
4.3342152 3.3439159 0.30998799
3.8536179 2.9802859 0.37485701
4.0538411 3.1426671 0.50371301
4.2067261 3.2690201 0.64103401
4.1521368 3.234354 0.75445199
4.1871061 3.269417 0.88772601
4.1857638 3.2762041 1.01765
4.6375399 3.6385181 1.275682
4.2737632 3.361135 1.3155071
10.746739 8.4718885 3.665869
4.7827349 3.7793441 1.793131
9.2535429 7.329689 3.785923
9.8075418 7.7870531 4.3499408
4.4000821 3.5019391 2.1032629
9.5536432 7.6217122 4.8970361
5.1032581 4.090704 2.9647369
5.0127659 4.0277462 3.0799899
4.9814911 4.0121398 3.2242911
4.9931679 4.0311089 3.390722
5.4728231 4.428864 3.884721
6.8886461 5.6011462 5.2823548
7.8377128 6.4031119 6.4008632
4.9933982 4.0891018 4.186583
5.1546068 4.2411451 4.5048342
6.581244 5.5705528 5.4531608
4.6319442 3.9298601 3.7333889
4.7070799 4.0030131 3.676327
4.781219 4.075635 3.6062
4.8120751 4.1116042 3.4924321
4.8619599 4.164001 3.382313
4.88375 4.192513 3.2445469
4.9399371 4.2507162 3.12146
4.9292688 4.2515049 2.9507
4.8863711 4.2244191 2.7593911
4.9800081 4.3154831 2.6404419
5.1139522 4.441957 2.5334439
5.2507439 4.5714922 2.4182751
9.0219135 7.8732409 3.840282
4.2675252 3.7329171 1.667832
4.3541908 3.8176689 1.551273
4.2344751 3.721406 1.36395
4.2661991 3.7580719 1.230417
4.0147181 3.5448389 1.025359
3.819308 3.380197 0.85228997
4.0653672 3.60639 0.77899897
3.818815 3.3956139 0.61487198
4.0260768 3.5882831 0.529612
3.8523779 3.441504 0.39748999
3.933907 3.522568 0.29901999
3.5518489 3.1878941 0.17853899
3.9141769 3.521318 0.101474
3.9486771 3.560657 0.012744
3.87374 3.501245 -0.068588004
4.6533842 4.2059188 -0.082392998
3.8774271 3.512774 -0.14400201
3.6637981 3.326987 -0.199866
3.625495 3.2998919 -0.25450799
3.738337 3.410553 -0.312841
3.617733 3.3159449 -0.377619
4.2003851 3.8860569 -0.498862
3.7890401 3.538296 -0.363933
3.7740929 3.540786 -0.26866201
3.687546 3.4676459 -0.20442601
3.8124249 3.593425 -0.14419401
3.7955489 3.5858591 -0.068588004
3.589118 3.398726 0.011848
3.7890079 3.596374 0.100684
3.8646989 3.676754 0.199549
3.429203 3.2700281 0.26832101
3.727824 3.5630701 0.396799
3.720407 3.5642531 0.505961
3.5448411 3.4039559 0.59133798
3.654434 3.5173659 0.72706598
3.2957931 3.1795549 0.76526397
4.0181561 3.8854561 1.070112
3.509109 3.4011221 1.057604
3.7966559 3.6883759 1.280702
3.9149671 3.812078 1.463812
4.9821191 4.8511839 1.8628221
4.0493288 3.9520841 1.664445
4.9459748 4.8271971 2.033005
4.8791509 4.7730732 2.1890371
4.7834811 4.690372 2.3270559
4.7161832 4.6351428 2.473191
4.6474829 4.5782652 2.6140339
4.668252 4.6094241 2.8026049
4.6519008 4.6039662 2.9668009
5.0568871 5.0281072 3.5947499
6.2891712 6.282527 4.9050579
4.4433212 4.4489522 3.6091869
4.4535971 4.4696288 3.754046
4.402072 4.428196 3.837589
4.3564868 4.3925362 3.912678
4.3365369 4.382607 3.9993761
4.2873011 4.3530321 4.1233239
4.2578702 4.363554 4.2659612
4.2496738 4.395853 4.1862688
4.3063478 4.4752531 4.116416
4.8973131 5.1012459 4.5871191
5.5486221 5.7796769 5.197175
5.5828948 5.828918 5.1046548
5.6921749 5.9568701 5.0639
5.8019209 6.0858588 5.0026679
5.3388228 5.6393409 4.1031561
5.1860251 5.4907241 3.8072121
8.2897921 8.7768478 6.0857768
8.8633184 9.4059381 6.1902189
7.3290482 7.795866 4.8502612
4.8906212 5.2264228 2.868073
5.5182319 5.9246802 2.8123519
5.5146308 5.9623652 2.1756639
5.035779 5.4573412 1.796652
4.4378629 4.8205972 1.418035
3.7198341 4.0500889 1.052812
3.335058 3.6396301 0.824929
3.556572 3.8904381 0.75558698
3.3498981 3.672935 0.59814698
3.5619321 3.914541 0.519741
5.162056 5.6730661 0.75322402
3.522408 3.880151 0.40324399
3.4006691 3.7548151 0.286865
3.3980269 3.7606709 0.189605
3.4134679 3.7866061 0.098255999
4.5428109 5.0394011 0.13076399
3.422395 3.8053889 0.012267
3.280792 3.6564751 -0.06453
3.6522729 4.0800328 -0.15071499
3.671231 4.1108122 -0.22258399
3.649226 4.0957408 -0.28478599
3.8950541 4.3819008 -0.362452
3.8471119 4.3482728 -0.44674399
3.8302259 4.3699679 -0.50659198
3.8803339 4.4688792 -0.41547301
3.650914 4.224463 -0.28986701
3.7901771 4.3959169 -0.23440801
3.441879 4.0013452 -0.14526699
3.4512501 4.0216942 -0.069613002
3.258261 3.8057439 0.012008
3.3402491 3.9107089 0.099123999
3.4655621 4.0669808 0.199885
3.531436 4.1540532 0.30874401
4.2925601 5.0493689 0.37528801
3.3006361 3.8917279 0.392656
3.2855301 3.8830531 0.49950999
3.5818729 4.243278 0.66815197
3.1186631 3.7032659 0.69400501
3.3639269 4.0039392 0.87388098
3.399359 4.0556698 1.013137
4.6107011 5.5139012 1.555524
4.5376759 5.4394002 1.713874
4.468154 5.368607 1.871102
4.4186211 5.3216429 2.034698
4.3693271 5.2747378 2.196672
4.3229961 5.231153 2.357244
4.3012109 5.2171121 2.5288899
4.965548 6.0229139 2.919486
5.0047698 6.1282759 3.789727
5.7158508 7.0155911 4.5616322
5.003469 6.1557961 4.1914511
5.0331321 6.2070169 4.4093828
5.3594589 6.6409278 5.0773191
4.0927148 5.095459 4.1334338
5.2329512 6.5305929 5.428463
3.9197979 4.9622722 4.4247661
3.0913761 3.9511199 3.4348869
3.9323521 5.02598 4.3693118
4.2259288 5.4663129 4.2465339
4.8914938 6.342433 4.76542
4.3001332 5.5890622 4.0477648
4.7690811 6.2135038 4.321939
3.794384 4.9554958 3.297755
3.7748129 4.9418259 3.1347151
3.819308 5.0121269 3.018218
3.8401401 5.0516162 2.876385
3.816328 5.032423 2.698107
3.901782 5.1575298 2.5913451
3.9230599 5.1981859 2.4357071
4.023201 5.3437819 2.323447
4.0898852 5.4454961 2.1841509
4.1791272 5.5777888 2.05022
3.1141019 4.1664071 1.393429
4.303071 5.7571468 1.925442
4.4329429 5.9452839 1.7943
3.3225751 4.4669132 1.2048219
3.1674211 4.2686739 1.01765
2.925292 3.9519379 0.82163298
3.5461459 4.7906842 0.996014
3.2223051 4.3637729 0.77758002
3.0054381 4.079998 0.60973501
3.5559399 4.8390779 0.58971697
3.087074 4.2112598 0.401786
3.215997 4.3978429 0.30851799
3.1607831 4.3328838 0.200633
3.3985651 4.6702342 0.111321
3.1758151 4.3747988 0.012958
3.3710439 4.6550908 -0.075497001
2.9759679 4.1195998 -0.13987499
3.159158 4.3838978 -0.218226
3.3074479 4.6009269 -0.29416999
3.544534 4.9428449 -0.37602699
3.46913 4.861486 -0.45955601
3.4752519 4.9182329 -0.52500403
3.432941 4.906548 -0.42037499
3.360292 4.8265448 -0.30531701
2.8737161 4.1378889 -0.203457
2.906595 4.1956172 -0.14048
2.9343989 4.2462859 -0.0678
2.9864681 4.332377 0.012612
2.8976109 4.2139478 0.098564997
3.412955 4.9757652 0.22571599
3.14815 4.6011462 0.315698
3.1374331 4.5969381 0.42825499
2.9862981 4.3864222 0.52110898
3.225095 4.7490191 0.69073099
3.8938749 5.7338119 0.83396602
3.001241 4.43046 0.76708001
2.915194 4.3142128 0.87009001
2.872654 4.2619138 0.98399103
4.1903229 6.2324448 1.625326
2.854677 4.267148 1.375316
3.7709661 5.6368098 1.816762
3.656749 5.4798188 1.937902
3.662838 5.5027719 2.120019
4.1603971 6.250268 2.4080019
3.4418061 5.183733 2.1613531
4.0620308 6.1178598 2.550837
3.5609269 5.4175282 2.9387269
3.2750809 4.995275 2.8609791
4.8752069 7.4546852 4.4900608
3.3404319 5.1208129 3.2304821
3.2862539 5.0505662 3.3247919
3.2758279 5.0473361 3.453867
3.2435031 5.0102611 3.5510559
3.238307 5.0149741 3.6689849
3.245142 5.0383701 3.790273
3.077199 4.7898321 3.692987
3.1654999 4.9524989 3.9666929
2.9529271 4.6675258 3.8646481
3.0202429 4.8233199 3.89645
3.0004849 4.8165832 3.7611811
3.1511681 5.0715652 3.8731201
3.0309801 4.8907738 3.639004
3.1351881 5.0720682 3.6647961
3.1394999 5.0922389 3.559237
3.1087379 5.0554571 3.406575
3.2389629 5.2947302 3.2795351
5.8010759 9.5326452 5.344842
6.3051491 10.388073 5.508358
3.157439 5.2156968 2.6046081
3.46838 5.7594419 2.5145271
3.9191611 6.5768762 2.050941
2.773443 4.6788511 1.1771131
3.219486 5.431334 1.366424
2.6791041 4.5316882 1.007872
2.783365 4.7205319 0.91574597
2.884253 4.9046268 0.81560802
2.808295 4.788178 0.66791302
2.864717 4.8973832 0.557172
2.9627969 5.0785589 0.45242199
2.848424 4.8955641 0.32073
2.7500141 4.7390609 0.204969
3.715503 6.4028749 0.27693099
2.837065 4.9021802 0.109163
2.829397 4.9020329 0.013566
3.0364821 5.2749362 -0.079949997
2.6552031 4.6249952 -0.14678
2.61939 4.574893 -0.2129
2.6429031 4.6283979 -0.27669799
3.175247 5.5606689 -0.332432
2.5777631 4.5265212 -0.32203501
2.5488529 4.4999952 -0.39794999
3.0887499 5.5126939 -0.55088502
2.6827779 4.8406682 -0.38851199
3.0582349 5.5484552 -0.328906
2.5562279 4.6504288 -0.214312
2.9821861 5.425355 -0.25002399
2.7465501 5.010428 -0.157263
3.1684301 5.7800498 -0.181419
2.75544 5.040524 -0.075457998
2.836457 5.2030549 0.014204
3.52758 6.4887352 0.14234599
2.6566639 4.90028 0.20852
2.745456 5.078104 0.326893
2.7472141 5.0954909 0.44543999
2.710325 5.0410552 0.56205899
2.857533 5.3296642 0.72764403
3.128489 5.851337 0.95111698
2.850152 5.3456511 1.012331
3.030678 5.7001519 1.2359591
2.523555 4.7596731 1.165903
3.0404439 5.7345772 1.4047101
4.838542 9.4434929 5.6065102
4.6947031 9.2419891 6.1674352
2.5059371 4.961679 3.5155301
4.3119488 8.5375271 6.049149
2.371249 4.7085919 3.419795
2.401057 4.7954612 3.6193061
2.358727 4.8223162 3.675555
2.3903019 4.9303122 3.554214
3.1919191 6.6032681 4.6385541
2.9805231 6.184278 4.219306
2.5288351 5.262681 3.4738481
3.280339 6.8266129 4.5061851
3.2211239 6.723361 4.2792511
2.74404 5.7618699 3.372035
2.9739251 6.3010311 3.1583669
4.3638568 9.3583612 3.586725
3.3832121 7.2773938 2.5738289
3.4669881 7.4802999 2.4252701
3.653425 7.9066248 2.3332491
2.82147 6.1247969 1.631567
2.706043 5.8922181 1.403229
2.529835 5.542449 1.0181
2.500525 5.49511 0.86541301
2.457289 5.4167881 0.715698
2.4043679 5.3165259 0.57300502
2.3755829 5.2691569 0.444749
2.3440101 5.2152958 0.32378301
2.4689331 5.5275478 0.116678
2.575233 5.783555 0.015175
2.8011589 6.3106499 -0.090694003
2.727478 6.1639681 -0.185518
2.648566 6.0044551 -0.265035
2.4673419 5.611239 -0.31822601
2.6978469 6.15486 -0.415456
2.6612411 6.1098838 -0.51280099
2.4602139 5.7208052 -0.54289502
2.6356659 6.208077 -0.473456
2.61678 6.2036161 -0.34954101
2.5776579 6.1307321 -0.26858601
2.47507 5.9059119 -0.176246
2.453124 5.872684 -0.083600998
2.265856 5.4421248 0.01413
2.4354 5.8685479 0.122459
2.2317779 5.3955641 0.218427
2.387522 5.7911139 0.35470799
2.4188809 5.8865862 0.48970801
2.3736489 5.7956338 0.61502999
2.3402619 5.733079 0.74508601
2.3904359 5.8755021 0.90925801
2.6115129 6.4402971 1.161329
2.52423 6.2458558 1.2897381
2.5868599 6.4223018 1.498413
4.6428542 11.603956 3.3481109
3.0428209 7.6306381 2.416522
3.7091391 9.3331118 3.2209511
2.8325739 7.1516328 2.6719151
2.7409589 6.9913702 3.2080281
2.5475719 6.520359 3.1732299
3.4057119 8.7167168 4.2421212
3.015816 7.745348 3.9810929
2.838598 7.366003 4.3557572
2.474648 6.4438529 3.9621401
2.621959 6.8512268 4.364552
2.829073 7.4182029 4.8795872
3.365809 8.9502287 6.453218
1.954967 5.38767 3.798748
2.5769391 7.1275458 4.9163642
2.4970851 6.9826598 4.4121041
2.7732151 7.7832899 4.7427201
3.8857319 10.945897 6.4089918
2.6990969 7.6312952 4.2769442
2.3377049 6.6340318 3.5456851
2.6386361 7.4880261 4.0021191
2.289053 6.5200992 3.3098021
2.440845 6.9783669 3.351172
2.786701 7.9969811 3.6177731
3.343924 9.6320047 4.0854511
2.714386 7.8480411 3.1058509
3.493499 10.215743 3.175935
3.3972621 10.010217 2.557642
2.2444241 6.6386271 1.5166039
2.0636511 6.1273961 1.2378401
2.1248591 6.3334279 1.116333
2.1960571 6.5709252 0.99311799
2.162653 6.4960818 0.82381099
1.931269 5.823607 0.60251999
2.0240779 6.1272621 0.49653599
1.882062 5.7196631 0.34097001
2.1008971 6.4097629 0.25233299
2.087764 6.4200449 0.016181
2.0006411 6.1765051 -0.085281998
2.043828 6.3349409 -0.18320701
2.047508 6.371645 -0.27028099
2.1604919 6.750133 -0.367946
2.2141881 6.945694 -0.45068899
1.988333 6.2876101 -0.50743002
1.765389 5.6741738 -0.51805598
2.1581941 7.0519938 -0.51771301
2.010776 6.6252599 -0.35944301
1.930146 6.3862562 -0.26943401
1.95526 6.496573 -0.186729
2.0444429 6.8216119 -0.093543999
1.986362 6.6559 0.016649
1.981111 6.6665711 0.13404
1.9020391 6.4278011 0.250763
1.945449 6.6310811 0.53175098
1.904315 6.518878 0.66692603
1.9329849 6.645668 0.832771
1.838845 6.3495231 0.94757003
1.798656 6.2378411 1.084852
1.80608 6.291008 1.253071
2.9656899 10.375657 2.3354011
2.6254439 9.2696686 2.580884
2.019629 7.1624122 2.189064
2.411474 8.5520506 2.6137829
2.270967 8.0897427 2.6947639
2.7203219 9.6904554 3.2279749
1.948429 7.003221 2.7187581
1.969015 7.1092 2.955852
2.775502 10.066459 4.4608331
2.7872491 10.155052 4.7734699
2.3425369 8.573822 4.2571259
2.1364751 7.928154 4.5306449
2.154572 8.0324106 4.7735848
2.528338 9.5141077 6.050395
2.5657179 9.7001143 6.3458071
2.3667009 9.6226892 6.2672329
2.350563 9.605197 6.0776229
1.915189 7.905551 4.6690431
2.3433371 9.9243612 4.622364
2.3360519 9.945179 4.3641911
2.310261 9.8869171 4.0683408
2.3803959 10.240697 3.9322331
1.600711 6.922893 2.4681489
1.625325 7.066709 2.325547
1.6166019 7.066318 2.1323409
2.1436679 9.4205236 2.588129
2.2108071 9.7679682 2.4231279
2.238554 9.9983826 1.9615901
1.884717 8.5577106 1.054374
1.518998 6.935451 0.69722301
1.583762 7.2715249 0.57264298
1.515728 6.9982672 0.405478
1.475209 6.8885002 0.135775
1.4845591 6.9716702 0.017085001
1.4537669 6.8661799 -0.092191003
1.481811 7.0389948 -0.197982
1.509023 7.2097669 -0.297479
1.690086 8.1218462 -0.43067899
1.249079 6.1091809 -0.47981101
1.099727 5.5089989 -0.48974299
1.322939 6.7913189 -0.48571
1.383966 7.238883 -0.29764
1.402656 7.3830948 -0.20684101
1.351449 7.158926 -0.095697999
1.3388259 7.1374989 0.017406
1.306105 7.0080032 0.137393
1.30913 7.0697851 0.26896799
1.345816 7.3153181 0.421195
1.378709 7.5433731 0.59005803
1.463968 8.0627518 0.80472797
1.598804 8.9232378 1.299468
1.733146 9.8709898 2.1689341
1.747208 10.019344 2.4607551
1.23367 7.1723361 2.1408069
1.688079 9.8828678 3.2154541
1.169914 6.89745 2.4300871
1.214452 7.2107439 2.7348721
1.322366 7.9075279 3.2124951
1.616063 9.7331572 4.2149081
1.637849 9.9356604 4.5645628
1.581583 9.8069057 5.2486582
1.203051 7.9271712 5.4110589
1.320969 10.034489 5.3476982
1.3786221 10.963604 4.4276409
1.202607 9.7465076 3.4111781
1.097032 8.9765158 2.900291
1.131642 9.3497438 2.770407
1.2021641 10.030028 2.7061241
1.311132 11.15814 2.431432
0.89911902 8.1402864 0.63018298
0.936746 8.572155 0.48830399
0.93795103 8.6763449 0.32646301
0.58683401 6.0155768 -0.46507999
0.50795603 5.4696288 -0.47888699
0.58784699 6.6656609 -0.469744
0.697254 8.7145271 0.168495
0.69079798 9.1687841 0.90294999
0.65951997 8.8912649 1.072771
0.67659199 9.8996019 2.4007881
0.62838399 9.3524084 2.511018
0.60490102 9.1620312 2.700984
0.66149902 10.19978 3.278059
0.609465 9.5695982 3.3307879
0.615116 10.02579 4.0248241
0.474307 7.8805208 3.372633
0.52112103 8.8293667 4.0092692
0.59349799 10.918718 6.0336132
0.49613401 9.3274307 5.3615088
0.413775 8.3263502 5.2724938
0.26806 8.3170929 5.2628722
0.29461601 11.154302 5.8956881
0.21868099 10.049788 4.2942638
0.183112 9.4216928 3.524472
0.18195599 9.9585648 3.4597399
0.147524 9.2508354 2.721585
0.140742 9.5202427 2.5506091
0.056999002 10.392123 0.79965901
0.046069 10.660822 0.60369402
-0.042433999 5.8116651 -0.44720399
-0.063162997 5.2845769 -0.46073601
-0.42074099 8.5581303 4.5273471
-0.45708999 8.4927626 5.2272692
-0.46586701 8.4725742 5.366569
-0.65845001 8.5349627 4.7234068
-1.450635 14.096926 0.27312899
-0.71657199 6.5172071 -0.40533599
-0.62967998 5.6070752 -0.43416199
-0.60006797 5.1284289 -0.45014
-0.75150698 6.1741252 -0.43662101
-1.666666 12.822738 0.24921501
-1.5907331 10.117432 5.8787432
-1.503125 6.9548392 -0.36939701
-1.335476 6.1445408 -0.38873801
-1.160418 5.2800069 -0.415979
-1.07717 4.7948561 -0.42842799
-1.329636 5.7927332 -0.41722399
-1.634879 4.9191132 -0.39886999
-1.5263309 4.5222631 -0.41609499
-1.8452539 5.3845901 -0.39957699
-1.275056 -4.2705712 1.193924
-0.99927002 -3.361038 1.031459
-0.960145 -3.24317 1.084746
-0.86489898 -2.933898 1.062466
-1.075547 -3.6640589 1.428215
-0.91562903 -3.132673 1.307761
-1.194797 -4.0878 1.7064871
-0.93974102 -3.2290161 1.436659
-1.017545 -3.5114729 1.657214
-0.86330801 -2.992156 1.491614
-0.935911 -3.2579191 1.708699
-1.035053 -3.6187861 1.988744
-1.010516 -3.5485201 2.0358429
-0.88240302 -3.1122849 1.856864
-0.975169 -3.4547009 2.135747
-0.96461099 -3.432461 2.1913371
-0.95548499 -3.415132 2.242841
-0.92136103 -3.307909 2.227438
-0.86537898 -3.313432 2.16587
-0.892694 -3.4342611 2.180865
-0.87905401 -3.3979061 2.0881951
-0.97008902 -3.767741 2.2332151
-0.92061198 -3.592788 2.0464721
-0.805529 -3.1588349 1.7224571
-0.89727098 -3.5356741 1.838787
-0.81642598 -3.232769 1.597016
-0.89530998 -3.5624549 1.665058
-0.94621199 -3.7835071 1.666085
-0.943977 -3.793184 1.566263
-0.73711699 -2.976629 1.146916
-0.98229802 -3.966717 1.528404
-0.80073601 -3.2496409 1.162544
-0.816311 -3.329406 1.0994051
-0.82536602 -3.3832331 1.024404
-1.052435 -4.3357811 1.195218
-1.35377 -5.6054559 1.395227
-0.67568898 -2.8120079 0.62589002
-0.671619 -2.8093741 0.55301303
-0.78828299 -3.314307 0.56929201
-0.81007701 -3.4235041 0.50429201
-0.68158102 -2.8954041 0.35790899
-0.94365698 -4.0087242 0.495529
-0.698237 -2.9816041 0.30072299
-0.76235902 -3.27244 0.25854799
-0.745848 -3.218415 0.187078
-0.98251802 -4.2396698 0.24644101
-1.330536 -5.7414031 0.33373299
-0.75941002 -3.2942359 0.12646499
-0.667494 -2.9108951 0.057558998
-0.657803 -2.8839231 0.00709
-0.67676097 -2.982928 -0.040178999
-0.917687 -4.044847 -0.054482002
-0.67355299 -2.984787 -0.084215999
-0.955208 -4.2329178 -0.119433
-0.66981202 -2.984261 -0.123519
-0.71539998 -3.2046981 -0.170467
-1.226711 -5.4951601 -0.29230401
-0.71021003 -3.2341499 -0.25478899
-0.68128002 -3.172364 -0.282868
-1.149308 -5.4748998 -0.39271399
-0.66229302 -3.191618 -0.169223
-1.128983 -5.4406142 -0.28846699
-0.637555 -3.090348 -0.127433
-0.848728 -4.1139398 -0.169642
-0.60654497 -2.9572959 -0.083088003
-1.255142 -6.1558018 -0.082524002
-0.66965801 -3.3038061 0.0080800001
-0.65070498 -3.229486 0.063493997
-0.65213603 -3.256012 0.124223
-0.71212 -3.5769601 0.20652699
-0.68805802 -3.477098 0.272742
-0.66241902 -3.367964 0.33707899
-0.69600499 -3.560442 0.436515
-0.61884099 -3.1852751 0.46512899
-0.66979402 -3.46894 0.59038901
-0.65020603 -3.3885169 0.66057003
-0.58638102 -3.075119 0.67750102
-1.084156 -5.6855621 1.2526259
-0.82967699 -4.3785028 1.078226
-1.036887 -5.5066552 1.501074
-0.90611398 -4.9056339 1.732823
-0.75029898 -4.0885048 1.554677
-0.76204199 -4.1797218 1.702395
-0.68918401 -3.8050151 1.651942
-0.60567099 -3.4113441 1.74651
-0.555417 -3.1494329 1.689755
-0.68517298 -3.885201 2.0845139
-3.3245349 -23.415487 10.103364
-3.20643 -23.359058 7.5617681
-0.70245802 -5.1617131 1.532373
-0.79696703 -5.9073062 1.596815
-1.036664 -7.6839972 2.077076
-0.74880803 -5.5991569 1.3667721
-0.42897999 -3.236119 0.70647901
-0.76497102 -5.7707548 1.259818
-0.430646 -3.2777891 0.63292903
-0.39326301 -3.020272 0.50896698
-0.497715 -3.8572669 0.55750299
-0.47835699 -3.741338 0.45383701
-0.50130802 -3.957185 0.391711
-0.523853 -4.1738191 0.32368401
-0.467125 -3.7570059 0.214385
-0.44023699 -3.5744729 0.134727
-0.481967 -3.9509721 0.076713003
-0.48012799 -3.9740901 0.0095950002
-0.46670699 -3.900841 -0.051605999
-0.457472 -3.8615241 -0.107024
-0.43570101 -3.7144849 -0.151039
-0.467237 -4.0235071 -0.21028399
-0.46574199 -4.0515318 -0.25212401
-0.45389399 -4.0305328 -0.31209901
-0.39853999 -3.6924679 -0.32377401
-0.40154201 -3.8887031 -0.27443799
-0.41013399 -4.0638561 -0.212047
-0.37738699 -3.783124 -0.153541
-0.537664 -5.3898339 -0.218751
-0.356309 -3.6141031 -0.099954002
-0.39731401 -4.0783391 -0.053824998
-0.52858901 -5.4258428 -0.071608998
-0.37902901 -3.937789 0.009482
-0.35888401 -3.774272 0.073071003
-0.31901899 -3.3966651 0.12762401
-0.36838499 -3.9715619 0.225862
-0.49471501 -5.3335242 0.30331701
-0.33174399 -3.622088 0.27987701
-0.32955301 -3.6445279 0.35936201
-0.49448499 -5.5398579 0.669227
-0.577811 -6.4733858 0.78200001
-0.34485701 -3.91467 0.56331998
-0.335181 -3.855792 0.64675802
-0.52463901 -6.0352392 1.012331
-0.27074999 -3.1568661 0.60660398
-0.482732 -5.706048 1.2393
-0.65039802 -7.6879239 1.669745
-0.49362299 -5.9161482 1.436381
-0.44586301 -5.418972 1.456567
-0.63627899 -7.7332749 2.0786281
-0.41907999 -5.1664209 1.524754
-1.805032 -23.605291 9.4861021
-1.778407 -23.615637 10.117114
-0.92833298 -23.570528 11.298338
-0.90108597 -23.570557 10.692209
-0.87166202 -23.512779 10.051508
-0.76048201 -23.437214 7.5205402
-0.241245 -7.7094331 2.2689281
-0.2323 -7.7085762 2.065949
-0.16023301 -5.529079 1.338318
-0.172731 -6.207829 1.344003
-0.13860901 -5.4328752 0.90816402
-0.131779 -5.410079 0.77573597
-0.091426 -3.9405091 0.47426501
-0.088292003 -4.0047579 0.39337301
-0.112917 -5.40484 0.415979
-0.078643002 -3.984839 0.225693
-0.073775999 -3.9705369 0.148559
-0.070754997 -4.0606289 0.078273997
-0.065787002 -4.0434532 0.0096930005
-0.080761001 -5.3429289 -0.070191003
-0.091294996 -6.0397892 -0.079346001
-0.079685003 -5.708282 -0.157125
-0.078373 -6.1205091 -0.2472
-0.057565998 -4.94101 -0.25652999
-0.063169003 -6.019176 -0.37213901
-0.031111 -3.800637 -0.29245901
-0.014077 -3.9480009 -0.34418401
0.0052370001 -4.9727588 -0.349087
0.015534 -4.6187539 -0.239784
0.028592 -5.0410099 -0.13874701
0.051591001 -7.5561719 -0.099257998
0.038052998 -3.6972179 0.13831601
0.042134002 -3.6808619 0.20844901
0.062949002 -4.9948368 0.38437
0.075774997 -5.5079808 0.54094899
0.079879001 -5.3567619 0.64461797
0.081329003 -5.0616021 0.72564697
0.096151002 -5.9840531 0.85789299
0.102382 -5.9446759 0.993541
0.331992 -5.6373219 3.3598249
0.42291501 -5.299808 0.76211399
0.399241 -4.93118 0.59527999
0.63692099 -7.7554588 0.76416999
0.645172 -7.746201 0.59811401
0.652161 -7.722095 0.43883401
0.65886497 -7.6954441 0.28893
0.46851599 -5.3987021 0.104442
0.44952101 -5.1112561 0.012298
0.68259299 -7.6599832 -0.101018
0.68837702 -7.6250911 -0.21072
0.699157 -7.6458421 -0.31006899
0.70678502 -7.632021 -0.397912
0.71446699 -7.6189642 -0.473088
0.72605997 -7.5547552 -0.58399701
0.76105398 -7.55196 -0.66170502
0.79356301 -7.5256529 -0.53122801
0.81025898 -7.5172768 -0.39252001
0.81916201 -7.5183411 -0.305428
0.82995999 -7.5365672 -0.208684
0.83837098 -7.532836 -0.09956
0.84580302 -7.520566 0.018139999
0.85920101 -7.560925 0.146662
0.869542 -7.573916 0.28519201
0.87842 -7.5740161 0.43176699
0.888421 -7.5835671 0.58752698
0.89435703 -7.55866 0.74745703
0.90458697 -7.5701542 0.91734999
0.90636998 -6.7255359 3.0762091
0.87630397 -6.2825942 3.5001619
1.290346 -8.2073822 5.688467
0.95828497 -6.0046611 4.030231
1.156961 -6.7470598 3.103044
1.458527 -7.7995658 0.95474201
1.467189 -7.7959809 0.77902502
1.469656 -7.759707 0.60770398
1.472976 -7.7282772 0.44550601
1.484001 -7.737463 0.294725
1.4886121 -7.7132068 0.151402
1.49342 -7.6903119 0.018777
1.500844 -7.6810689 -0.102804
1.511032 -7.6859088 -0.21559
1.5182869 -7.6759038 -0.316001
1.523038 -7.653419 -0.405119
1.529472 -7.6395249 -0.48166499
1.545522 -7.6279969 -0.59888101
1.571403 -7.5753899 -0.67447197
1.608988 -7.5800452 -0.54397303
1.622467 -7.5573921 -0.40128201
1.63903 -7.591754 -0.31366
1.670797 -7.6107392 0.018676
1.685552 -7.6357212 0.150709
1.708668 -7.6981368 0.29498601
1.716892 -7.693119 0.446354
1.730018 -7.709928 0.60801101
1.750836 -7.760684 0.78127301
1.762639 -7.771131 0.95880401
5.3995948 -23.552925 4.037951
5.5504508 -23.707407 6.522593
5.6595759 -24.048294 7.267344
5.736083 -23.877651 9.8398218
2.132926 -8.5727701 5.0707831
2.230715 -8.9217463 5.47154
1.783977 -7.1001482 4.4994411
1.638638 -6.4899678 4.2333889
1.929302 -7.5310469 5.2465959
2.03637 -7.583251 5.2042189
2.0640969 -7.6512022 5.1405768
1.796695 -6.5992761 4.203598
1.971752 -7.2093911 4.4468732
2.414808 -8.7894363 5.2320762
2.3805659 -8.6257238 4.937427
6.7373672 -23.768118 9.8989611
6.8576908 -24.086502 9.3665962
2.8743119 -10.051374 3.6313491
6.8634381 -23.690149 6.6072078
2.3397651 -7.8713822 0.98807198
2.3467879 -7.8617401 0.80570602
2.3544979 -7.8544521 0.63094997
2.351526 -7.8116679 0.46195799
2.3652811 -7.8245978 0.30579001
2.3752611 -7.8249178 0.157607
2.3730731 -7.785336 0.019508
2.396208 -7.8287911 -0.107545
2.401036 -7.8122602 -0.224944
2.439503 -7.8725948 -0.42787901
2.4472351 -7.8653488 -0.509247
2.4795411 -7.9047451 -0.63747197
2.552397 -8.0071583 -0.73266101
2.6115749 -8.0637846 -0.59502298
2.760535 -8.3262835 0.021025
2.756398 -8.2817192 0.16822501
2.778795 -8.3169298 0.328033
2.792556 -8.3261003 0.497293
2.8152659 -8.3617086 0.67890102
2.8149321 -8.3288841 0.86336797
2.8334451 -8.3518362 1.061183
2.8534651 -8.378974 1.268818
2.860827 -8.3688955 1.47795
2.875597 -8.380456 1.6962709
2.893821 -8.4018908 1.923147
3.126487 -8.8094006 3.9933391
2.8777161 -8.0788212 3.887476
2.3256731 -6.5052109 3.308938
3.4244421 -9.5438156 5.1112418
3.74738 -10.293831 6.517683
3.173878 -8.6252909 5.9617848
4.023138 -10.446185 7.2613511
3.983403 -10.307489 6.988833
3.4070909 -8.7859735 5.791728
3.9064519 -10.039269 6.4092851
9.5906324 -24.313843 13.175347
3.0090411 -7.602674 3.916296
3.67484 -9.2848892 4.7828412
3.152184 -7.9375272 3.8713739
3.5248041 -8.7868757 3.540936
3.574687 -8.8814774 3.3255379
3.8781841 -9.5716171 3.0379369
3.4229081 -8.3645105 1.955933
3.428884 -8.3515368 1.728425
3.4365699 -8.3428097 1.5077831
3.443516 -8.332324 1.2923729
3.4452159 -8.3091908 1.082328
3.458106 -8.313118 0.88418502
3.468359 -8.3106766 0.69294101
3.4722619 -8.2930231 0.50910902
3.4830461 -8.2918749 0.33644399
3.49016 -8.2819624 0.173216
3.494525 -8.2656221 0.021509999
3.4979229 -8.2470818 -0.117672
3.509177 -8.2470589 -0.24667899
3.5218749 -8.250432 -0.36228499
3.5330689 -8.2502432 -0.465933
3.542592 -8.2461052 -0.55484599
3.5591061 -8.2320442 -0.69010198
3.595737 -8.2122993 -0.78155702
3.6417251 -8.2137718 -0.63073701
3.6725121 -8.2317886 -0.46795499
3.681119 -8.2255259 -0.36393899
3.7016461 -8.2458286 -0.24877
3.7200689 -8.2612743 -0.119012
3.7270401 -8.2512798 0.021701001
3.748692 -8.2736864 0.17506599
3.7757521 -8.3078632 0.341378
3.7819369 -8.2960129 0.516289
3.7897301 -8.2876911 0.701226
4.1828008 -9.1472902 0.77395803
4.188117 -9.1310081 0.98651099
4.208982 -9.1485901 1.211705
4.223587 -9.1524343 1.444909
4.2379961 -9.155839 1.685955
4.2604251 -9.1764688 1.936957
4.2683692 -9.165801 2.1881831
4.2922568 -9.1893387 2.4539349
4.3327522 -9.2482719 2.735882
4.3599391 -9.2783308 3.0156429
11.520268 -24.369314 9.3630209
11.42136 -24.087891 9.9705315
3.6081171 -6.9533238 4.1391282
4.7960839 -9.0117025 3.002944
4.7931399 -8.9810553 2.7270839
4.7962918 -8.9619741 2.4593439
4.8052621 -8.9538069 2.199182
4.8234072 -8.9626684 1.948615
4.828495 -8.9472895 1.698975
4.8610158 -8.9826593 1.464065
7.7850361 -14.30667 1.599488
4.7170429 -8.5036383 -0.26764399
4.7908759 -8.6132212 -0.39803699
4.849371 -8.6946793 -0.51684499
4.9146919 -8.787837 -0.62247401
4.959681 -8.8202887 -0.77863699
5.0101089 -8.8141317 -0.883865
5.0148501 -8.7281284 -0.70664698
4.9957018 -8.6483593 -0.51850402
5.0389161 -8.6999025 -0.40602699
5.129498 -8.8327093 -0.28112501
8.5007763 -14.368354 1.639461
9.7026119 -15.974844 6.4922628
4.7724261 -7.7357798 4.5818882
4.694294 -7.5894418 4.7151489
5.2389302 -8.4699764 5.2622061
5.2797771 -8.5139198 5.527792
5.2753549 -8.4848251 5.7348728
5.2371421 -8.4016113 5.8903041
5.1845851 -8.0446987 6.5528378
5.2594299 -8.1194258 6.4119072
5.345099 -8.2307653 6.3661308
4.6994548 -7.1999521 5.2843428
4.700449 -7.1832781 5.1074872
5.3419752 -8.1020346 5.1276612
9.4105177 -14.094247 6.7906122
9.8839264 -14.366487 1.712467
6.6484318 -9.5446854 0.02788
