# .PCD v0.7 - Point Cloud Data file format
VERSION 0.7
FIELDS x y z
SIZE 4 4 4
TYPE F F F
COUNT 1 1 1
WIDTH 1547
HEIGHT 1
VIEWPOINT 0 0 0 1 0 0 0
POINTS 1547
DATA ascii
-0.91743797 -4.0627799 1.66892
-1.0878609 -4.8434939 1.856644
-1.04208 -4.6648741 1.660308
-1.116721 -5.0538068 1.522496
-1.228387 -5.5898218 1.53316
-1.210451 -5.538692 1.371711
-0.77964097 -3.587271 0.79447198
-0.762281 -3.52703 0.690844
-1.307745 -6.0508628 1.18519
-0.66961098 -3.1156681 0.53253698
-0.80950701 -3.787873 0.55523199
-0.75428897 -3.549567 0.436634
-0.82317197 -3.895829 0.391027
-0.72527498 -3.452208 0.271438
-0.68469697 -3.2778881 0.189623
-1.083594 -5.1875458 0.30009401
-0.73110801 -3.5203681 0.13450301
-0.83597797 -4.0488291 0.079680003
-1.112144 -5.386363 0.106003
-0.80652201 -3.929065 0.0096140001
-0.86869597 -4.2568932 -0.057069998
-0.78820097 -3.8853559 -0.109115
-0.778633 -3.8610611 -0.15907
-0.90881097 -4.5335789 -0.240044
-0.79383701 -3.9839239 -0.25113699
-0.79017401 -4.0138688 -0.314785
-0.74598598 -3.8840089 -0.34479201
-0.68144703 -3.638629 -0.25987199
-0.714459 -3.8642139 -0.20401099
-0.72806698 -3.963398 -0.162742
-0.71591097 -3.9226971 -0.109748
-0.64236999 -3.5429261 -0.047297001
-0.72324401 -4.0153732 0.0097789997
-0.67655998 -3.7812369 0.074033998
-0.94950801 -5.3067222 0.103902
-0.64369601 -3.6216681 0.137605
-0.600752 -3.402842 0.19567201
-0.699682 -3.990144 0.31171599
-0.670228 -3.8482821 0.3836
-0.65150601 -3.7664981 0.45993
-0.68309999 -3.976512 0.57836097
-0.57638502 -3.3786621 0.57275301
-0.62256497 -3.6749451 0.71359599
-1.029242 -6.075521 1.179737
-1.2828619 -7.5726128 1.47044
-0.54931402 -3.265461 0.71663201
-0.97637701 -5.804193 1.273778
-1.284596 -7.6364369 1.675879
-0.96029902 -5.7491698 1.410278
-0.92091501 -5.552691 1.5078011
-0.88395298 -5.368206 1.600385
-2.7742431 -23.369013 9.4295664
-2.7193339 -23.367485 8.1716032
-2.687628 -23.329529 7.5315342
-0.87031299 -7.6320858 2.2596159
-0.86198997 -7.637506 2.0589631
-0.67000097 -5.9985442 1.460368
-0.85643601 -7.6677041 1.866731
-0.84447098 -7.6405158 1.6636111
-0.42995599 -3.9317279 0.75721997
-0.83738399 -7.6574478 1.4747649
-0.53277898 -4.9245801 0.82773101
-0.69042701 -6.3817539 1.072655
-0.60610098 -5.6634402 0.81646001
-0.69258201 -6.471518 0.93295503
-0.41113901 -3.8841281 0.469964
-0.49466601 -4.7253242 0.46657401
-0.40716401 -3.9332931 0.30427399
-0.37520599 -3.6659451 0.208675
-0.55116999 -5.3851948 0.30654001
-0.38116801 -3.767117 0.141643
-0.40118599 -4.0112391 0.077696003
-0.51809901 -5.1801891 0.100338
-0.35403401 -3.5815339 0.008626
-0.372035 -3.808542 -0.050266001
-0.49544299 -5.133193 -0.141938
-0.49110699 -5.1504211 -0.20894501
-0.365785 -3.883559 -0.202508
-0.45587301 -4.8400321 -0.25238299
-0.34805799 -3.741672 -0.232317
-0.33600301 -3.704798 -0.28624499
-0.319215 -3.7101691 -0.32464299
-0.32092699 -3.9432261 -0.277729
-0.39048001 -4.9389162 -0.257204
-0.465534 -5.9760089 -0.242075
-0.41760999 -5.4419332 -0.15021899
-0.41905099 -5.5447078 -0.073040999
-0.34678599 -4.6601009 0.011201
-0.370336 -5.055512 0.097698003
-0.36596599 -5.0762649 0.19039001
-0.26250699 -3.700758 0.210089
-0.36357301 -5.2108908 0.401939
-0.368002 -5.3635292 0.52794999
-0.36114901 -5.3541269 0.645693
-0.42582801 -6.3130159 0.76133299
-0.33687899 -5.0817881 0.73004597
-0.43070701 -6.4971819 0.93338001
-0.50967199 -7.688365 1.1045049
-0.36386299 -5.586535 0.93552399
-0.34415701 -5.4791088 1.188112
-0.39390901 -6.2711749 1.359867
-0.334405 -5.4239058 1.314801
-0.32584199 -5.385901 1.4454401
-1.385964 -23.355642 6.8824158
-1.360346 -23.380489 7.5110731
-1.3336689 -23.387053 8.1368208
-1.255271 -23.439247 10.027544
-1.230299 -23.479967 10.657942
-1.204152 -23.500252 11.270692
-1.17626 -23.485832 11.853761
-0.223609 -26.28521 7.0416679
-0.16294999 -26.28009 5.687583
-0.026879 -5.3271799 1.019906
-0.022740001 -5.8419499 0.97623497
-0.013243 -4.8345652 0.693012
-0.020738 -7.5705881 1.085207
-0.0083879996 -5.2938099 0.63697302
-0.002166 -5.021843 0.49315801
0.0054810001 -7.5935512 0.58430398
0.010314 -5.4961848 0.311232
0.016579 -5.472147 0.204707
0.031771 -7.5925231 0.14633401
0.026325 -4.9319162 0.011821
0.032348 -4.9834652 -0.065462001
0.049449999 -7.6181822 -0.100072
0.041361999 -5.4097929 -0.148899
0.057955001 -7.5799079 -0.208629
0.066973999 -7.6115012 -0.30740499
0.076099001 -7.6463242 -0.396979
0.084891997 -7.6429362 -0.47253299
0.101971 -7.6018419 -0.58499497
0.17325599 -7.650207 -0.53718102
0.145441 -4.9178362 0.011793
0.163929 -5.3344908 0.102862
0.26523301 -7.7565241 0.597193
0.183447 -5.0253811 0.60507601
0.29258499 -7.7690239 1.114437
0.21499699 -5.5389671 0.92629403
0.330612 -5.7657528 3.314976
0.77875 -7.6687708 1.104931
0.788656 -7.6779299 0.92869902
0.80005002 -7.7013102 0.76035798
0.80731702 -7.6848688 0.594585
0.81731099 -7.6943178 0.43815601
0.826092 -7.692358 0.28941599
0.83477199 -7.689384 0.14907099
0.84686399 -7.7176528 0.018609
0.85725099 -7.7299399 -0.10216
0.86605197 -7.7276769 -0.214021
0.87448502 -7.7223091 -0.313862
0.88543499 -7.7390232 -0.40439299
0.89434397 -7.7376151 -0.48154101
0.91196901 -7.7333941 -0.59918803
0.94681102 -7.721662 -0.67820603
0.98556697 -7.7413101 -0.54782498
1.002911 -7.7347469 -0.40491101
1.013032 -7.7426438 -0.315355
1.024386 -7.7597122 -0.215425
1.030364 -7.736011 -0.102515
1.041119 -7.7483449 0.018739
1.051502 -7.7576079 0.15088201
1.061273 -7.7623072 0.29308
1.07064 -7.7639718 0.44380999
1.085855 -7.8075509 0.60655302
1.094099 -7.800756 0.773552
1.104928 -7.8123388 0.94936597
1.171684 -6.7104878 4.7664561
1.496727 -8.2346191 5.5472999
1.524027 -8.3301067 5.4932232
1.66688 -8.9934063 5.621552
1.92101 -10.103635 5.434124
1.706087 -8.9170017 4.5764861
4.5470638 -23.617735 11.519942
4.633502 -23.62512 9.6467819
4.7144551 -23.604197 7.719655
4.730154 -23.541159 7.0633101
4.761344 -23.555256 6.4377189
4.7829289 -23.52207 5.8076072
1.665063 -7.95296 0.97767901
1.670051 -7.931088 0.79593301
1.674468 -7.9067459 0.62189698
1.695457 -7.9604092 0.46088299
1.70619 -7.9656229 0.30474299
1.707864 -7.928638 0.156316
1.7232651 -7.9554749 0.019510999
1.73146 -7.9489069 -0.106862
1.739076 -7.939693 -0.22370601
1.745337 -7.924459 -0.327703
1.752912 -7.915307 -0.42087999
1.75956 -7.9020109 -0.500485
1.769171 -7.8595262 -0.61990303
1.807343 -7.8592792 -0.70304501
1.842685 -7.846704 -0.56582201
1.858283 -7.8317151 -0.417873
1.87064 -7.843441 -0.325645
1.882152 -7.8515 -0.22222
1.893661 -7.8593888 -0.106193
1.9033689 -7.8597951 0.019384
1.911166 -7.8522658 0.155757
1.924474 -7.8673768 0.302986
1.935634 -7.8735738 0.459131
1.9428329 -7.863606 0.62327802
1.966302 -7.919291 0.80130798
1.964969 -7.8750091 0.97660398
6.1729889 -23.914717 7.265368
6.2119379 -23.951178 7.935565
6.2820139 -23.993301 9.2762156
2.3582101 -8.9645634 3.7142489
6.2837472 -23.775629 10.505644
1.422654 -5.2839441 2.8913169
1.360667 -5.0305481 2.875495
2.347563 -8.6792173 4.9610991
1.359242 -5.0023599 2.9754629
1.896616 -6.9800382 4.1518092
1.707002 -6.253634 3.8568201
2.6929381 -9.7327728 6.5506172
2.8357 -9.5986423 6.151453
2.840601 -9.574544 5.941946
1.908388 -6.3516402 3.5042441
2.299428 -7.6531291 4.2222848
2.622443 -8.6917458 4.5764861
7.2578568 -23.757292 10.612107
2.6402769 -8.3651438 1.898399
2.6501701 -8.3627977 1.679536
2.653147 -8.3387594 1.462292
2.663341 -8.3374748 1.254629
2.6703479 -8.3261976 1.052104
2.6747739 -8.3070126 0.85701501
2.682883 -8.2993488 0.671152
2.6936481 -8.299861 0.49412701
2.706284 -8.3061304 0.32679901
2.7085741 -8.280654 0.167916
2.717068 -8.2742853 0.020873999
2.728894 -8.2780504 -0.114494
2.7411139 -8.2829113 -0.24013101
2.747268 -8.2694931 -0.35191399
2.752821 -8.2543497 -0.45172799
2.757957 -8.2380123 -0.53707498
2.772794 -8.2192516 -0.66746902
2.8200159 -8.2334414 -0.75871497
2.8608279 -8.2284241 -0.61154997
2.8840239 -8.2337704 -0.45291999
2.9026849 -8.2564869 -0.353448
2.9018409 -8.2237387 -0.24002101
2.92221 -8.2510586 -0.11498
2.94169 -8.2756939 0.021051999
2.948698 -8.2651262 0.16913
2.97154 -8.298871 0.329752
2.9821451 -8.298295 0.49932799
2.9947989 -8.3033409 0.67920798
3.0022249 -8.2939196 0.866202
3.0144429 -8.2977352 1.062258
3.0404561 -8.3392925 1.272366
3.0479269 -8.329896 1.482236
3.069355 -8.3585472 1.704733
3.081238 -8.3610287 1.928435
3.5449331 -9.5148926 2.9868579
3.327343 -8.8681879 3.2901001
3.3053479 -8.7787428 3.508357
3.533921 -9.2881107 4.5046992
9.2995014 -24.272779 13.102876
2.614053 -6.79948 3.849016
2.3619201 -6.1225119 3.6209409
3.4452159 -8.9000015 5.4779992
3.453644 -8.8912344 5.6750422
3.4595881 -8.8761673 5.8550858
2.127409 -5.4396672 3.6940589
3.457618 -8.8109016 6.1397409
3.4496779 -8.7313423 6.3357439
3.026978 -7.5590811 5.6975031
2.0465469 -5.0430942 3.7264011
3.1033299 -7.6472149 5.6506152
2.103442 -5.1491222 3.6865981
3.1833739 -7.7927442 5.5793428
3.231559 -7.8846889 5.5275078
3.2868061 -7.9931812 5.4659891
3.347244 -8.1134863 5.3943028
3.3941441 -8.2003069 5.2803102
2.1143849 -5.0917492 3.1646349
2.261384 -5.42802 3.2445951
2.5173731 -6.022882 3.4491179
3.5539191 -8.5028439 4.8693151
3.8735299 -9.2076836 4.7845688
3.902343 -9.2462997 4.5492878
3.825012 -9.0339079 4.1909442
3.8566461 -9.0794182 3.952666
3.8946879 -9.1396456 3.7157409
3.9415791 -9.2201214 3.483037
3.9532101 -9.2178745 3.216675
3.894557 -9.0522537 2.8988099
3.932214 -9.1107578 2.658253
3.9587801 -9.1432896 2.410665
3.9673159 -9.1340742 2.155185
3.9824519 -9.1399965 1.908751
3.9795001 -9.1045103 1.6604069
3.984129 -9.0865049 1.422206
4.0021639 -9.0990257 1.196056
3.9913249 -9.0460358 0.97097099
3.9877739 -9.0098162 0.75815302
3.993057 -8.9936504 0.557221
3.999728 -8.980711 0.36776999
4.0044169 -8.9633484 0.18921
4.0179482 -8.9658327 0.023549
4.0353379 -8.9768581 -0.129283
3.8604431 -8.5613194 -0.25848201
3.767338 -8.3291702 -0.369185
4.0485029 -8.9233503 -0.50870597
3.88083 -8.5275688 -0.57922
3.8873019 -8.4897518 -0.71848899
4.0090909 -8.64993 -0.83114803
3.967953 -8.4585543 -0.65587699
3.952282 -8.3747759 -0.48076099
4.3494959 -9.0266962 0.56739801
4.3523049 -9.0058918 0.76966101
4.3524771 -8.9797745 0.979963
4.348959 -8.9461927 1.196892
4.3667021 -8.9563503 1.428308
4.3855662 -8.9687462 1.668319
4.4128308 -8.9981699 1.918717
4.4197798 -8.9860516 2.1672421
4.45117 -9.0235577 2.4344161
4.4707761 -9.0370827 2.700949
12.036955 -23.980715 10.751461
3.431474 -6.2994642 3.958154
4.7411671 -8.6322622 4.7171798
4.6917639 -8.5189276 4.4085031
4.6981931 -8.5072517 4.1516581
4.8395758 -8.7393427 4.0028791
5.00805 -9.0189257 3.8583169
5.027822 -9.0298576 3.5900061
13.57222 -24.177406 7.4274802
8.1989479 -14.332109 1.621478
5.0976968 -8.769063 -0.133237
5.0409241 -8.6483164 -0.27551201
5.0381408 -8.6205912 -0.40324301
4.9767699 -8.493 -0.51103902
5.0626869 -8.6167068 -0.61784703
5.2532692 -8.8938751 -0.79482597
5.3211532 -8.9142265 -0.90505701
5.3983622 -8.9491301 -0.73367798
5.1082091 -8.4239454 -0.51145297
5.1949019 -8.5445871 -0.40384799
5.9559278 -9.1631632 6.030231
5.293714 -8.0827579 5.9383411
4.262507 -6.4918432 4.9116931
4.3220482 -6.4676242 5.442956
4.4069691 -6.4965339 5.203114
5.2281952 -7.687974 6.030899
5.4633999 -8.013875 6.1341381
6.3052001 -9.179966 6.3924918
6.2959328 -9.1211271 5.855979
6.670486 -9.1335239 -0.14856499
6.6980109 -9.1489286 -0.31207699
6.3178611 -8.6087532 -0.431247
6.297832 -8.5606689 -0.55173701
6.2734051 -8.5067911 -0.65345001
6.2550502 -8.4409237 -0.80840498
6.3431559 -8.4774265 -0.92303401
6.390831 -8.4591818 -0.74425203
6.4495468 -8.4959078 -0.55375898
6.6334381 -8.7171774 -0.44238499
6.9877458 -9.1607599 -0.317112
6.5575171 -8.1767578 4.7511749
9.9631786 -12.393943 7.6166048
5.5578051 -6.86484 4.8736558
5.7137489 -7.0241532 5.3871741
6.83746 -8.2290401 7.4862142
5.1402402 -6.1284819 5.4766111
7.3342881 -8.6626205 7.1785879
10.300933 -12.024802 8.3660851
10.150444 -11.821395 7.8543429
6.8979211 -7.9772592 4.5052252
12.954813 -14.636183 3.266259
12.934879 -14.478119 1.493904
7.8938012 -8.6726751 -0.60881901
7.8415499 -8.595253 -0.719289
8.0600252 -8.7937918 -0.91788501
8.1649246 -8.8258753 -1.048184
8.0729313 -8.6458321 -0.83038503
8.1436033 -8.6811543 -0.617944
8.9414768 -9.4876242 -0.358821
9.0360975 -9.5658073 -0.17285
13.85003 -14.493049 1.542545
13.607555 -14.173542 2.364157
12.858536 -13.208759 4.9381981
10.386307 -10.570705 5.5426092
10.400945 -10.463594 7.4370718
6.3255162 -6.2757158 5.6354318
6.4373279 -6.168303 5.638639
11.139085 -10.452839 6.5256619
9.0482473 -8.4514685 4.6307521
13.095692 -12.00652 2.9689219
10.295825 -9.2652626 0.033199001
10.33471 -9.2786093 -0.182439
10.34021 -9.2619028 -0.38206899
9.6464605 -8.6002979 -0.67092901
9.6375866 -8.5723391 -0.79740602
9.8347206 -8.7069502 -1.010717
9.8747568 -8.5803738 -0.91834003
9.9434042 -8.5996408 -0.682491
6.8141589 -5.4781208 5.5295968
6.9345779 -5.4049382 5.8273988
13.403497 -9.6462717 -0.85731298
12.550359 -8.7915697 -1.0756921
11.996159 -7.9354649 5.763298
16.67631 -9.5642862 -0.77638203
16.640368 -9.5180931 -0.99522102
8.070466 -4.0029569 6.3034859
11.174332 -4.3326521 6.3324928
7.9326949 -3.065172 4.6924882
7.8086181 -3.0068259 4.8029561
7.497611 -2.867105 4.9335198
7.5153232 -2.863893 5.0864811
7.5128498 -2.8529639 5.2129569
8.1180735 -3.06127 5.8552208
8.0046434 -2.976131 5.9755559
8.1059589 -2.971061 5.911057
8.3944769 -3.0547299 5.9207659
7.589725 -2.75192 5.2369022
7.5632272 -2.732393 5.0859461
7.7555041 -2.7916801 5.0659952
7.6744289 -2.7524481 4.8508091
7.8656659 -2.810745 4.7944942
11.022223 -3.93872 6.7185631
7.9522648 -2.8312809 4.6577039
8.0487747 -2.85513 4.5123968
10.663648 -3.7826991 5.9783778
10.664699 -3.769136 5.7018151
10.632755 -3.7439809 5.399271
10.784292 -3.783289 5.1805482
11.725787 -4.0830412 4.9751449
24.815338 -7.6206751 -1.822324
14.137168 -4.0205402 3.93731
14.099048 -3.9567101 5.0865798
8.7668962 -2.4383769 3.646183
8.5966873 -2.3802991 3.810663
12.063534 -3.3251629 5.6722631
11.935418 -3.274941 5.92801
10.72624 -2.929786 5.6050372
11.022393 -2.9969461 6.0353718
10.540714 -2.852839 6.0254002
7.9605479 -2.144613 4.7322659
7.987751 -2.1419959 4.9203472
8.0420389 -2.1465609 5.1157379
7.6985378 -2.0453141 5.0378399
7.6914072 -2.03386 5.1607132
7.6447849 -2.002573 5.333303
6.2428951 -1.6044151 4.5101891
6.3528018 -1.6012729 4.4856911
7.8220038 -1.952301 5.3434401
7.779829 -1.932193 5.1998959
9.0719767 -2.2419441 5.9101739
9.0138807 -2.2054019 5.5211372
10.796302 -2.6282361 6.3780551
9.6676712 -2.3415959 5.4886599
10.780717 -2.6111851 6.120573
9.7654762 -2.3533001 5.3075209
8.6800652 -2.081074 4.4995141
12.21867 -2.9144859 6.0165648
8.424078 -1.99905 3.924633
8.3861504 -1.979766 3.6810219
8.702322 -2.043756 3.5818369
10.987698 -2.5804801 4.5224872
13.528421 -3.144062 4.824409
12.2488 -2.816746 3.6971681
15.375278 -3.479414 3.4116189
17.083466 -3.0201781 3.754494
13.202253 -2.3182349 3.243145
12.480157 -2.1319089 4.3978472
8.783432 -1.468976 3.8043771
8.7728777 -1.456755 4.0311499
6.74791 -1.1124541 3.275676
8.9272089 -1.4717309 4.3335848
6.5458312 -1.071344 3.343576
6.3289871 -1.028319 3.3879189
6.5650182 -1.058845 3.6692519
6.4741998 -1.036496 3.7635109
5.7825112 -0.91887403 3.4835629
5.6821551 -0.89617199 3.5354619
5.6119628 -0.87843299 3.5925009
7.7027769 -1.205705 4.9309359
10.038466 -1.5593669 6.5897999
6.0182619 -0.920582 4.1087799
6.1329622 -0.90901399 4.3381972
6.3201041 -0.90680099 4.371572
6.320601 -0.89190602 4.2307758
6.6626382 -0.932293 4.3639941
6.95996 -0.96566802 4.4439888
5.7459888 -0.79043502 3.564785
5.8669262 -0.80014002 3.522934
7.5444059 -1.028917 4.5302162
6.0592031 -0.81920701 3.5096231
6.1613722 -0.82573599 3.43011
6.2877831 -0.83525598 3.3514791
6.3176608 -0.83175999 3.2121379
9.0995502 -1.1872801 4.3953581
9.2350941 -1.194075 4.221065
9.3002434 -1.19152 4.005518
11.700511 -1.4852459 4.7259412
9.2360868 -1.150641 3.233007
9.009244 -1.1117719 2.9112849
9.0884399 -1.110847 2.6933651
16.98477 -2.0559721 4.583178
12.260712 -0.82396102 3.614764
11.970088 -0.790456 3.847306
12.015059 -0.779419 4.1822701
12.071218 -0.76899302 4.5239072
11.558323 -0.72283101 4.6403942
10.723678 -0.633138 5.1452689
6.5243979 -0.370011 3.4528551
6.6588559 -0.369872 3.6798811
6.5651569 -0.35702401 3.7739649
6.3179312 -0.33621499 3.764272
6.4771552 -0.33714899 3.9862959
6.7390099 -0.34293699 4.2675982
5.9114971 -0.293937 3.8393791
6.6030579 -0.31295899 4.4612012
5.6278391 -0.240537 3.9414711
5.80303 -0.221029 3.9761081
8.594883 -0.32736599 5.8890238
5.8660121 -0.209782 3.8904581
6.5957232 -0.23587801 4.3744168
6.176857 -0.21371999 4.009171
5.878159 -0.19655401 3.7197161
6.6307731 -0.22172 4.1959729
6.412725 -0.20696799 3.9433601
6.2903109 -0.19570801 3.7443309
6.7348862 -0.20171501 3.8675549
6.6225991 -0.190648 3.655725
6.6517062 -0.183759 3.515923
10.561301 -0.267214 5.0601702
11.308724 -0.28612399 5.4182782
10.530279 -0.254199 4.7747078
11.915186 -0.246099 4.4573479
6.5311818 -0.119719 2.0949769
11.847526 -0.217169 3.800276
6.4123368 -0.110095 1.886541
6.4835339 -0.10378 1.737064
6.6280079 -0.098397002 1.6038181
18.393473 -0.230326 3.521723
11.587134 0.352889 1.661724
6.3024168 0.199264 1.053701
6.4787912 0.21236899 1.2410361
6.382483 0.216638 1.382077
6.172976 0.216701 1.4944659
5.8381772 0.21167301 1.564988
6.4835739 0.24260899 1.908553
6.2124701 0.239696 1.993893
6.1013012 0.24249899 2.1209941
6.1756811 0.25263599 2.311698
6.0477972 0.254446 2.425458
6.1068878 0.26403299 2.6112859
6.2036901 0.275433 2.8148689
6.392242 0.29124901 3.0648711
7.2021971 0.32815301 3.453218
6.2287598 0.29104599 3.1432681
8.3678961 0.40073401 4.4264379
6.7809181 0.332634 3.746067
6.415 0.32214901 3.686847
6.2430081 0.32078701 3.7192769
5.9443998 0.312361 3.6585121
5.8864818 0.31617001 3.7282691
6.5776691 0.35329399 4.1660399
8.4464359 0.463514 5.487237
8.0172663 0.45863301 5.4194498
7.5848961 0.469264 5.3174019
8.5483856 0.56874001 5.8658609
8.0013351 0.55101597 5.3158169
8.1974487 0.57408202 5.3305049
6.193687 0.44097999 3.92711
5.9863601 0.433213 3.6888821
6.3912578 0.46997201 3.8128469
6.2798309 0.469107 3.6146629
6.104353 0.46313399 3.377934
6.5922709 0.50784898 3.493499
6.3242931 0.4946 3.1977341
6.2394581 0.495253 2.997915
6.1125898 0.49232301 2.7797761
5.8530688 0.478268 2.5087521
6.1036949 0.50588 2.454097
6.2113962 0.52206701 2.331315
5.8628778 0.49963701 2.043885
6.0004878 0.51837999 1.9315929
5.7399201 0.50258303 1.694923
5.821075 0.51650703 1.565505
5.89253 0.529742 1.431442
6.0765948 0.55339998 1.320524
6.1829801 0.57033598 1.1887619
6.0091519 0.56133598 1.00854
8.8673801 0.83871698 1.276764
11.230256 1.07538 1.3574491
8.0226288 0.77762401 0.79153502
12.258308 1.188184 1.209438
10.937013 1.072928 0.84561503
8.3434734 0.84786999 0.161635
8.4686203 0.880454 -0.11184
8.6709032 0.91167402 -0.23996601
10.443583 1.110314 -0.42414501
10.407949 1.118744 -0.54344201
10.629018 1.155005 -0.66097802
8.3935747 1.030623 -0.439026
7.7721248 0.963476 -0.31628299
7.9757438 0.998119 -0.22123
7.7289028 0.97635299 -0.102331
6.9705472 0.88877499 0.016843
7.2766342 0.93639898 0.14140099
7.564146 0.98232502 0.28534201
6.3791509 0.83596498 0.36432001
8.164587 1.079594 0.63371199
8.5260839 1.137465 0.84470099
9.5887537 1.290566 1.1641591
7.8244948 1.062372 1.1318901
6.0645108 0.83058 1.022879
6.0574188 0.83677298 1.170711
6.075314 0.84644198 1.327505
5.9395938 0.834562 1.451196
6.0147362 0.85217798 1.627349
6.2680922 0.89549601 1.862553
6.2365131 0.89838302 2.020767
5.9978471 0.87111002 2.1052439
5.8589249 0.85787898 2.2146621
6.4611878 0.95373601 2.6170101
6.4089541 0.953628 2.768034
6.3816061 0.95713103 2.925102
6.5971889 0.997307 3.19576
7.0004058 1.066574 3.5695419
6.825357 1.048012 3.6486001
6.8744912 1.063736 3.838342
6.720017 1.047822 3.9038961
6.4327278 1.010686 3.8742039
6.5138578 1.0311821 4.053319
6.7781858 1.089173 4.4532442
7.4557562 1.19805 4.8984051
6.5406542 1.066586 4.4723892
6.7939949 1.140328 4.8203468
6.7194619 1.1599309 4.668735
7.0775061 1.238675 4.7622471
7.313715 1.288767 4.817318
6.726368 1.19332 4.3205161
6.8235121 1.218737 4.260148
6.6135559 1.18916 3.997942
6.795732 1.2300611 3.9641321
6.0933719 1.110247 3.4175501
5.8189068 1.067217 3.1258359
6.3523531 1.1726871 3.2562511
6.1165142 1.136493 2.9797721
6.2660289 1.1718 2.8895969
5.8598132 1.102885 2.547251
6.2976208 1.192856 2.568285
5.8865929 1.122081 2.2412851
5.8928828 1.13038 2.084244
5.7855868 1.116762 1.889755
5.7710729 1.12091 1.729352
5.816967 1.136842 1.587759
5.7364578 1.128022 1.414511
6.1755571 1.221814 1.3624049
5.9327431 1.180941 1.158113
6.4294209 1.287567 1.0957299
5.3788371 1.083671 0.78652
6.7880239 1.375791 0.833368
6.7480412 1.375843 0.67630798
6.1015792 1.251416 0.479274
5.7896008 1.1944439 0.33475101
6.0918598 1.264177 0.23274399
5.7078991 1.191419 0.112381
5.5558629 1.166416 0.013607
5.324132 1.1242189 -0.071478002
5.6263442 1.1948659 -0.158308
5.83845 1.246995 -0.241106
6.2449579 1.3414 -0.33160201
5.7881899 1.250327 -0.366092
6.0734062 1.326702 -0.47835299
6.7523422 1.4750119 -0.53182697
5.8103008 1.2975399 -0.51901102
5.6164422 1.2816629 -0.40440899
5.925252 1.366622 -0.31568599
5.8031902 1.345565 -0.240582
5.3582811 1.248961 -0.15143
5.208467 1.220426 -0.070270002
5.234735 1.2329921 0.01289
5.5067039 1.303809 0.109067
5.7317872 1.36413 0.22040799
5.7570801 1.377212 0.33520299
5.3754468 1.2925251 0.42541599
5.6319852 1.3611259 0.56899798
5.8572021 1.422754 0.72525501
5.4967241 1.341959 0.811068
5.918921 1.452315 1.018429
5.727294 1.412346 1.129343
5.4586668 1.3528351 1.217091
5.4296732 1.3523411 1.353838
5.7974501 1.451027 1.600955
5.4138598 1.361699 1.642151
5.3923769 1.362962 1.783784
5.6059961 1.42388 2.009104
5.5623169 1.419661 2.147052
5.5540771 1.424436 2.297508
5.657392 1.457934 2.4957881
5.7073398 1.477872 2.6724329
5.8304758 1.516991 2.885601
5.8341122 1.525169 3.0397379
5.7612119 1.513258 3.147326
5.8201909 1.535983 3.3214099
5.6544242 1.499259 3.3577881
5.5996218 1.491696 3.4477711
6.1551318 1.647334 3.916132
5.948235 1.599362 3.8955729
6.1286802 1.655521 4.1180129
7.688448 2.096019 5.3780541
7.4771991 2.0757971 5.42977
7.673439 2.1687119 5.4596629
5.724937 1.632386 3.945704
5.704566 1.6337399 3.849174
5.7651529 1.658334 3.7940149
5.8431301 1.68812 3.738102
5.905395 1.7135381 3.6584311
5.8859611 1.715309 3.5190821
6.0543952 1.772032 3.4808371
5.7123122 1.6791101 3.1459241
5.4836822 1.618832 2.8821919
6.092566 1.806271 3.043704
5.832891 1.736653 2.7587199
5.5542068 1.660709 2.4765379
5.6320791 1.691117 2.356276
5.3060908 1.599951 2.0727861
5.3251271 1.612445 1.932651
5.3040881 1.612798 1.777982
5.3474011 1.632751 1.644691
5.3868208 1.6516351 1.509354
5.300456 1.631888 1.341845
5.3327608 1.648613 1.2079951
5.688077 1.765704 1.140249
5.5038948 1.715537 0.96337903
5.500021 1.721336 0.82610798
5.4528742 1.713541 0.68774402
5.527504 1.744046 0.56919301
5.0053139 1.585674 0.40401101
4.9997659 1.590313 0.29709801
4.7872872 1.52885 0.187997
4.6042151 1.476284 0.093188003
4.745172 1.5275559 0.011948
4.7116022 1.522788 -0.065041997
4.908124 1.5926059 -0.142021
5.3003011 1.7266639 -0.225127
5.0686269 1.657702 -0.27685401
5.224112 1.715278 -0.33993
5.077414 1.680179 -0.411529
4.972784 1.671229 -0.45734799
5.7886758 1.94543 -0.532386
5.0093288 1.709445 -0.371566
4.5018902 1.547966 -0.247146
4.5242038 1.5615129 -0.193289
4.7189369 1.6348571 -0.137454
4.7259679 1.643447 -0.065724999
5.1039939 1.781549 0.012958
4.8226309 1.68963 0.098488003
4.8540149 1.706954 0.19248299
5.5506778 1.951941 0.220109
5.074554 1.791129 0.30473
5.3090329 1.880834 0.433395
4.6172228 1.64178 0.48123401
4.9961009 1.783036 0.63828701
5.430192 1.945075 0.82681799
5.399137 1.941025 0.95876402
5.2798772 1.905074 1.074625
5.1931129 1.8805929 1.195304
5.286387 1.921314 1.360893
5.322257 1.941286 1.517634
5.4873219 2.0087121 1.7189111
5.277987 1.939042 1.803329
5.846993 2.155791 2.1646349
5.291646 1.958014 2.1102691
5.149807 1.912339 2.201174
5.3908591 2.008975 2.4576809
5.2430801 1.960837 2.5374279
5.3575578 2.010752 2.7408891
5.2245231 1.967744 2.8142221
5.2733569 1.993129 2.978677
5.2041531 1.973888 3.071157
5.369915 2.0438931 3.2980499
5.7675152 2.2029049 3.673259
5.6968861 2.1910961 3.8602951
7.9347792 3.0518191 5.3767252
8.2700024 3.2138669 5.9877992
7.0338678 2.771167 5.2898831
7.2950039 2.9132609 5.3783102
5.975142 2.418411 4.0767751
5.8577542 2.3788259 3.885762
5.8886242 2.3993289 3.783191
5.440505 2.2241089 3.373718
5.2808132 2.165993 3.149421
4.9933319 2.054853 2.853009
5.2659149 2.1741869 2.871839
5.1709991 2.1420269 2.6808441
5.2052741 2.163307 2.555181
5.230145 2.1807759 2.420753
5.1731801 2.1640749 2.2469239
5.1948838 2.180243 2.107116
5.3585858 2.2562759 2.019604
5.3560309 2.2625229 1.864713
5.0586948 2.1438439 1.616188
5.1220298 2.177711 1.4909821
5.1334949 2.1896241 1.350311
4.9708519 2.127074 1.170133
5.0495772 2.1677091 1.05206
5.571209 2.3993001 1.013649
4.6071129 1.9904439 0.71940398
4.8554001 2.104414 0.63673401
5.1703048 2.2480309 0.55365402
5.249444 2.2896891 0.44068301
4.7288508 2.0691631 0.292292
5.0161982 2.2018361 0.204932
4.4315052 1.951334 0.093323
5.0346842 2.2239139 0.013192
4.748282 2.1039951 -0.068221003
4.5416608 2.018759 -0.136793
5.5208769 2.4540181 -0.166287
4.8631248 2.168412 -0.215039
4.5845389 2.050576 -0.26073
4.516746 2.026557 -0.306054
4.526403 2.0435269 -0.38214499
5.3213019 2.4322231 -0.51006597
4.768373 2.2063251 -0.368835
4.65446 2.166759 -0.266536
5.0120258 2.340296 -0.22339199
4.8901882 2.290323 -0.148624
4.6871309 2.2018681 -0.068024002
4.7338109 2.2305069 0.012543
4.6119342 2.179635 0.098314002
4.6250939 2.192425 0.19147401
4.7085481 2.238682 0.295232
4.6680908 2.2261031 0.39794999
5.0806561 2.430088 0.55306798
4.9350262 2.367475 0.65859503
4.4805031 2.1558371 0.712735
4.5560589 2.1987081 0.84536701
4.7641459 2.3059499 1.013325
4.9000282 2.3787539 1.178805
4.9662442 2.418025 1.336436
4.9917679 2.437561 1.488135
4.9773121 2.4376681 1.630298
4.9717059 2.4420979 1.776455
5.811007 2.854362 2.0763481
4.9182291 2.4229269 1.9044321
5.263412 2.6005819 2.195745
4.9704561 2.4630339 2.2227471
4.949285 2.4597099 2.3610401
5.2006602 2.5921781 2.634037
5.0766091 2.537724 2.718426
4.9611979 2.4872401 2.7975669
4.8913012 2.4593129 2.8927181
5.5595889 2.7953241 3.2879441
4.8916488 2.4666221 3.022845
7.1426001 3.6225231 4.7649078
8.9016161 4.5146461 5.9383669
7.1328411 3.6488991 5.197175
7.2659969 3.738344 5.5145478
4.833333 2.5152371 3.8124771
4.9162288 2.5874901 3.8037989
7.5011468 3.970274 5.6251969
7.12358 3.781033 5.2314601
7.8090382 4.1448588 5.7348509
8.0939655 4.3081522 5.798995
8.204361 4.379168 5.7158031
7.0335898 3.7647619 4.746501
7.269464 3.9018869 4.7357512
7.5894389 4.0850148 4.7557759
7.8709078 4.2483158 4.725894
5.090384 2.755183 2.917752
5.0627098 2.7478139 2.759032
6.3782749 3.4714429 3.2917211
4.822257 2.6318409 2.3468969
4.9997129 2.7362339 2.283746
5.1032171 2.8005891 2.1771779
5.3909712 2.9666719 2.1373999
5.6517591 3.1187439 2.07024
6.736423 3.7172821 2.4675529
4.8392358 2.6777179 1.626912
4.7417841 2.631005 1.452685
4.796258 2.6685231 1.32797
4.6542869 2.5966189 1.153423
5.3589172 2.9979119 1.1756001
4.6822 2.6264861 0.89712101
4.6796341 2.632199 0.76963401
4.382678 2.4718831 0.60543501
4.4743042 2.5304179 0.50478798
4.2029581 2.383409 0.371788
4.44627 2.5282259 0.289635
4.4811931 2.5549779 0.19296899
4.2817502 2.44787 0.095058002
4.045444 2.3190141 0.011177
4.3978438 2.527817 -0.066630997
4.1190681 2.373961 -0.13085
3.9717679 2.295217 -0.185258
3.986865 2.3101251 -0.239214
4.6404171 2.6960311 -0.33178499
4.5845332 2.6778309 -0.408537
4.9268141 2.9085701 -0.49877599
3.848949 2.296442 -0.31463301
3.9377999 2.361887 -0.23838399
4.0407519 2.4300261 -0.190424
4.0268469 2.4280379 -0.12942
4.3255458 2.6150091 -0.066395
4.1313081 2.5041411 0.011579
4.1823192 2.541719 0.094324999
4.1243091 2.513031 0.18066999
4.4116101 2.695122 0.29274499
3.9076819 2.393512 0.352608
4.9382648 3.032655 0.56909603
3.872092 2.3841031 0.54713702
3.8729529 2.390852 0.65243
3.9124529 2.4215181 0.76889002
4.5816388 2.8430619 1.032317
4.498745 2.798878 1.146654
4.5431428 2.8338261 1.295518
4.6542902 2.910599 1.47054
4.876852 3.0576601 1.69323
5.0160651 3.1530709 1.900138
4.74547 2.9906671 1.948401
4.8483191 3.0633521 2.1449499
5.0343089 3.1890609 2.3878911
4.968452 3.1635289 2.669956
5.0226288 3.2062359 2.8540671
7.7212539 4.9415479 4.6210489
4.9551001 3.2037771 3.5106621
4.8841949 3.165978 3.577352
4.8366179 3.143117 3.6480911
4.7995849 3.126991 3.7158439
7.1787419 4.7486181 6.0225668
4.8012471 3.2323511 3.754483
4.7909451 3.2335031 3.6555741
4.8186288 3.260345 3.5757811
4.8640108 3.299289 3.4968569
4.9449348 3.3625669 3.432461
9.2133923 6.3122001 5.6297941
4.9826512 3.4306941 2.7422061
4.9341559 3.414227 2.4042571
4.5152431 3.1321139 2.05527
4.6718988 3.248832 1.97662
5.1735549 3.6065991 2.0225999
5.3315129 3.7259181 1.91335
4.9017458 3.434063 1.603284
4.7572432 3.3410659 1.406515
4.184473 2.9460609 1.107523
4.0025282 2.824928 0.93792301
4.1506538 2.936697 0.84965301
4.0031438 2.839308 0.70351201
3.8467219 2.7350881 0.56792301
3.8746159 2.761698 0.46725899
3.932919 2.8101439 0.37194201
4.1370678 2.9632821 0.288165
4.214467 3.026129 0.19409101
3.728667 2.683882 0.088544004
3.985729 2.8759439 0.011781
4.0201349 2.907871 -0.065173998
3.8974249 2.8260181 -0.13250101
4.1761332 3.035511 -0.208501
3.824945 2.7870331 -0.24569499
3.78087 2.761652 -0.28945601
3.65798 2.6849339 -0.34915599
3.6664381 2.7174439 -0.39785701
3.830343 2.8665819 -0.335852
3.7217741 2.7988429 -0.241754
3.7867219 2.8545721 -0.191513
4.0713682 3.076566 -0.140452
3.96297 3.0018971 -0.065305002
3.888932 2.952924 0.011704
3.9197919 2.983546 0.094942003
3.9754889 3.0332339 0.18706299
4.407732 3.3711309 0.314228
3.7458611 2.871824 0.363195
3.7056329 2.8478179 0.458951
3.74383 2.8840909 0.56863999
4.2895198 3.3124189 0.77687103
4.0089798 3.1032181 0.84718001
4.1925569 3.2531071 1.015957
4.1166601 3.20189 1.128675
5.1265378 3.987361 1.405556
4.1928549 3.2689719 1.286346
4.5300159 3.5402269 1.540146
4.589437 3.5952621 1.71496
4.9952979 3.922591 2.036953
4.740139 3.7311361 2.0954001
4.3405352 3.424768 2.0678821
4.2416921 3.3547931 2.166955
4.9563141 3.9481649 3.0350649
4.870636 3.889173 3.141917
4.7746992 3.82166 3.2314169
4.7634072 3.821722 3.3697209
7.5585852 6.0787659 5.567606
6.211832 5.201107 5.2554049
6.0937281 5.114274 5.031426
4.9938798 4.201118 4.0109062
5.0910478 4.2929711 3.9621501
6.8038311 5.737258 5.2951379
4.714211 4.003418 3.2678559
4.7019992 4.0024719 3.112659
4.7820182 4.0801768 3.010874
4.8203182 4.1225429 2.8751459
4.9493518 4.242878 2.7849269
4.0792751 3.513474 2.0135829
4.6316452 4.017446 1.8035721
4.041851 3.522366 1.297164
4.345129 3.7955561 1.248607
3.7154031 3.2531061 0.94544399
4.4196148 3.8696949 1.124642
3.791842 3.3278241 0.84306002
3.6834641 3.240293 0.703228
3.739089 3.2969489 0.59982002
3.5070529 3.0996001 0.45963499
3.6763549 3.2568481 0.37792599
4.5338731 4.0165148 0.46607801
3.451323 3.0646679 0.26136699
3.7457199 3.3338749 0.18758599
3.7034731 3.304003 0.095655002
3.801687 3.3995631 0.012224
3.5874431 3.2154889 -0.063281998
3.6272681 3.2588029 -0.134207
3.5328 3.181356 -0.19199701
3.46718 3.1295669 -0.24247999
3.8790269 3.5095091 -0.32339299
3.5244811 3.203661 -0.366494
3.8083191 3.494143 -0.45057401
3.6894839 3.416837 -0.353008
3.4224191 3.1843231 -0.242688
3.520642 3.2833519 -0.194418
3.568747 3.3359759 -0.134455
3.591445 3.3650301 -0.064648002
3.742367 3.514612 0.012306
3.92469 3.694442 0.103883
5.1426468 4.8409448 0.136121
3.3856101 3.1944151 0.174128
3.882993 3.672245 0.30263901
3.748297 3.5531299 0.39741299
3.4948399 3.3205881 0.473416
3.6918709 3.515965 0.61343801
3.784915 3.612982 0.75005299
3.5839701 3.429132 0.82888502
3.7250831 3.572448 0.98812801
5.1169572 4.9187298 1.536064
3.9301181 3.786664 1.3204449
4.117559 3.9764071 1.533419
4.9200859 4.7514238 1.832288
4.8134999 4.6593022 1.970638
4.7552781 4.6136618 2.1249051
4.6957922 4.5665412 2.275212
4.5716162 4.4561191 2.3877151
4.5415168 4.4370861 2.5441079
4.4776521 4.38486 2.677285
4.4173779 4.3358908 2.8057859
4.3820281 4.3112049 2.94435
4.3197298 4.2597919 3.058193
4.2628531 4.2134752 3.1669469
4.2003169 4.1613259 3.26247
4.2253661 4.1958718 3.4180241
4.2089138 4.1892629 3.53316
4.1724691 4.1626401 3.6223831
4.2084889 4.208334 3.764081
4.2260599 4.2357392 3.881283
4.206584 4.2358389 4.0287862
4.1690421 4.2372298 4.1593261
4.1394439 4.246417 4.0602851
4.1368308 4.2635078 3.937417
4.1242952 4.2604709 3.846453
4.1304412 4.2767429 3.76034
4.1556911 4.3129072 3.6810279
4.1637111 4.3312821 3.5745759
4.1896338 4.3683858 3.474278
4.206933 4.3966408 3.3576429
4.2455878 4.4473619 3.248702
4.2659678 4.4791231 3.1180601
4.3157659 4.5419531 3.0009389
4.3793941 4.6196432 2.885468
4.4093642 4.6620979 2.7413199
4.4224529 4.6868219 2.582047
4.4851308 4.7643132 2.447268
4.512682 4.8047571 2.28965
4.5355148 4.8403139 2.1273479
4.5801759 4.8993621 1.972895
4.6322422 4.9666152 1.81935
3.2476389 3.4901791 1.153479
4.7181811 5.0705438 1.675778
3.3221779 3.5786049 1.056758
3.859472 4.157371 1.227667
3.648613 3.939409 1.027992
3.101218 3.3561921 0.76361603
3.3305769 3.6128139 0.70436299
3.385376 3.680831 0.601731
3.1772349 3.4625831 0.461492
3.1151221 3.402812 0.35498601
3.142303 3.4405241 0.26385501
3.956326 4.3318009 0.33220699
3.2501719 3.566936 0.180521
3.2853539 3.613975 0.094132997
3.2891469 3.626595 0.011735
3.4409771 3.8028641 -0.067367002
4.2661681 4.7148399 -0.083521999
3.3290479 3.6877689 -0.136738
3.4677491 3.8503921 -0.209268
3.2011299 3.5626609 -0.24865
3.1685441 3.5346489 -0.293466
3.770807 4.2065001 -0.34924701
3.174289 3.557641 -0.366878
3.1267231 3.537277 -0.41157901
3.080219 3.5174551 -0.328219
3.0406821 3.4886229 -0.240251
3.123476 3.5920241 -0.192239
3.1245961 3.6017461 -0.131236
3.3294079 3.846858 -0.066827998
3.2134621 3.7216139 0.011785
3.1034889 3.6027069 0.091646999
3.177176 3.6969161 0.182353
3.356534 3.9147971 0.29201001
3.228853 3.77475 0.382222
3.20366 3.7541111 0.48465499
3.4684219 4.0739312 0.64378202
4.8103518 5.6501322 0.89286101
3.284833 3.8673899 0.72735
3.2978821 3.8918991 0.85245401
3.4031129 4.0255489 1.0091881
4.2552109 5.0453801 1.4284
5.0107889 5.983294 2.295738
4.9062171 5.8722782 2.4541161
6.7007179 8.1154146 4.7705798
4.864934 5.9200058 3.8625779
4.7771382 5.8269448 3.981225
5.5180888 6.7627058 5.0100489
5.436254 6.6782451 5.1233368
5.315968 6.5459819 5.1827612
5.100554 6.2956429 5.1244321
5.0669112 6.269001 5.2287388
4.860363 6.042088 5.23317
4.6779819 5.871007 5.2526188
4.6911621 5.943984 5.1845331
4.853734 6.1794372 5.208086
4.9484162 6.3150558 5.2042489
4.8933082 6.2596798 5.0250111
5.0311561 6.4514599 5.0282941
5.1857519 6.6656399 5.0246539
5.4874172 7.1214151 4.5319228
4.7456951 6.1736379 3.7296829
3.9601099 5.1889892 2.6155219
4.6206908 6.0545578 3.0518141
3.9608409 5.202457 2.4455161
3.9748609 5.2334819 2.282759
4.0351868 5.3257332 2.1429231
4.0452738 5.3519402 1.97346
4.1034222 5.442008 1.825819
3.106566 4.12993 1.250366
4.1570849 5.5265088 1.673191
3.110261 4.1448469 1.121483
4.2148671 5.6168852 1.5197771
3.138314 4.1923728 1.002607
3.842845 5.133534 1.227686
3.2021959 4.2880769 0.894319
2.8598461 3.8389201 0.68620098
3.016108 4.058517 0.60842103
3.133579 4.2268271 0.516711
3.704344 4.9967208 0.61082703
4.9335942 6.6548328 0.81352401
2.8682599 3.878345 0.37117401
3.0519609 4.136786 0.291105
3.333039 4.5287671 0.210352
2.8928089 3.9401901 0.094209999
3.119792 4.2597108 0.012656
2.955317 4.044981 -0.065803997
2.850837 3.911514 -0.13321701
2.8521049 3.922811 -0.195871
3.087019 4.2562928 -0.27296501
2.924129 4.0415802 -0.30839899
3.3765891 4.6898332 -0.444673
2.973742 4.171042 -0.44657901
2.9283471 4.1479921 -0.35644001
2.8599529 4.0711522 -0.258293
2.8263509 4.0332642 -0.198898
2.6734209 3.8244669 -0.128429
2.8687849 4.114121 -0.065883003
2.9733109 4.2745891 0.012481
3.4043901 4.906486 0.115098
2.9106951 4.2053752 0.191324
2.8209419 4.085825 0.28115499
3.4868951 5.050386 0.34752801
3.041429 4.4161472 0.412604
2.7528751 4.0071149 0.47742301
2.724267 3.975353 0.57986999
2.574683 3.7664549 0.65399098
3.2629039 4.7732401 0.82880402
3.093955 4.537384 0.91772401
2.9204359 4.293611 0.99414498
3.1141429 4.5898609 1.200381
4.1152072 6.0804839 1.776428
3.9206431 5.8073869 1.877053
3.9225769 5.8248181 2.0657411
4.1293678 6.1473022 2.37502
3.6949911 5.5144711 2.305728
3.5886431 5.3692231 2.4153891
3.533874 5.3006048 2.5526631
3.4602079 5.2031851 2.6694281
3.3964181 5.120141 2.7851429
3.3767049 5.1032901 2.930959
3.3059499 5.0089812 3.0253329
3.260824 4.953104 3.133311
3.204623 4.8800778 3.221405
3.1872511 4.8659239 3.338871
3.161598 4.8390198 3.439079
3.1314399 4.8050342 3.5249901
3.0659139 4.7164469 3.5577569
3.084058 4.7564478 3.6772051
3.0141709 4.6723881 3.7524431
2.9579289 4.6323099 3.8457291
2.796207 4.4242101 3.5834689
2.976707 4.7341161 3.7064869
2.988729 4.765502 3.648906
2.9918151 4.7827468 3.5679131
3.0301139 4.8565168 3.518183
3.0636079 4.922914 3.449816
3.0749719 4.9539852 3.3468361
3.0998831 5.0070982 3.2494259
3.122638 5.0569568 3.1403179
3.1781991 5.1603432 3.055042
3.2331719 5.2632742 2.9586051
3.6562591 5.967535 3.172405
3.2132411 5.2581768 2.6324999
3.558075 5.8529611 2.5618191
3.1594329 5.2108388 2.116729
3.507885 5.8007159 2.174073
2.5737741 4.2784629 1.337536
3.5414121 5.9024968 1.6654299
3.7494891 6.2657738 1.580272
2.6899099 4.5069909 1.004863
2.6345019 4.4258199 0.86069602
2.646935 4.4584718 0.74324203
2.7331071 4.6158342 0.64545399
3.0616939 5.1844878 0.591281
3.020843 5.128901 0.458022
2.6138999 4.4497962 0.292236
2.7040319 4.6154928 0.200109
2.8069849 4.8040152 0.107236
2.6347599 4.5213022 0.012543
2.807157 4.8300161 -0.073383003
2.535037 4.373497 -0.13913199
3.0553789 5.2712021 -0.16768999
2.6333699 4.5553231 -0.212496
2.5448821 4.4140692 -0.264514
2.520911 4.3842611 -0.31265599
2.9323111 5.1272569 -0.45449299
2.957051 5.2267151 -0.52352798
2.477242 4.426477 -0.35609001
3.0204329 5.3970809 -0.43417001
2.750422 4.9415121 -0.29359999
3.0637701 5.5195508 -0.25494701
2.620563 4.7340298 -0.148926
2.5984261 4.706944 -0.070624001
2.6346531 4.785687 0.013094
2.6526661 4.8316922 0.106234
2.5482769 4.6543512 0.198502
2.5520649 4.67414 0.30156401
2.6256759 4.822278 0.42250001
2.4960439 4.5968938 0.51368099
2.61288 4.8254151 0.66026801
2.5816319 4.7809701 0.77885801
2.426064 4.505372 0.85509199
2.4380341 4.5402169 0.986624
2.359529 4.4063029 1.081717
3.18172 5.9417019 1.458647
3.4258499 6.4513249 2.1487091
2.799834 5.287282 1.918767
2.5302491 4.805131 2.0310991
2.905715 5.5967588 3.178828
3.6697919 7.0684652 4.0147219
3.636903 7.025044 4.1797719
2.6503711 5.1487188 3.3239369
2.4722209 4.8301768 3.3349171
2.5958021 5.1008091 3.712579
2.487504 4.9162011 3.7183199
2.440618 4.879684 3.817637
2.5823619 5.2235818 3.9896669
2.574357 5.2379851 3.8683591
2.3887019 4.9033141 3.352196
4.21698 8.6562414 5.9179201
2.4691579 5.083446 3.3623819
2.5433171 5.2516232 3.3493249
4.6326628 9.6227751 5.6429491
4.8862848 10.364341 3.980145
4.5662169 9.773571 2.8898449
3.4070539 7.3146148 1.95233
2.707412 5.8302221 1.3911721
3.4125659 7.348722 1.753507
2.7060249 5.8450122 1.233139
2.5478201 5.5200849 1.015957
2.4537539 5.33254 0.84143299
2.3824201 5.1934028 0.68750501
2.3920059 5.2303109 0.56479502
2.340296 5.1329861 0.43408501
2.2994759 5.0590258 0.31468099
2.360425 5.2091599 0.21394099
2.3457 5.1927099 0.109818
2.1397181 4.7514181 0.01249
2.710222 6.0369749 -0.086924002
2.6546371 5.931603 -0.17885999
2.307477 5.171988 -0.228718
2.6837599 6.0342069 -0.34285301
2.5296071 5.7054558 -0.385838
2.4220719 5.4973202 -0.46224201
2.5598371 5.8839431 -0.55939603
2.5141931 5.8531909 -0.44719499
2.212893 5.1849279 -0.29266599
2.375066 5.58285 -0.24502
2.270103 5.353364 -0.160041
2.3241041 5.4984808 -0.078413002
2.2216251 5.2730899 0.013715
2.3316121 5.552175 0.116062
2.200114 5.2561259 0.213156
2.1205299 5.0825539 0.311854
2.4348869 5.855155 0.48794299
2.2426 5.4104681 0.57515502
2.2506969 5.4478712 0.70924699
2.2606699 5.4900851 0.85108203
2.319593 5.651804 1.020902
3.1317661 7.655992 1.583638
2.532383 6.211318 1.451667
3.0534379 7.514277 1.962442
3.045893 7.5205069 2.173594
3.0125 7.4629421 2.3674181
3.7177751 9.2101364 2.921669
2.987551 7.4259892 2.5671101
3.790771 9.4225082 3.257292
4.0471091 10.093492 3.777365
2.80055 7.0318198 3.032845
2.8881531 7.2763371 3.344348
3.0769341 7.778265 3.791692
3.482657 8.8039045 4.2916641
2.52947 6.4161091 3.3033221
2.361228 6.0097909 3.2549
2.5132029 6.4184761 3.6420591
2.5714149 6.5896921 3.903079
2.8969309 7.4494052 4.5878992
2.879401 7.4298801 4.7408772
2.731735 7.0732059 4.660192
2.601615 6.759625 4.5808258
2.0892119 5.4471569 3.7844141
3.319155 8.7144108 6.2932301
1.8572119 4.9450431 3.6960959
2.087836 5.6790118 4.0103431
2.8699501 7.891171 5.160769
2.3130729 6.3830471 4.0393581
2.450227 6.7861128 4.141355
2.1196771 5.9135962 3.3192451
3.708729 10.38481 5.5586729
2.7180469 7.638783 3.883466
3.024755 8.5320969 4.1034002
3.5811789 10.139038 4.593617
1.88423 5.3544178 2.2744479
3.490833 9.9199018 4.2137718
3.427983 9.7775316 3.8751321
3.701231 10.596339 3.898771
2.6172769 7.5210919 2.5539789
2.302192 6.6404748 2.0674341
3.5574191 10.33861 2.6453581
2.5522611 7.445487 1.703377
3.3781481 9.8922443 2.001265
2.061022 6.0582838 1.0693589
2.003891 5.912848 0.89492702
2.110007 6.2498512 0.79370701
1.903473 5.6597638 0.58639401
2.0492749 6.1167779 0.496382
1.972546 5.9105539 0.35284299
1.905038 5.7304139 0.225903
1.795945 5.4233069 0.110107
2.0183439 6.1186838 0.015443
2.105649 6.4083471 -0.088606
2.056231 6.2825618 -0.181942
1.960399 6.0133591 -0.255431
1.9989541 6.1558619 -0.336009
1.989144 6.1499758 -0.399598
2.125725 6.6247392 -0.53535599
2.106076 6.6698632 -0.60976899
2.0073969 6.46172 -0.474996
1.942256 6.3036819 -0.34243801
1.9602931 6.3885651 -0.269878
1.868136 6.1135211 -0.175944
1.879039 6.1748719 -0.084783003
1.96193 6.4742408 0.016215
1.8812571 6.2341232 0.125504
1.706257 5.6780262 0.221791
1.714734 5.7303619 0.338709
1.725982 5.7924552 0.46507999
1.743261 5.8753548 0.60183603
1.854949 6.2784929 0.78773397
1.797169 6.1090469 0.91280597
1.794178 6.1251302 1.066557
1.9459029 6.6717992 1.330541
1.9167041 6.6002169 1.487414
2.648576 9.1997757 2.5645821
2.941613 10.262423 3.140378
2.0723889 7.2938852 2.633852
2.5879431 9.1487818 3.556
2.2256279 7.9030008 3.2898591
1.953958 7.0005708 3.294611
2.1235681 7.6425338 3.7992311
3.065666 11.235101 6.6847119
2.6553681 9.9125519 6.6567369
2.7639439 11.142109 6.8300939
1.9851331 8.0828447 4.592483
1.753547 7.2121878 3.741493
2.082181 8.6073408 4.2415748
2.4647751 10.240911 4.7747078
2.408704 10.059318 4.418798
1.661226 7.0094862 2.694236
2.2824581 9.7314444 3.2056811
2.0387881 8.7381449 2.6394639
1.952584 8.4128609 2.3135841
2.4827001 10.810799 2.4005499
1.3962981 6.1126752 1.200421
1.454528 6.4018102 1.097049
1.569998 6.9850941 0.86144203
1.475955 6.6024961 0.66438502
1.471005 6.6164141 0.52154702
1.47456 6.6689849 0.38676399
1.43037 6.5049362 0.249155
1.456004 6.6584001 0.13136201
1.411141 6.4893231 0.015918
1.477882 6.8344331 -0.091849998
1.464254 6.8097162 -0.191709
1.424585 6.6628518 -0.27516401
1.506852 7.1285691 -0.45044199
1.593976 7.6282058 -0.599648
1.286636 6.5355859 -0.345808
1.3608871 6.955337 -0.28622001
1.364852 7.0188222 -0.196798
1.343998 6.9547148 -0.093045004
1.2634259 6.5787611 0.016057
1.31946 6.9139152 0.13565899
1.2593729 6.640914 0.25285599
1.331329 7.0651412 0.40711701
1.25986 6.7288361 0.52676398
1.304708 7.0133581 0.70054603
1.65185 8.9370708 1.093557
1.659099 9.035037 1.316779
1.503552 8.2418079 1.39999
1.773479 9.9169912 2.4374731
1.269489 7.1462002 1.944331
1.750827 9.8557453 2.6815419
1.721534 9.7565317 2.914331
1.7081831 9.7469959 3.173615
1.6998709 9.7661619 3.4433341
1.692111 9.7887621 3.7153909
1.712352 9.9748487 4.0553231
1.660785 9.8108606 4.510479
1.6414779 9.7657032 4.7430992
1.479375 8.864171 4.5301232
1.373829 8.2909594 4.4404531
1.5471309 9.5427399 5.751739
1.177292 7.7745948 5.5020061
1.151057 7.8471398 5.430285
0.89337099 6.5672331 3.5019081
1.333961 10.068292 4.603785
1.4484299 11.130607 4.4975672
1.185699 9.4542427 2.80286
1.145511 9.2205057 2.4890239
1.353071 10.995411 2.680398
1.4478281 11.879055 2.5898609
1.377503 11.412393 2.2007711
0.919559 8.0085506 0.62028599
0.88781399 7.8121181 0.445223
0.89015698 7.9145279 0.29793999
0.89347303 8.0279331 0.15568
0.83675998 7.7640829 -0.214929
0.60703099 6.2437682 -0.54689002
0.71800101 8.2822189 -0.1092
0.70419502 8.2339182 0.019808
0.68005002 8.175025 0.30687401
0.65968198 8.0430641 0.45698199
0.69857001 8.7669067 0.86366099
0.68202102 8.6864185 1.0484
0.85787398 11.091164 1.5946079
0.70379502 9.6833229 2.349052
0.66514498 9.299509 2.4975629
0.65405202 9.2961864 2.7413399
0.76479203 11.439797 4.2881479
0.65525699 10.156117 4.3476911
0.448098 8.2949495 5.2537851
0.343878 11.190045 5.9153099
0.241493 8.8651237 4.0200028
0.26029301 9.5552511 4.3329501
0.253111 10.159378 4.0720611
0.211476 9.8704271 3.166286
0.18957201 9.3556204 2.7526281
0.175192 9.1728382 2.4577141
0.106181 9.6868191 0.95132703
0.094241999 9.6171083 0.74004698
-0.045293 5.9303331 -0.51701403
-0.233027 10.793933 0.403882
-0.400401 10.260542 4.1144629
-0.37748 8.6427794 4.3608732
-0.42191899 8.5244379 5.245595
-0.47933799 9.4620724 5.9919562
-0.59223402 8.5450449 5.2644458
-0.83404899 10.449545 4.2003822
-0.683375 6.3314018 -0.490015
-0.62978601 5.5913019 -0.49052501
-0.78554797 6.6944799 -0.47317499
-1.582533 12.841741 -0.16996101
-1.762513 14.166741 0.034217998
-1.795753 10.096275 5.88621
-2.02776 11.028848 5.0831141
-1.259111 5.8493309 -0.46039999
-1.15863 5.263546 -0.46985501
-1.380834 6.137094 -0.44159299
-1.731697 5.2882371 -0.42817801
-1.592836 4.788909 -0.43997899
-1.550669 -5.10254 1.42862
-1.015137 -3.354275 1.030895
-1.277966 -4.2404189 1.42037
-1.170692 -3.9172111 1.529104
-1.198884 -4.0285268 1.68417
-1.062906 -3.586762 1.598121
-1.1731271 -3.9755549 1.878919
-1.090227 -3.710429 1.852314
-0.98969197 -3.3827159 1.776669
-1.231912 -4.2106109 2.2114961
-0.90312201 -3.1001091 1.7061059
-1.011513 -3.4871969 2.003474
-1.050421 -3.637032 2.1729791
-1.041688 -3.62251 2.2426109
-0.94905698 -3.6128039 2.1441059
-0.86104399 -3.3088789 1.806547
-0.98350298 -3.797493 1.977427
-1.0638781 -4.1673222 1.837368
-1.040228 -4.0944118 1.6927249
-1.163959 -4.626225 1.657027
-1.456786 -5.8184819 1.923653
-1.257282 -5.0463939 1.529833
-1.3969409 -5.634727 1.555155
-1.353227 -5.4855299 1.367008
-1.428722 -5.8204679 1.2970459
-0.76667601 -3.139044 0.61863798
-0.77722901 -3.198277 0.550008
-0.80447298 -3.3271351 0.49067
-0.95581597 -3.9731719 0.49170601
-0.88701397 -3.705996 0.374217
-0.87789601 -3.6867139 0.29161501
-0.80415499 -3.394459 0.197538
-0.828004 -3.513221 0.13502599
-1.19868 -5.086 0.195474
-1.170357 -4.9916811 0.098815002
-0.854294 -3.662679 0.0090150004
