# .PCD v0.7 - Point Cloud Data file format
VERSION 0.7
FIELDS x y z
SIZE 4 4 4
TYPE F F F
COUNT 1 1 1
WIDTH 1545
HEIGHT 1
VIEWPOINT 0 0 0 1 0 0 0
POINTS 1545
DATA ascii
2.8623791 6.1494312 1.467954
3.4363351 7.4049721 1.975141
3.357209 7.278451 2.3578229
3.258235 7.0854969 2.5011461
2.566684 5.5987172 2.139369
3.2140131 7.0322518 2.8918109
2.8734701 6.3454709 3.157542
2.8198781 6.2464161 3.2825871
2.9522829 6.5599852 3.6262591
2.93051 6.5318351 3.7826769
2.9680991 6.636241 4.0112972
2.8028021 6.2862101 3.950691
3.114599 7.0073848 4.562429
2.4172709 5.4555378 3.6674139
2.316241 5.2439342 3.6256411
2.1623981 4.9421039 3.640564
2.10112 4.8634019 3.706989
2.1071241 4.940136 3.6772499
3.6723289 8.6654205 6.2378812
2.2702079 5.3742418 3.7844141
2.9527769 7.0355878 4.6895142
3.92452 9.3814373 6.050344
2.8330741 6.7944899 4.2254872
2.668339 6.4203901 3.83641
2.4281991 5.861753 3.3524139
2.9232459 7.0568118 4.0358839
2.4768291 5.9988389 3.2715549
2.8942909 7.0099249 3.8229661
2.931818 7.1242218 3.6899409
3.596015 8.7670746 4.2953801
3.756916 9.1897316 4.2412291
5.3608699 13.156674 5.6926279
2.9732201 7.3456311 2.7526331
3.381465 8.3821793 2.8987639
3.769058 9.342968 3.231029
2.679791 6.6650929 2.1131511
4.316009 10.734644 3.403393
3.1010699 7.7388368 2.2333679
2.5358739 6.3711271 1.48403
2.5108039 6.3295221 1.303652
2.977618 7.5063219 1.54603
2.292506 5.7988219 1.041999
2.6065381 6.5931559 1.184734
2.299469 5.8362212 0.89918399
2.2516389 5.7343421 0.74126297
2.2434649 5.733058 0.60457301
2.3518031 6.0305071 0.49807
2.1765361 5.6002898 0.34023499
2.0853779 5.3842201 0.215997
2.286123 5.922936 0.122363
2.310544 6.0069332 0.015426
2.3323741 6.0847349 -0.085597999
2.5029769 6.5525661 -0.193057
2.467274 6.4816351 -0.28008699
2.4109881 6.3559289 -0.352911
2.28262 6.0386581 -0.399104
2.4270639 6.466085 -0.53144401
2.3248379 6.2822189 -0.58397502
2.2959771 6.2938032 -0.47030401
2.249896 6.2122269 -0.34300801
2.1448469 5.9436932 -0.255189
2.2633491 6.2949362 -0.18411499
2.218591 6.1930299 -0.086411998
2.196465 6.1537352 0.015660999
1.923594 5.4090762 0.110647
2.2361529 6.2879801 0.12862501
2.064851 5.8276811 0.231286
1.982455 5.6158142 0.337239
2.0500121 5.8287411 0.475438
2.0388229 5.8184748 0.605452
2.2657821 6.4902868 0.82715601
2.104213 6.050045 0.91819799
2.4609311 7.0756822 1.073856
2.074157 5.98599 1.058646
2.065222 5.9826221 1.2117029
2.6524751 7.7128258 1.765141
3.3768599 9.8191795 2.2471969
3.5232289 10.283552 2.6300731
3.523365 10.322668 2.921931
3.740685 11.00112 3.418067
2.4023011 7.1192341 2.609899
3.2781329 9.7897797 4.1367788
3.4059601 10.210868 4.598331
2.408807 7.2777429 3.671798
2.573729 7.8063869 4.1434598
3.182694 9.8453255 6.3593292
2.4079759 7.4784641 4.9688869
1.973212 6.2021942 4.392395
1.644384 5.2529769 3.8514619
1.837577 5.9671988 4.2749658
2.973454 9.8589258 6.328959
3.309299 11.065323 6.6294541
2.2598319 7.6206579 4.1998601
2.3201461 7.8575449 4.1299558
2.369478 8.0590448 4.023427
2.8386819 9.6964741 4.5798392
2.5537021 8.7987785 3.671104
2.093461 7.2444229 2.820348
2.8272519 9.7837048 3.808924
2.345758 8.1530161 2.946883
2.9935119 10.404377 3.7606299
2.463594 8.6379862 2.6422861
2.6682839 9.3970804 2.616852
1.711843 6.082418 1.3674819
1.738564 6.2050061 1.233703
2.845669 10.156311 2.019316
1.744261 6.2532692 1.084852
1.7411489 6.270226 0.93281299
1.858079 6.7216091 0.83910298
1.79212 6.5124259 0.66330999
1.858456 6.7842612 0.541264
1.906009 7.0218239 0.272183
1.739216 6.4369378 0.12851
1.7902369 6.6564422 0.016522
1.763485 6.58745 -0.089576997
1.769985 6.6426258 -0.18920501
1.697981 6.4022608 -0.267497
1.764708 6.7167878 -0.42933899
1.543375 6.0454359 -0.54393703
1.870271 7.47049 -0.54061198
1.727865 6.9703641 -0.37281901
1.6280839 6.6006351 -0.27455899
1.66616 6.7888842 -0.192396
1.669189 6.8355422 -0.092427999
1.587731 6.5348659 0.016119
1.613205 6.673511 0.13232499
1.619121 6.7321911 0.25902399
1.621238 6.7755761 0.39451
1.5019701 6.3095198 0.49906799
1.572158 6.6385622 0.66995603
1.629706 6.917356 0.855111
2.371042 10.116653 1.489464
2.3523841 10.089746 1.73128
2.2421131 9.7188234 2.1585701
1.604338 6.9913158 1.735509
2.1582141 9.4548559 2.5979619
2.1699791 9.5575161 2.883007
2.1671619 9.5967579 3.155292
2.2957439 10.221355 3.638896
2.2018459 9.8567867 3.777396
2.242662 10.094636 4.1434741
2.1970539 9.9438467 4.350441
2.1454251 9.7639599 4.5315351
1.96495 8.9924603 4.4087491
1.864048 8.6266651 4.6632929
1.727062 8.083621 4.7447119
1.913614 9.9726171 6.4222431
1.539548 8.1770248 4.7760739
1.5493129 8.2818174 4.6490078
1.2538249 6.7456021 3.625241
1.78967 9.8187237 4.5241032
1.775254 9.869545 4.0181289
1.702948 9.5310421 3.6211569
1.3165931 7.4184809 2.6171179
1.7158279 9.9360056 2.43959
1.545711 9.1406841 1.549153
1.4916281 8.8835659 1.291238
1.309078 7.9088311 0.78723401
1.265438 7.7006502 0.600492
1.239217 7.5962529 0.43583801
1.189814 7.3470759 0.27842599
1.140623 7.095572 0.138511
1.194044 7.4833159 0.018164
1.1991791 7.571969 -0.100702
1.1692311 7.4388189 -0.20725299
0.99983197 6.6110568 -0.51448798
0.86563498 5.9092822 -0.52066201
1.050132 7.4085288 -0.52527601
1.124916 8.0710087 -0.42305699
1.107864 8.156394 -0.108123
1.063014 7.9648852 0.154871
1.059648 8.0105658 0.30227599
1.004369 7.6610661 0.437534
1.045246 8.0454025 0.62427598
1.402956 11.101324 1.603973
1.271269 10.449232 2.5468249
1.135553 9.4241381 2.542846
1.0532939 8.8277187 2.6151941
1.136947 9.6238909 3.1079569
1.273385 11.110879 4.4812012
1.141878 10.066697 4.3280492
1.155845 10.296534 4.6966782
1.425038 13.24957 7.3529968
0.82917601 8.1545038 5.3168998
0.70555401 8.1610765 5.3136349
0.779284 9.2646551 5.7142329
0.817927 10.147194 5.6171679
0.587852 7.862721 3.3683119
0.86882901 11.805173 4.7430511
0.66871798 9.2325649 3.462116
0.70275402 9.8615379 3.4341469
0.65238702 9.4645948 2.790725
0.65708798 9.6970654 2.6036551
0.54028398 8.8913488 1.071815
0.55112499 9.2470312 0.909693
0.245391 10.426942 1.024235
0.14349 9.3096027 2.494199
0.130234 9.9461136 3.1901059
0.117796 10.930817 4.0884709
0.096748002 10.060885 4.0315189
0.02703 10.15643 5.6041241
-0.0069269999 8.4897156 5.217844
-0.26330301 9.5807142 4.590611
-0.63351601 12.78794 0.246768
-0.711492 14.032934 0.033679001
-0.408409 7.2266502 -0.44748101
-0.35338399 5.56564 -0.486182
-0.46277201 6.7904992 -0.477797
-1.040823 11.093475 4.1672912
-1.037019 8.3357534 5.312582
-2.140739 13.686553 0.033204
-0.96247 5.841742 -0.455567
-0.90587401 5.3431988 -0.47246
-1.107878 6.3552818 -0.45286801
-1.7422 6.4087348 -0.41058099
-1.502519 5.47685 -0.43700099
-1.3899601 4.9759169 -0.45039999
-1.718029 6.0420308 -0.440963
-1.198361 -3.4967051 2.1217041
-1.1992871 -3.512641 2.208353
-1.241945 -3.651361 2.370414
-1.1155649 -3.2922621 2.1984761
-1.0995719 -3.257443 2.230159
-1.122934 -3.35217 2.385833
-1.167045 -3.538039 2.606817
-1.052969 -3.2941849 2.1872511
-1.073882 -3.3730471 2.1756289
-0.964257 -3.0408549 1.897987
-0.96616602 -3.0591259 1.841432
-1.111848 -3.5346119 2.044539
-0.97222 -3.1032369 1.7182519
-1.130438 -3.6826611 1.543574
-0.90579599 -2.9630251 1.158826
-0.99481398 -3.267725 1.186497
-0.97690499 -3.222244 1.07986
-0.96244502 -3.187798 0.97953397
-1.185612 -3.943433 1.103099
-1.7769049 -5.9349542 1.498934
-2.2856669 -7.6342468 1.928108
-0.86203498 -2.8913839 0.65296501
-1.7424999 -5.8445859 1.31989
-2.2646921 -7.5960879 1.715434
-0.88945502 -2.995997 0.59833002
-0.96832299 -3.2755051 0.57077497
-0.86878699 -2.9513359 0.44100699
-0.88220298 -3.009748 0.377381
-0.85629201 -2.933892 0.300136
-0.87785399 -3.0207291 0.242054
-1.140793 -3.9255121 0.31455499
-0.90079802 -3.113101 0.18351699
-0.92844498 -3.2225749 0.12545601
-1.06469 -3.7115951 0.074419998
-1.105912 -3.8721559 0.0096519999
-1.155502 -4.06354 -0.055493001
-2.1480031 -7.5538568 -0.103159
-0.87898499 -3.1047521 -0.088811003
-2.139189 -7.5560498 -0.21614
-0.86769998 -3.0784431 -0.129168
-0.89849401 -3.201844 -0.172645
-0.88972402 -3.1847401 -0.204427
-0.84127402 -3.038363 -0.24259099
-0.84378999 -3.1031289 -0.28035
-1.095777 -4.0298371 -0.364072
-0.84598899 -3.1689479 -0.23025
-0.833471 -3.151252 -0.169223
-1.5037709 -5.685576 -0.30531701
-0.79542398 -3.021507 -0.126182
-1.456359 -5.5581932 -0.158143
-1.049667 -4.025023 -0.054639999
-0.75418597 -2.9057109 0.0071950001
-0.85296601 -3.3019769 0.065729
-1.477123 -5.7181988 0.113826
-0.84523398 -3.287714 0.12698901
-0.86344802 -3.3747101 0.197255
-0.84633201 -3.3238029 0.263919
-1.050042 -4.1238351 0.32744399
-1.433843 -5.6311421 0.447128
-0.82358301 -3.2501481 0.32925999
-0.78097498 -3.0970099 0.38431001
-0.82904899 -3.30375 0.488258
-0.80625802 -3.2287099 0.55610597
-0.78280199 -3.150244 0.62145799
-1.423491 -5.7285829 1.130095
-1.4845639 -6.004004 1.338504
-1.333365 -5.4193511 1.350311
-1.075439 -4.3928089 1.21152
-1.292043 -5.277564 1.455532
-1.232224 -5.058496 1.531527
-1.170163 -4.8279872 1.5932209
-1.033728 -4.286674 1.531683
-1.019192 -4.2479038 1.633847
-1.014906 -4.2516961 1.751492
-0.84419501 -3.5547099 1.5608
-0.88446701 -3.7629311 1.85145
-0.78805602 -3.370213 1.744709
-0.73197001 -3.1467359 1.70704
-0.82855701 -3.599622 2.1202109
-0.820544 -3.5837581 2.1873889
-0.69287699 -3.4035251 1.916514
-0.68309498 -3.3754051 1.819628
-0.76449502 -3.800215 1.954021
-0.69499099 -3.4964499 1.6159281
-0.77249098 -3.9099741 1.70262
-0.797741 -4.0624299 1.658878
-0.93141901 -4.8018169 1.6990269
-0.970052 -5.0634861 1.51657
-1.095107 -5.7522211 1.56861
-1.094341 -5.7845302 1.424387
-0.721205 -3.8364291 0.844814
-1.06339 -5.6566682 1.245646
-0.579436 -3.1020341 0.604159
-0.602593 -3.2467639 0.55182099
-0.68304199 -3.7040491 0.53990799
-0.72050798 -3.932704 0.48107401
-0.706631 -3.8822329 0.38750899
-0.60569203 -3.3496161 0.261924
-0.60528201 -3.3695829 0.193863
-0.64318699 -3.6045041 0.13697
-0.61457002 -3.4673021 0.067868002
-0.64986497 -3.6912191 0.0089840004
-0.90873098 -5.1966901 -0.069297999
-0.68231797 -3.928679 -0.109748
-0.86688101 -4.9913621 -0.13943399
-0.70517099 -4.0882468 -0.16754401
-0.65303701 -3.812263 -0.20079701
-0.64675999 -3.8020189 -0.238426
-0.88979697 -5.2307281 -0.32802099
-0.61653298 -3.6756339 -0.286782
-0.60545498 -3.7147069 -0.32811701
-0.57706702 -3.6465361 -0.25917199
-0.55235499 -3.5433769 -0.186176
-0.59132802 -3.8223779 -0.156205
-0.602795 -3.9264951 -0.109336
-0.60219598 -3.9530499 -0.052524999
-0.58228803 -3.8522291 0.0093379999
-0.52597702 -3.5071189 0.068350002
-0.80994898 -5.400588 0.105251
-0.51739597 -3.4772589 0.131512
-0.513502 -3.4786711 0.199121
-0.52295101 -3.571245 0.277729
-0.55377799 -3.812459 0.37832201
-0.53787303 -3.7332461 0.45383701
-0.57117701 -3.9971249 0.57878703
-0.491175 -3.465831 0.58494997
-0.45368001 -3.2280719 0.62409103
-0.81741601 -5.8161702 1.124454
-0.78569502 -5.6377382 1.231897
-0.75038701 -5.4302292 1.326324
-0.73848498 -5.3898249 1.457343
-0.71693897 -5.2778621 1.566802
-3.1487041 -23.382282 7.5666542
-3.102273 -23.446594 8.845685
-2.132236 -23.333313 10.009472
-2.0495019 -23.319099 8.1312428
-0.65462202 -7.6507158 2.258769
-0.64533901 -7.6462531 2.055599
-0.49712601 -5.972425 1.45002
-0.62592 -7.626214 1.655996
-0.61806899 -7.6388478 1.467243
-0.56847203 -7.1282139 1.194953
-0.30160701 -3.837817 0.55182701
-0.292923 -3.7833071 0.45658499
-0.301052 -3.9474931 0.38877901
-0.39217001 -5.1422601 0.50644898
-0.27187899 -3.6200731 0.27934
-0.294119 -3.977751 0.225862
-0.29276299 -4.0225391 0.150876
-0.26304901 -3.672909 0.070969999
-0.25857499 -3.6698911 0.0088179996
-0.26143801 -3.7726259 -0.049674999
-0.26739901 -3.9244111 -0.108263
-0.29721001 -4.4374328 -0.179609
-0.34074599 -5.0874448 -0.205919
-0.25513801 -3.8763809 -0.20167799
-0.322644 -4.9900331 -0.30913901
-0.251865 -4.0401912 -0.31148601
-0.300749 -4.8243461 -0.37194201
-0.29148099 -5.0514059 -0.44110799
-0.19613101 -3.6956911 -0.25980201
-0.187802 -3.700248 -0.19234601
-0.27356201 -5.5157189 -0.223028
-0.26203999 -5.409606 -0.149064
-0.36665201 -7.5692549 -0.208574
-0.18804701 -3.9772129 -0.052301999
-0.237775 -5.0289478 -0.066132002
-0.184716 -4.0047312 0.0096089998
-0.18041299 -4.0121999 0.077407002
-0.17389899 -3.969413 0.148633
-0.152826 -3.5829971 0.203078
-0.166797 -4.0196481 0.30956799
-0.206315 -4.9720111 0.38291299
-0.153474 -3.80459 0.37392399
-0.225116 -5.580595 0.54847401
-0.20715199 -5.2867808 0.63661402
-0.24276 -6.1955242 0.74604201
-0.198901 -5.2307148 0.750337
-0.297636 -7.8272781 1.1228091
-0.19711199 -5.3461862 0.89398903
-0.188688 -5.460259 1.1824009
-0.186501 -5.5836878 1.351722
-0.75563902 -23.431215 6.2801328
-0.72991902 -23.475563 6.9089432
0.020314001 -5.6509728 3.4731519
0.13728701 -5.6252999 0.94030398
0.19491901 -7.6255388 1.093437
0.146354 -5.4775219 0.65931201
0.203474 -7.615334 0.91663402
0.142399 -5.1084328 0.50185603
0.22198001 -7.6461658 0.58860099
0.168972 -5.3905802 0.201754
0.39140701 -7.6701188 -0.539141
0.311845 -5.3779511 0.012912
0.317655 -5.370615 0.10369
0.466079 -7.7285428 0.28964099
0.47684699 -7.7579069 0.440135
0.48703501 -7.7767301 0.599572
0.496308 -7.780684 0.76563603
0.328361 -5.0558038 0.60961598
0.50422001 -7.7635279 0.93610603
0.34196401 -5.17272 0.74309999
1.907544 -26.526766 7.1244712
0.85540098 -9.4490585 6.1544342
1.00832 -7.7378178 1.118552
1.018886 -7.7489281 0.94040698
1.02794 -7.7485132 0.76758999
1.0402631 -7.7725139 0.60340798
1.048402 -7.7649908 0.44369599
1.061697 -7.7955308 0.294314
1.068272 -7.7765098 0.151287
1.078962 -7.7875881 0.018843999
1.087038 -7.7797451 -0.103185
1.098786 -7.7979851 -0.216745
1.103797 -7.768579 -0.316888
1.118271 -7.8056841 -0.40937001
1.124813 -7.7871609 -0.48641601
1.137556 -7.7487941 -0.60263997
1.170012 -7.7212362 -0.680812
1.20591 -7.7171259 -0.54831499
1.222922 -7.7090931 -0.40522301
1.2331131 -7.7157149 -0.315557
1.244634 -7.7304811 -0.215507
1.254903 -7.7372179 -0.102962
1.267655 -7.7591071 0.018843999
1.271852 -7.7285938 0.150959
1.28813 -7.7714591 0.294687
1.2965961 -7.7669029 0.44590101
1.305141 -7.7627802 0.60570902
1.315671 -7.770494 0.77394301
1.3286639 -7.792522 0.95115799
4.4305248 -23.818592 10.982036
1.647634 -8.8010159 4.28866
4.524683 -23.8638 12.833634
1.300819 -6.8175521 3.8296461
1.753975 -9.0783529 5.5011959
1.640425 -8.386447 5.40452
1.362429 -6.8391428 4.7062168
1.262851 -6.1896138 4.4201798
1.45091 -6.8676162 4.652307
1.77741 -8.317872 5.3793969
1.801771 -8.3843536 5.2707291
1.479859 -6.8096581 3.999975
5.3177662 -23.676615 10.366575
5.4169049 -23.988241 9.8539562
5.4645038 -23.941006 8.5299139
5.494801 -23.94607 7.879374
5.4458652 -23.607534 7.1268058
1.909898 -7.9835172 0.98771399
1.915807 -7.9674869 0.80472797
1.92647 -7.9712701 0.63102698
1.932189 -7.9545822 0.463541
1.941242 -7.9517479 0.30620101
1.9450181 -7.927361 0.157318
1.958132 -7.9411192 0.019603999
1.9621 -7.9178061 -0.107151
1.967792 -7.9015751 -0.22411899
1.977764 -7.9026341 -0.32899401
1.987308 -7.9019589 -0.42300501
1.995581 -7.8961849 -0.50350797
2.005573 -7.859159 -0.62412202
2.0342081 -7.8201079 -0.70443499
2.065711 -7.793026 -0.56596202
2.0927711 -7.8219738 -0.42036101
2.0992999 -7.8101921 -0.32661301
2.1157651 -7.8352919 -0.22337601
2.1283381 -7.8457422 -0.106784
2.1360099 -7.838141 0.019471999
2.1491809 -7.8506241 0.156875
2.15927 -7.8518119 0.30463099
2.1730411 -7.8662958 0.462127
2.1808021 -7.858922 0.62757498
2.188787 -7.8524418 0.80052602
2.202796 -7.8675108 0.983055
6.7802849 -23.687801 5.9614038
6.828392 -23.752542 6.6206632
6.9549141 -24.087805 7.3751459
6.981822 -24.076452 8.0397043
7.0308709 -24.141291 8.7340069
7.0691772 -24.168772 9.4180918
7.148737 -24.232681 10.793212
2.6379631 -8.8665323 4.4307799
1.559348 -5.2191 2.7458019
2.573436 -8.6132259 4.5314732
1.541828 -5.1388092 2.834789
2.259383 -7.5303712 4.154078
1.526638 -5.0668778 2.9199419
2.9417119 -9.6823692 6.0206881
3.254117 -10.622314 7.0262499
3.3977749 -10.441339 6.944468
3.1408739 -9.5393419 5.7647429
3.143517 -9.5103149 5.5268259
2.009608 -6.0563269 3.371568
2.6816599 -8.0195942 4.050209
2.953146 -8.7976732 4.206615
3.5319409 -10.441859 4.4168549
2.9011991 -8.3538351 1.9138401
2.9160709 -8.3654194 1.6960829
2.9211919 -8.349062 1.478115
2.9341941 -8.3552427 1.2693861
2.9381289 -8.3355904 1.063453
2.944849 -8.323967 0.867082
2.9495831 -8.3068142 0.67828703
2.955483 -8.2929907 0.498537
2.9647081 -8.288579 0.32930401
2.975147 -8.2875175 0.169709
2.9795029 -8.2695961 0.021069
2.9959469 -8.2852049 -0.115728
3.003288 -8.2755537 -0.242305
3.0081129 -8.2590828 -0.35498101
3.0208509 -8.2643509 -0.45680901
3.0352399 -8.2740173 -0.54484999
3.048398 -8.2508698 -0.67682898
3.0895419 -8.2447443 -0.76757401
3.1264639 -8.2273207 -0.61785197
3.1504071 -8.2329483 -0.457638
3.1730571 -8.2635221 -0.357483
3.181474 -8.2569246 -0.243543
3.2006121 -8.2780352 -0.116582
3.209718 -8.2731571 0.021269999
3.2288549 -8.294014 0.17153899
3.239681 -8.2934694 0.33307901
3.2528911 -8.2989817 0.50475597
3.2672091 -8.3072109 0.68687999
3.2868321 -8.3288403 0.87929797
3.2969961 -8.3264103 1.077549
3.312495 -8.3373613 1.285988
3.3386719 -8.3750353 1.506629
3.3473499 -8.3686838 1.725605
3.363596 -8.3811665 1.954452
3.8433969 -9.5131798 2.7485609
3.6526799 -8.9812117 3.109483
3.9168701 -9.598979 3.601162
3.852469 -9.4100294 3.802968
3.797411 -9.2449999 4.0047388
3.75228 -9.1051521 4.2070508
3.7135479 -8.9816694 4.4056129
3.6768031 -8.8637133 4.5962272
3.620724 -8.7000809 4.750237
3.579011 -8.5718937 4.9080911
2.731962 -6.5219202 3.9016299
3.536057 -8.4415102 5.0499921
2.4810879 -5.903851 3.675895
3.4887791 -8.3016911 5.1688528
3.4542291 -8.1929026 5.2900252
2.301971 -5.4423342 3.631808
2.2627759 -5.3324718 3.6635921
2.219429 -5.2135229 3.6755731
2.1841781 -5.09797 3.742933
2.1601191 -4.978034 3.796998
10.878738 -24.072231 13.957645
10.984135 -23.935492 10.55247
4.299808 -9.2284813 2.7273431
4.298223 -9.1972799 2.456286
4.3108878 -9.1966391 2.1981239
4.3343501 -9.2188988 1.950307
4.3226099 -9.1663837 1.693536
4.3107491 -9.1138954 1.4451931
4.2788868 -9.019495 1.201193
4.2674999 -8.9686956 0.97536898
4.2720351 -8.9515324 0.76321697
4.2787042 -8.9388609 0.56117898
4.3244791 -9.0077276 0.37378901
3.979718 -8.2650604 0.1768
4.1482921 -8.5644226 -0.125001
4.2124648 -8.6713018 -0.265333
4.4079599 -9.0470934 -0.40643099
4.1104321 -8.3870792 -0.57743001
4.3124299 -8.7479858 -0.75048101
4.3327971 -8.6876688 -0.84634602
4.3234921 -8.5694981 -0.67380399
4.186368 -8.2501717 -0.48029399
4.3232079 -8.4954853 -0.38496301
3.9677701 -7.7747612 -0.24024101
4.3237019 -8.4480257 -0.12466
7.4686899 -14.346544 1.588347
4.7119932 -9.0003109 1.456261
4.7155089 -8.9817343 1.6951849
4.727459 -8.97925 1.942786
4.7156668 -8.9317446 2.1858561
4.737998 -8.9489613 2.4499371
4.771904 -8.9879818 2.7260489
4.756454 -8.9338989 2.977263
4.7372251 -8.8729734 3.225837
4.7328219 -8.8400831 3.483037
4.6869292 -8.7300634 3.7059319
4.9459329 -8.4909067 5.4219899
5.004046 -8.5678539 5.2425842
4.6026778 -7.859704 4.591341
9.4693527 -15.999818 7.4496989
6.085422 -9.8097744 -0.151638
5.3368912 -8.5809164 -0.278126
5.3487182 -8.577776 -0.40824601
5.2965069 -8.472188 -0.51871198
5.5047712 -8.7826586 -0.64080101
5.6564398 -8.978385 -0.81653702
5.5835671 -8.7723322 -0.906533
5.535573 -8.6086483 -0.71848202
5.4489312 -8.4309111 -0.52114803
5.5099421 -8.5037031 -0.409215
9.5451546 -14.436537 1.699566
5.942925 -8.7009039 4.501297
9.6113749 -14.002043 8.1345444
5.3675189 -7.76158 5.2070041
6.1436682 -8.8182697 6.6054292
5.3723011 -7.6731348 6.0760689
4.5728421 -6.341857 5.1821198
6.730938 -9.2442636 6.8035059
5.4924932 -7.525064 5.3475699
6.7242088 -9.1679192 6.0073419
6.6337271 -8.9355927 4.4592562
7.142735 -9.2135859 -0.153135
7.179534 -9.2389193 -0.322036
6.632628 -8.5147781 -0.43588799
6.6967268 -8.5765696 -0.564906
6.6001639 -8.4327335 -0.662027
6.7964292 -8.6421967 -0.84599799
6.9737911 -8.7836666 -0.97774899
6.799118 -8.482687 -0.76315898
6.8244591 -8.4740028 -0.56485403
6.9489808 -8.6082067 -0.44678301
7.4048181 -9.1295319 -0.15440901
7.5005298 -9.2256889 0.028499
11.718895 -14.380215 0.35753101
9.1179667 -11.031218 2.051507
6.8205962 -7.9847012 5.2935462
5.9476242 -6.8977652 5.4188752
6.441412 -7.383574 6.6126461
6.0692649 -6.7491322 5.5786161
7.8618288 -8.7018929 6.7315068
10.666958 -11.779284 8.7685223
9.1461248 -9.574522 0.031737
9.2414951 -9.6519661 -0.17553
8.6879406 -9.0527964 -0.34534001
8.4113111 -8.7442656 -0.49000099
8.2582254 -8.5652552 -0.61768401
8.4972467 -8.7927437 -0.75594097
8.4357634 -8.6887789 -0.931849
8.5148811 -8.689353 -1.060604
8.5748186 -8.6698256 -0.85601598
8.6206341 -8.6758575 -0.63494903
9.2458639 -9.283576 -0.52914298
9.5162926 -9.5330143 -0.37073401
9.5223417 -9.5169859 -0.176843
13.945361 -13.77703 1.508404
13.700925 -13.504244 1.889167
7.7514348 -7.3279161 5.8857799
6.6218591 -6.2165952 5.5822811
6.5564289 -6.1408939 5.6813998
6.6001339 -5.9837561 5.7789321
6.7509518 -6.0778532 5.4045582
11.39771 -10.118686 6.9087739
11.333203 -10.037931 6.4675202
10.230647 -8.60604 -0.69405198
10.531516 -8.8382883 -0.84997898
10.943571 -9.0551338 -1.238297
10.846498 -8.8904257 -0.98451602
10.710483 -8.7374992 -0.71758997
11.680861 -9.484129 -0.414121
11.682012 -9.109231 5.1456418
11.046174 -8.5518274 5.967813
13.060902 -8.8408871 -0.81879199
12.490768 -7.8360572 4.337491
12.918051 -7.2128739 3.9634449
17.085329 -9.3070326 1.101722
8.2954502 -3.889878 5.9432821
8.3769951 -3.9044411 6.2372899
8.1888342 -3.7705729 6.308073
8.2078409 -3.7332621 6.173758
8.2713671 -3.739012 6.0163422
8.3868246 -3.7794969 5.967227
10.870289 -3.9004519 5.2350459
11.730139 -4.208981 5.6491432
10.69369 -3.8230741 5.439445
10.80678 -3.8493769 5.7828388
8.2166719 -2.9160471 4.6067662
10.756416 -3.8173871 6.0307012
8.1234961 -2.8723631 4.7543259
8.0099192 -2.821758 4.8746419
11.061084 -3.89663 6.7315068
7.9338479 -2.7846069 5.0026679
7.8530598 -2.7460279 5.1131201
7.8047328 -2.7189751 5.2270589
7.832984 -2.718622 5.378396
7.9577241 -2.7412529 5.68013
7.9754548 -2.706013 5.8930001
8.1397905 -2.7197189 5.87603
8.0241928 -2.660409 5.6030989
7.6627831 -2.530725 5.234725
7.715991 -2.538377 5.13726
7.9736972 -2.6128991 5.157104
7.7645421 -2.534394 4.8595009
8.0300961 -2.6107719 4.846765
8.1947441 -2.653785 4.7528772
8.2119551 -2.64884 4.559114
10.641491 -3.4188709 5.634295
10.591191 -3.3891671 5.3262668
11.152773 -3.55462 5.306057
12.104733 -3.8580289 5.7589631
12.059755 -3.8282731 5.4052491
12.10247 -3.8263891 5.0859852
13.5154 -3.3754311 4.8388462
8.7753391 -2.1808071 3.3818951
8.616436 -2.1306961 3.5565441
8.78234 -2.160917 3.863698
12.268545 -2.9885271 6.048099
9.9198456 -2.3920419 5.3916121
10.899604 -2.6149089 6.1848269
9.5282879 -2.2742369 5.6228638
9.1800451 -2.179853 5.6136851
6.804081 -1.5990061 4.4204712
6.7102141 -1.5687259 4.4701142
6.6317759 -1.534176 4.5937781
6.5910511 -1.492557 4.7286181
6.701797 -1.4686691 4.547338
9.1221523 -1.976917 5.9032259
9.2411327 -1.99147 5.8100548
6.3292818 -1.356285 3.8511951
9.987318 -2.1159251 5.633111
9.8215256 -2.068902 5.3033171
8.954999 -1.8755111 4.6120472
8.781786 -1.8286051 4.2964358
8.6976557 -1.800566 4.026196
8.969408 -1.845965 3.912019
8.7458477 -1.789385 3.5770011
12.53576 -2.534497 4.442472
12.3398 -2.479986 4.0366478
13.14156 -2.625268 3.942122
13.076631 -2.5965099 3.5714221
9.4344978 -1.354143 2.8037069
9.320715 -1.326767 3.019393
9.3980398 -1.293311 4.05266
9.3645668 -1.2776411 4.2842331
9.2690554 -1.253648 4.4800248
6.369658 -0.85398102 3.2395959
6.092289 -0.80960399 3.2472999
6.1406608 -0.80877602 3.4175501
6.0611801 -0.79115802 3.5086269
6.0120921 -0.77765203 3.6067891
6.495831 -0.832564 4.025044
6.4315438 -0.81674498 4.1002941
6.4568439 -0.81234002 4.2214122
6.1995182 -0.76536399 4.2156248
6.399168 -0.75987297 4.5090418
6.2149968 -0.70877397 4.2828751
6.372767 -0.711788 4.2501121
6.4366732 -0.71136898 4.2007322
7.2655439 -0.80297399 4.7416739
6.4145379 -0.70139402 4.0810509
6.5253868 -0.70584798 4.033946
5.9534292 -0.63699597 3.562305
7.3668022 -0.788221 4.4080129
6.0898671 -0.64445198 3.515099
6.3220229 -0.66159701 3.5074091
6.2134662 -0.64295298 3.3005581
6.8374429 -0.69949698 3.4646621
7.0322018 -0.711182 3.3853979
12.093669 -1.194711 5.1915369
11.72367 -1.116971 4.090723
6.8389111 -0.276849 1.656024
6.6637068 -0.26207799 1.786487
12.119331 -0.46255401 3.567636
11.9242 -0.441228 3.8268449
12.514986 -0.44854301 4.3499408
12.248489 -0.42475599 4.5838099
10.680255 -0.333125 4.8436561
10.809631 -0.32458401 5.1798272
7.16608 -0.19852901 3.787816
6.9162192 -0.183562 3.8175681
6.2458811 -0.158516 3.586287
6.220201 -0.15063 3.7018919
6.4697218 -0.149159 3.9773951
5.878346 -0.12869801 3.718647
6.0290852 -0.124987 3.9117579
5.8957891 -0.108532 3.9795589
5.6807809 -0.078174002 3.9752951
7.7264848 -0.106325 5.4068379
5.7451148 -0.052372999 3.933737
7.1032162 -0.064753003 4.8636422
5.9871521 -0.04067 3.9683549
5.9430361 -0.033472002 3.855161
6.5093312 -0.029105 4.1168642
6.22434 -0.020595999 3.825546
6.4359989 -0.013826 3.8292091
6.1715689 -0.0060950001 3.542479
6.8610568 -0.0067759999 3.9382451
7.225409 0.0096490001 3.8177149
10.845996 0.03968 5.1949458
10.802816 0.052062001 4.896915
6.4113488 0.038350001 2.7389629
6.2766972 0.044831 2.5150959
6.3585868 0.052797001 2.3782561
6.3240461 0.059861001 2.1967909
6.6900711 0.078858003 1.968098
6.3350778 0.082038 1.697214
6.6057258 0.093212001 1.5984091
6.6082292 0.100919 1.4303041
6.5530829 0.107695 1.254763
11.784662 0.65964401 0.90821898
11.592555 0.67589003 1.39723
11.547357 0.68672299 1.6581759
9.2603512 0.56150198 1.550307
6.4611039 0.399297 1.239344
6.2613602 0.39425901 1.357752
6.2281332 0.399425 1.509987
6.0194879 0.39299899 1.615963
5.89853 0.39198399 1.738947
6.0594668 0.40976 1.9477791
6.1991558 0.426442 2.1584001
6.3732018 0.44585499 2.389466
6.0203018 0.428206 2.418391
6.0251389 0.43558601 2.5806439
6.2130961 0.456431 2.823952
6.3766298 0.47590399 3.062711
6.7653198 0.51281703 3.420099
6.8788118 0.52945799 3.645329
6.6287761 0.51797098 3.6687689
6.4444771 0.51110399 3.710742
6.183126 0.49761599 3.690644
6.0704169 0.495644 3.7433381
5.9902449 0.496104 3.8014979
8.0336475 0.69354999 5.4418259
6.9863291 0.63587898 4.9086361
7.9587779 0.78038901 5.3003478
6.4465599 0.647237 4.097621
6.2696409 0.63684303 3.8731949
6.4322281 0.660909 3.847105
6.2316771 0.64761901 3.5962441
6.4366679 0.67649299 3.5711801
7.077548 0.74384898 3.9267521
6.6556668 0.70732898 3.536479
6.8408961 0.73506302 3.4682629
6.3435202 0.68907499 3.056232
6.3085051 0.692689 2.8767979
6.0460458 0.67098999 2.5987151
6.363203 0.71367198 2.565681
6.2718239 0.71080297 2.3607409
6.3621011 0.72853202 2.2243531
5.8769908 0.67989999 1.89739
5.940187 0.69420499 1.759266
5.9485002 0.70219302 1.604578
6.1410632 0.73215902 1.496348
6.0055909 0.72308499 1.3091021
6.308136 0.766958 1.216592
8.7236404 1.070927 1.46872
8.4218178 1.0438091 1.216459
9.3333778 1.167815 1.131785
6.5610628 0.82867903 0.649432
8.3136435 1.050035 0.82290697
6.5366192 0.83330798 0.507047
7.6099758 0.97914201 0.43448099
7.2906542 0.94666803 0.275024
6.7678809 0.88679498 0.13155399
7.9765639 1.054597 0.019285001
7.1847339 0.95840198 -0.095211998
8.3929272 1.119568 -0.111223
7.3221922 0.98540902 -0.203347
8.8663702 1.203712 -0.361357
8.1241322 1.112558 -0.42570099
8.2250519 1.136129 -0.51331902
9.0769672 1.318378 -0.799622
8.568821 1.285275 -0.60825801
7.0756931 1.078143 -0.371575
7.0070848 1.07602 -0.28630099
8.5892344 1.318978 -0.35094601
7.167933 1.109246 -0.199632
6.729085 1.049351 -0.089459002
7.6488881 1.1927871 -0.101687
6.5367742 1.027142 0.015860001
6.4790788 1.0258009 0.12642901
6.253509 0.99753702 0.236894
6.040689 0.97078699 0.34645399
6.2016749 1.004061 0.483417
8.0651312 1.315375 0.802481
6.8618579 1.127314 0.83671302
6.890892 1.140319 1.001206
7.904603 1.308069 1.148492
6.8599319 1.1433851 1.162153
6.9720478 1.170399 1.353482
6.0616579 1.024824 1.330466
5.9636302 1.015378 1.46366
6.050281 1.0372961 1.6444269
6.0598168 1.046173 1.808934
6.2152929 1.0804549 2.02321
5.9560571 1.042514 2.100322
6.0040269 1.058094 2.28017
6.1218338 1.086193 2.491292
6.075285 1.085209 2.6364291
6.2838821 1.129998 2.8941381
6.3382468 1.1473809 3.0851741
6.1020331 1.111937 3.1266129
6.383296 1.1708471 3.4290299
6.2095752 1.146444 3.4842191
6.1930432 1.1508271 3.615658
6.9996819 1.300721 4.0865951
6.7419348 1.260934 4.0807738
6.8428502 1.28803 4.2795219
6.731132 1.275093 4.332809
7.5974679 1.448354 5.0170422
7.0815091 1.367038 4.8673239
6.7740822 1.340367 4.8318129
6.8859138 1.395759 4.8105369
7.4394598 1.525962 5.0335069
6.606842 1.363171 4.375967
7.6051402 1.569147 5.037178
6.4075098 1.3297991 4.1387792
6.7568779 1.4105 4.2423449
6.2768092 1.317891 3.8159151
6.6035461 1.394498 3.8740261
7.3338122 1.5576169 4.1369071
5.8390622 1.2472349 3.1548009
6.90519 1.474962 3.7308221
5.9244871 1.272684 3.0545919
6.0844488 1.314436 2.9814999
6.066473 1.317925 2.814043
5.8100328 1.2692879 2.5405729
5.7417212 1.261348 2.3555319
5.6064081 1.238446 2.147402
5.851109 1.299634 2.0819471
5.5852871 1.247395 1.835395
5.9148641 1.328212 1.783254
5.8182392 1.313619 1.59785
5.6870551 1.290941 1.410983
5.8401661 1.332826 1.296411
6.3688378 1.4612679 1.251002
5.8991542 1.360714 1.011672
5.687417 1.318828 0.83689201
6.1196051 1.426544 0.75607598
5.6335568 1.320137 0.56821603
5.9423151 1.399768 0.46976
5.019927 1.188651 0.29212299
5.5801091 1.328136 0.21457601
5.5600338 1.330189 0.110184
5.521584 1.327768 0.013612
5.3572669 1.294834 -0.072397001
5.035583 1.223281 -0.142626
5.3056941 1.295422 -0.220567
5.4584918 1.339444 -0.291785
5.5313931 1.364151 -0.352209
5.7207761 1.424953 -0.45364901
6.1119671 1.552586 -0.54975599
5.6985211 1.475769 -0.413232
5.3796778 1.40654 -0.288674
5.038794 1.323665 -0.210398
4.9389329 1.303562 -0.14059
5.868639 1.556244 -0.079752997
5.4672742 1.456604 0.013562
5.382484 1.440716 0.10739
4.9524732 1.331779 0.19184799
5.4852519 1.481879 0.32174799
5.1922622 1.4092031 0.413984
5.5679898 1.518118 0.56674999
5.298233 1.451178 0.66098398
5.940268 1.634455 0.88314998
5.7458978 1.588151 0.99617797
5.9668169 1.65667 1.1855659
5.6072412 1.563856 1.259818
5.5724778 1.5611351 1.400166
5.542716 1.5596761 1.542475
5.5206552 1.560393 1.6875859
5.467761 1.552314 1.822874
5.6095061 1.5996 2.026166
5.471005 1.566981 2.128485
5.718204 1.6449831 2.384172
5.6559372 1.6341881 2.515038
5.8692989 1.703226 2.7702799
5.7363162 1.671873 2.8618419
5.9330239 1.736686 3.1162601
5.8038769 1.706206 3.1963789
5.9494419 1.756521 3.422864
6.2038231 1.839463 3.714227
5.9410262 1.769065 3.688087
5.9079452 1.7666889 3.7899401
5.9121919 1.775445 3.904125
5.78721 1.745255 3.92101
7.104044 2.1603949 5.0110888
7.1671181 2.2525959 5.143857
5.8188748 1.843726 4.0457001
7.2769709 2.305728 5.059473
5.8952899 1.875478 4.0129809
5.8937869 1.890102 3.8040781
5.8571572 1.8858629 3.6609881
5.8690729 1.897228 3.540488
6.0527649 1.964388 3.5112741
5.523191 1.799614 3.069308
5.587894 1.82789 2.963665
5.4727788 1.7972749 2.759032
5.5774999 1.838847 2.662112
5.5760112 1.845551 2.509145
5.5241251 1.835502 2.3324709
5.558507 1.854099 2.191541
5.5097561 1.844964 2.018291
5.5554872 1.867458 1.8796771
5.4494381 1.838859 1.691819
5.370338 1.819129 1.5189281
5.3547149 1.820775 1.368418
5.550777 1.89464 1.269336
5.4624 1.871572 1.105462
5.4917498 1.888761 0.97046602
5.548656 1.915544 0.84143299
4.8472142 1.679701 0.61726099
5.5599451 1.9339221 0.57808697
5.6865768 1.985377 0.463469
4.8750429 1.708409 0.292519
5.1234908 1.802161 0.20317499
4.9486642 1.747139 0.101147
4.9399948 1.750535 0.012562
5.356781 1.9052351 -0.074683003
4.9660659 1.772781 -0.14512999
5.5318608 1.982008 -0.237313
5.2503362 1.888026 -0.28965899
6.3122439 2.2698891 -0.34824499
5.1682062 1.865285 -0.339683
5.4011641 1.96356 -0.44221801
5.34168 1.970106 -0.496344
5.4815631 2.0506971 -0.410851
5.005331 1.885813 -0.27768299
4.8207402 1.822665 -0.208138
4.7786641 1.813105 -0.140673
5.0872579 1.936964 -0.071503997
5.4460039 2.0808041 0.013974
4.6266642 1.773922 0.095500998
4.857254 1.868809 0.19468901
4.9866881 1.925262 0.30269501
5.5699458 2.157896 0.45963299
5.3122792 2.0651729 0.55971301
5.041923 1.9668159 0.65118903
4.7268872 1.850262 0.72763401
4.4461069 1.746315 0.79822803
5.3540559 2.1029339 0.961236
5.3719769 2.1171801 1.105462
5.1815491 2.0490971 1.20588
5.2868738 2.0978551 1.376179
5.3271408 2.12093 1.536006
5.4442711 2.1748891 1.724555
5.5948811 2.242599 1.93312
5.3706489 2.1599579 2.0107441
5.399106 2.1786871 2.1775291
5.44982 2.206521 2.3559041
5.436522 2.2084849 2.506788
6.1147032 2.483983 2.8194981
5.3869772 2.195646 2.6369269
5.3016939 2.168076 2.7434809
5.2682271 2.16153 2.8704879
5.418252 2.230437 3.095937
5.5450001 2.290153 3.310298
7.8038669 3.2337019 4.8487558
5.9546409 2.483659 3.9653521
8.4311066 3.5280769 5.7802858
8.2498684 3.4635091 5.8039651
7.2901902 3.080538 5.3411341
7.0608492 3.022367 5.3741589
8.1608772 3.538166 6.0901451
8.3419237 3.639704 6.0323639
8.2181654 3.5970671 5.8192029
8.3165283 3.651629 5.7444739
8.3721132 3.6876481 5.6226001
5.5693731 2.4608531 3.6226389
5.7634792 2.55462 3.618645
5.2594509 2.338531 3.175992
4.8626928 2.1688819 2.8132989
5.1848311 2.319793 2.863286
5.2174602 2.3416641 2.739161
5.3991389 2.430737 2.6839931
5.2012482 2.3489201 2.4380391
5.3235312 2.411587 2.3417699
5.481317 2.490737 2.2517941
5.1091919 2.32881 1.95037
6.0357909 2.7511611 2.3040869
5.1085591 2.3356869 1.801497
5.0507522 2.316349 1.634532
4.9361691 2.2707469 1.455532
5.0180831 2.31549 1.337142
5.000773 2.3145471 1.192554
4.8283639 2.2415669 1.019154
4.6593308 2.1696711 0.85888201
4.7866158 2.235707 0.75729001
4.9358621 2.312408 0.65584803
4.915246 2.3097119 0.53332603
5.1137481 2.410239 0.43500599
4.780273 2.2598579 0.29941601
4.8045292 2.278152 0.19891299
4.8630328 2.31282 0.103787
4.390996 2.0945749 0.011661
4.8301721 2.310956 -0.070335001
5.165834 2.4789331 -0.157703
6.3167009 3.0312009 -0.192837
4.9806352 2.3971779 -0.22323
5.9196811 2.8491409 -0.26531801
4.6838179 2.2610199 -0.27000999
5.4484358 2.6379371 -0.374237
5.2645102 2.5639901 -0.45058
5.1856089 2.555438 -0.503986
5.2983999 2.641675 -0.415613
4.6429009 2.3283391 -0.269647
4.5560732 2.2914181 -0.20595901
4.3144178 2.1761589 -0.13299599
4.374712 2.2129531 -0.064398997
4.5071669 2.28653 0.012114
4.6177449 2.3493791 0.099855997
5.4894218 2.80089 0.23053899
4.6119781 2.3599391 0.293367
4.6145411 2.3680229 0.39910099
4.5271769 2.329833 0.49999899
4.7563009 2.454735 0.64402097
4.9379659 2.5557649 0.79702002
4.9715328 2.5804591 0.936019
6.1892481 3.2125101 1.165285
6.298811 3.2786651 1.359499
4.7948351 2.5029011 1.1705559
4.8118639 2.5189011 1.314096
5.0374942 2.644402 1.524103
5.054419 2.6607749 1.680249
5.7792568 3.0509319 2.0958929
6.9303932 3.6586289 2.5133619
5.4867139 2.904644 2.1564319
5.1291471 2.722976 2.1719241
5.0588169 2.693181 2.296392
5.3598261 2.861419 2.595572
5.2971749 2.8358779 2.7236271
6.4124961 3.4329729 3.2970879
5.2404962 2.8133769 2.8488829
7.5033531 4.0506649 4.5053902
7.383575 4.008182 4.822371
5.098135 2.7982731 3.7724409
4.9529681 2.7335739 3.817893
4.8839712 2.725174 3.913379
4.8941498 2.7607391 3.8473001
4.9781442 2.8233831 3.7932241
5.0028062 2.8450501 3.733258
5.1076961 2.9125509 3.718647
7.383647 4.2445168 4.8885808
7.4339509 4.2849388 4.734519
7.706419 4.4539142 4.7030029
5.1339788 2.975142 2.991123
5.1108251 2.9696541 2.831172
5.190886 3.0242381 2.7232151
5.2446709 3.063745 2.5947859
4.8814559 2.866787 2.117275
5.2763209 3.1069369 2.1269
5.0313792 2.9705751 1.873875
4.7947788 2.8383951 1.639047
4.923223 2.922163 1.533677
4.8209991 2.869061 1.357366
4.3107162 2.5721631 1.0863709
4.8185201 2.8827641 1.075001
4.4693298 2.6809051 0.87091398
4.08109 2.4544671 0.68265301
3.970536 2.3942659 0.55788898
4.3664489 2.63992 0.50107402
4.4149332 2.6762359 0.397259
4.2087531 2.5579491 0.27889299
4.2676029 2.6005039 0.186951
4.4706779 2.7313809 0.100973
4.2184711 2.584022 0.011857
4.2602758 2.6164351 -0.065673001
5.6542392 3.472533 -0.087160997
4.4517632 2.741168 -0.14389201
4.5724711 2.822818 -0.217016
4.4843969 2.77564 -0.27379501
5.0205688 3.1155829 -0.36528999
4.6451721 2.897583 -0.42127299
4.6151571 2.9087319 -0.47558701
4.9392371 3.145133 -0.41106099
4.8818922 3.1245799 -0.30091
4.3880582 2.815695 -0.210559
4.4690871 2.8750169 -0.146258
4.4426789 2.865335 -0.069441997
4.163445 2.6920891 0.011884
3.974143 2.576242 0.091280997
3.9422989 2.5621021 0.17588501
4.062922 2.647208 0.27459699
4.0451789 2.6423509 0.371788
4.381001 2.868973 0.51426798
4.0750809 2.6754 0.586559
4.2400951 2.7907939 0.72763401
4.5072899 2.9741631 0.90239501
5.3659391 3.5407479 1.074304
4.225163 2.7950449 0.96988899
4.512476 2.992655 1.1718251
4.9299769 3.277786 1.4323829
4.938004 3.2920051 1.589829
5.3687291 3.5881641 1.8995219
6.088973 4.0695362 2.1543529
4.8571801 3.254446 1.875096
4.7049189 3.160346 1.968745
4.6039371 3.1002769 2.0759389
5.0542831 3.4291911 2.7686291
5.1912408 3.5485849 3.322515
5.0679879 3.4729829 3.390012
4.9810581 3.4219151 3.468802
4.9530592 3.4111609 3.578155
4.9672341 3.429431 3.7098269
8.0640869 5.5813632 6.2025561
7.6689548 5.3210769 6.0548449
8.824605 6.2144499 7.5521441
8.1059771 5.764883 6.8104548
7.7810431 5.5610571 6.3389821
7.8571429 5.6292338 6.2698059
4.9184089 3.5497789 3.608834
4.9354858 3.5708239 3.49668
4.9387002 3.581902 3.366339
5.0309782 3.657748 3.2865429
8.6714373 6.3663192 4.5955811
4.4684758 3.288615 2.223119
4.7717729 3.520375 2.217814
5.1949911 3.8419371 2.244369
5.0578389 3.7495961 2.0192399
6.1149979 4.5333142 2.4412899
4.7578921 3.5357971 1.743745
5.078454 3.783191 1.696438
4.2497778 3.173547 1.283289
4.1899509 3.1364529 1.132694
4.2185979 3.165554 1.009752
3.9214289 2.9496851 0.81998497
4.0672932 3.066802 0.73018801
3.956265 2.9903049 0.59671402
4.1240649 3.1246619 0.508111
3.9374909 2.9905021 0.380458
3.9925539 3.0396459 0.28415099
4.0037422 3.055511 0.188409
3.9093339 2.990659 0.094865002
3.8970511 2.98844 0.011771
4.1437678 3.1852789 -0.068654001
4.5418901 3.499718 -0.157813
4.1167388 3.1797431 -0.21007501
4.2932692 3.3240571 -0.281883
3.9558301 3.0701571 -0.309571
3.9154799 3.053431 -0.38206899
3.9754889 3.1300399 -0.44110799
3.959924 3.1476879 -0.35510901
3.987433 3.1846969 -0.264929
4.0568299 3.247843 -0.20987301
4.7642989 3.8142331 -0.246473
4.1359072 3.319036 -0.145955
3.8870511 3.126765 -0.065527998
3.9242229 3.164176 0.012083
3.93771 3.182611 0.097581998
5.597085 4.5237818 0.138704
3.9405351 3.1924629 0.18971699
3.8829019 3.1532431 0.28324699
3.7904861 3.085511 0.376084
3.950326 3.223254 0.50068301
3.8510931 3.149739 0.598625
3.932425 3.2238939 0.72891098
3.990761 3.2794721 0.863168
3.972405 3.27212 0.98530799
4.4949088 3.7112911 1.26151
4.1834168 3.4622769 1.3138601
4.4650149 3.712754 1.708187
8.9977551 7.4995279 3.7566049
10.186147 8.5301924 4.969151
5.0262542 4.2290421 2.8061409
4.945405 4.1708298 2.932534
4.9197712 4.1590071 3.0856061
4.8867531 4.14083 3.2287929
4.9659352 4.2577119 4.0203319
6.7400379 5.7787981 5.4566131
4.815557 4.1482282 4.122911
4.4217892 3.826946 3.9465539
4.3389931 3.7906909 4.0314789
4.3159518 3.8060501 3.9399509
4.3516231 3.855514 3.853442
4.3640938 3.8756139 3.786047
4.391839 3.9093809 3.718647
4.4562688 3.976027 3.6705551
4.4809279 4.00738 3.5766211
4.5031381 4.0366588 3.4712911
4.5537448 4.0915799 3.377934
4.5884709 4.1324172 3.262717
4.6186528 4.169333 3.1365161
4.6679382 4.2236671 3.0151939
4.776567 4.3320498 2.923038
4.7448549 4.3133521 2.739356
4.7844439 4.3594942 2.5935769
4.8218312 4.4038148 2.442363
4.9428601 4.5249 2.3277121
5.0130739 4.599884 2.182013
5.0642772 4.6577048 2.0239739
4.1802711 3.853647 1.523068
4.1446862 3.829752 1.365361
4.515398 4.1820221 1.331946
4.0647588 3.7734399 1.061838
3.936774 3.6631441 0.89860398
3.89169 3.629631 0.76282299
3.5698061 3.337189 0.58799303
3.7400351 3.5044689 0.50332201
3.6127789 3.3931129 0.381378
3.5402889 3.332783 0.275332
5.2886248 4.9786448 0.41130099
3.4269509 3.2335989 0.176259
3.7910509 3.585495 0.100569
3.8238659 3.624949 0.012629
4.6308761 4.3899789 0.015294
3.7454 3.5588281 -0.067865998
3.7162809 3.539387 -0.14125
4.4227648 4.2122431 -0.16810299
3.5508251 3.3896761 -0.19825201
3.5767541 3.4223721 -0.25699699
3.7450919 3.5917921 -0.32080099
4.037272 3.8900459 -0.4314
3.6772859 3.576282 -0.44718701
3.695399 3.6274459 -0.36351201
3.798434 3.7459519 -0.27695701
3.6028121 3.561291 -0.204587
3.5640299 3.5311439 -0.13808601
3.700026 3.674417 -0.068497002
4.4428692 4.4121189 -0.082248002
3.4657271 3.449739 0.011721
3.526906 3.5188069 0.096020997
3.5499821 3.550061 0.18781
3.277528 3.285219 0.26278001
3.374794 3.3905849 0.36810601
3.361129 3.3847051 0.468431
3.583976 3.6175029 0.61272198
3.7437699 3.7875869 0.76339102
3.273 3.3190041 0.77894402
3.7223721 3.7834661 1.016145
4.453207 4.5262961 1.215651
3.666981 3.735842 1.132905
3.51177 3.5860331 1.214386
4.0007248 4.0853281 1.383469
4.9045091 5.008224 1.696002
4.855804 4.9708672 1.861528
4.7473202 4.8711109 2.000834
4.722362 4.8567829 2.1725459
4.673192 4.817389 2.331322
5.4351182 5.6420221 3.346705
8.3773546 8.7367926 5.7975531
7.698441 8.1037588 6.4158902
5.6063972 5.9290919 5.015204
4.8420682 5.13269 4.462698
5.5217781 5.8531971 5.0891538
4.2618251 4.5281539 4.0336609
4.2060308 4.4897108 4.151854
4.1480212 4.4692249 4.2665339
4.1747842 4.5401711 4.22299
5.3710308 5.8684192 5.2727251
5.4827881 6.0045028 5.2744522
5.4286661 5.9591079 5.0982399
5.537539 6.0928302 5.060235
8.0550137 8.945878 6.3605232
5.1735439 5.7726359 3.712836
7.0725269 7.9099731 4.8098011
5.4733262 6.193419 2.6507871
5.4702449 6.204432 2.433172
5.2600279 5.9799972 2.133486
4.5466142 5.1810489 1.6677819
3.664572 4.1857162 1.203976
4.2253308 4.8262219 1.388211
3.6789269 4.2119808 1.070676
3.324789 3.81546 0.84569699
3.327141 3.8271191 0.726924
3.5492389 4.0921888 0.65178603
3.2670839 3.7757161 0.49032301
3.3658099 3.898948 0.396339
3.352138 3.892247 0.29087901
3.199549 3.723805 0.183661
3.064769 3.57534 0.09076
3.1586659 3.693548 0.011649
3.448108 4.041491 -0.069784001
3.3873291 3.9796109 -0.14383601
3.3702371 3.9688549 -0.21027701
3.6917689 4.357739 -0.29650301
3.8231521 4.5234718 -0.36615399
3.5134161 4.1766272 -0.41996899
3.2283061 3.874094 -0.43963099
3.4672871 4.2003961 -0.38235
3.260406 3.9685149 -0.26664001
3.2150891 3.9226301 -0.20482901
3.9377871 4.8043709 -0.25087199
3.1815619 3.8909271 -0.13833401
3.156476 3.8694179 -0.065594003
3.2336709 3.9734559 0.012279
3.0513771 3.7583721 0.093304001
3.126585 3.860152 0.185829
4.0933042 5.0536861 0.243286
3.876678 4.7976089 0.34928101
3.1124721 3.861032 0.38160801
3.2432079 4.0327821 0.50820798
3.2730479 4.0795741 0.629327
3.0661981 3.830868 0.70336998
3.286458 4.11584 0.880144
3.3143411 4.160656 1.018402
3.2739091 4.1197152 1.138828
4.4298711 5.574317 1.540929
3.2739489 4.1295972 1.275058
4.3330612 5.4655089 1.687536
4.2562528 5.3813329 1.837981
4.1942792 5.3156471 1.9918031
4.1375489 5.2563019 2.145366
4.0722489 5.185719 2.2903061
4.0254331 5.13837 2.4413121
3.9875009 5.1021552 2.5946929
3.9699061 5.0918121 2.758213
6.3659291 8.2041893 4.973774
5.4632349 7.0577269 4.499064
4.6166492 5.9783812 3.991035
5.797966 7.508141 5.012269
4.4440489 5.7687178 4.0180602
4.2712111 5.557694 4.0233722
5.3308339 6.9531851 5.2128172
5.0430861 6.6095872 5.2580619
5.7143769 7.5074749 6.1201491
3.0776031 4.06285 3.4397399
3.8528841 5.0863271 4.3062482
3.7522199 5.0502391 4.3077331
4.8658638 6.597014 5.3174438
3.844285 5.224668 4.1024318
3.9119279 5.329566 4.0632682
3.92361 5.3585081 3.951412
3.5891011 4.9136219 3.492697
3.5830359 4.9173088 3.3571601
3.5839131 4.9305248 3.2206719
3.625304 4.9996781 3.1131091
3.590121 4.9632692 2.9339831
3.6629381 5.076335 2.8375759
3.705827 5.1483722 2.709892
3.7119219 5.1694851 2.5500591
3.803185 5.3095822 2.442714
3.8728321 5.4201112 2.313931
3.976651 5.5790882 2.197283
3.8614621 5.4308071 1.960196
4.1655021 5.8728542 1.9288059
3.057873 4.3218541 1.280938
3.7809391 5.343801 1.583829
3.3077061 4.6864839 1.241416
4.082078 5.7836428 1.532045
3.001802 4.2635779 0.99828202
2.896174 4.1237092 0.842071
3.047219 4.3495011 0.76126301
3.0842359 4.4132428 0.64784402
2.8941031 4.1514349 0.49696901
2.9373169 4.2238669 0.39587799
3.236836 4.6661358 0.321578
3.246273 4.691359 0.21341699
2.899435 4.2005501 0.098371997
2.89452 4.2038579 0.012234
3.0490389 4.4392972 -0.070743002
2.888747 4.2164111 -0.140673
3.1706841 4.6394649 -0.226943
3.160804 4.6365519 -0.291318
3.3820679 4.9735332 -0.371831
3.299387 4.8762522 -0.453035
3.313884 4.9470429 -0.51909798
3.1144111 4.6962919 -0.395585
2.743947 4.1586022 -0.258656
2.7938571 4.2449541 -0.20523299
2.9399109 4.4781771 -0.147441
3.191376 4.8735552 -0.076522
2.8797431 4.4088178 0.012622
2.8882821 4.433136 0.101975
2.90398 4.4685621 0.19936199
2.916815 4.4997358 0.30365601
3.135566 4.8495388 0.44436601
2.6160519 4.056365 0.474002
3.501194 5.4288378 0.634381
2.94888 4.5841112 0.65584803
2.825731 4.403914 0.75005299
2.846101 4.4470091 0.88228703
2.831594 4.4356732 1.007496
4.0798731 6.4075022 1.64394
3.7163651 5.8515892 1.677189
3.367141 5.3426352 2.0253479
3.2391219 5.1527572 2.114104
3.3276551 5.3072581 2.342875
4.7877541 7.7153769 4.3491368
3.259145 5.2656841 3.1216619
3.208451 5.1972499 3.227212
3.209785 5.212956 3.377934
3.1198909 5.0801601 3.4220071
3.1238279 5.0998521 3.5582139
2.9847529 4.8855252 3.5187061
2.9869759 4.9019451 3.6304519
2.9763789 4.897356 3.7174759
3.048697 5.0426869 3.9767621
2.846406 4.8084269 3.8258319
3.0053871 5.1040039 3.9258151
2.986233 5.0849652 3.8252289
2.844758 4.8569641 3.559895
2.9659369 5.0773802 3.6140051
3.037812 5.2143092 3.5904269
2.9497759 5.076736 3.370234
4.6786842 8.0522881 5.3455791
2.960552 5.1089439 3.258122
3.1495409 5.4642978 3.1792779
4.630435 8.0551739 4.4502192
3.501287 6.156898 2.6490459
3.1409259 5.5531969 2.0461149
3.6726351 6.5108891 2.1989419
3.19116 5.7036681 1.41444
2.5760889 4.6169162 1.012197
3.2365019 5.8005209 1.271686
2.6338949 4.7334218 0.90519702
2.490905 4.4887071 0.73586398
3.1503761 5.6770978 0.93068397
2.5931051 4.6857028 0.64437902
2.778028 5.033638 0.56459999
2.645102 4.8059611 0.42211699
2.706974 4.9319391 0.318582
2.7118399 4.9544311 0.21128701
3.5778821 6.5366578 0.27876201
2.701721 4.949595 0.108681
2.7194159 4.9957919 0.013633
2.8073659 5.171649 -0.077297002
3.141737 5.8036971 -0.181639
2.4140639 4.4718642 -0.20523299
2.7133939 5.0403371 -0.29717699
3.00579 5.5990682 -0.39287201
2.429481 4.5508599 -0.396952
2.8634729 5.4243188 -0.53473097
2.8752551 5.5084548 -0.43620101
2.964546 5.7118292 -0.33409101
2.9420331 5.6845808 -0.25849801
2.6199369 5.0766549 -0.157235
2.9986019 5.8103938 -0.179961
2.646369 5.14253 -0.075970002
2.596334 5.0597262 0.013631
2.5448911 4.9736991 0.107679
2.5273671 4.9536209 0.20803399
2.537452 4.987679 0.31688601
2.5557499 5.0381279 0.434699
2.626951 5.1934171 0.57153898
2.645072 5.2443471 0.706738
2.652463 5.2742381 0.84625697
2.7482419 5.480526 1.024528
2.8563721 5.712698 1.222797
