# .PCD v0.7 - Point Cloud Data file format
VERSION 0.7
FIELDS x y z
SIZE 4 4 4
TYPE F F F
COUNT 1 1 1
WIDTH 1547
HEIGHT 1
VIEWPOINT 0 0 0 1 0 0 0
POINTS 1547
DATA ascii
2.900156 -8.3480787 1.691946
2.9065399 -8.3353739 1.475148
2.919821 -8.3424492 1.266974
2.9263749 -8.3302536 1.062377
2.925478 -8.2970333 0.86395401
2.939491 -8.3061609 0.67798001
2.9484069 -8.300808 0.49881899
2.9589851 -8.3001728 0.32964
2.9606791 -8.2746468 0.16938099
2.973484 -8.2802629 0.021088
2.9892421 -8.2940054 -0.115807
2.9887781 -8.2627373 -0.24183699
3.006561 -8.2819738 -0.35582799
3.0104251 -8.2628412 -0.45654899
3.0203431 -8.2603397 -0.54373902
3.031426 -8.2316246 -0.67498797
3.0756159 -8.2339993 -0.766271
3.116019 -8.2259493 -0.61750197
3.1353159 -8.21947 -0.456705
3.160054 -8.2556658 -0.35699901
3.162729 -8.2341471 -0.242772
3.183969 -8.2608805 -0.116293
3.195581 -8.2625484 0.021234
3.2135949 -8.2806377 0.17119201
3.2225931 -8.2754631 0.33221999
3.2437739 -8.3014784 0.50469899
3.251895 -8.2939434 0.68549901
3.2652941 -8.2998877 0.87587798
3.279464 -8.3077192 1.074682
3.295681 -8.3206024 1.282866
3.3138101 -8.3382215 1.499377
3.3276091 -8.34484 1.719963
3.343863 -8.3574848 1.948107
9.7366037 -24.092987 7.6440878
3.651078 -9.0044727 3.1162021
3.614851 -8.8856058 3.3320999
3.8216591 -9.3629236 3.7823
3.7739401 -9.215498 3.9902329
3.7283471 -9.0742302 4.1909442
3.7058101 -8.98979 4.4076772
3.6578021 -8.8442497 4.5841322
3.6139419 -8.7096682 4.7533879
3.564872 -8.5634203 4.901083
3.5359261 -8.4662399 5.0625529
3.4783461 -8.3013659 5.1663642
2.4791169 -5.8974528 3.8062
4.3442502 -10.169288 7.4629321
2.2595749 -5.0451608 3.1730969
11.059076 -24.240038 11.382097
10.945753 -23.918365 10.539824
4.2729192 -9.1683311 2.44735
4.295392 -9.1887836 2.195163
4.33213 -9.2394714 1.953692
4.3419042 -9.2325239 1.704909
4.3374519 -9.1954308 1.457396
4.265975 -9.0168228 1.200237
4.2379861 -8.930933 0.97077602
4.2638779 -8.9587326 0.76344699
4.2912102 -8.9893198 0.564062
4.3175659 -9.0176916 0.37401301
3.958015 -8.2422142 0.176222
4.3705201 -9.0743132 0.024141001
4.199831 -8.6685429 -0.265113
4.0604749 -8.3317451 -0.48117599
4.0941329 -8.3761654 -0.57638103
4.3036408 -8.7534227 -0.75055802
4.3316178 -8.7082891 -0.84790999
4.4552479 -8.8538542 -0.69579297
4.3264809 -8.548625 -0.497403
4.24189 -8.357482 -0.37850699
4.2816029 -8.3875685 -0.123701
7.4191589 -14.28817 1.581017
7.4523311 -14.311563 1.9414999
4.6964259 -8.9683533 1.691723
4.7029181 -8.9555359 1.936581
4.6994128 -8.9237423 2.182683
4.6981468 -8.896369 2.434181
4.734395 -8.9400845 2.710006
4.7276821 -8.9024773 2.9651279
4.7032471 -8.8317366 3.2090411
4.690568 -8.7834082 3.458756
4.6768351 -8.7333498 3.7052319
4.673131 -8.7021809 3.9578741
3.519026 -6.4451928 4.051878
4.9365358 -8.4953613 5.4215069
4.9691911 -8.5288172 5.2154889
4.571414 -7.8252311 4.5683842
8.7623301 -14.30594 0.94997799
5.337853 -8.6026783 -0.278649
5.338613 -8.5817146 -0.40816599
5.2299638 -8.3854084 -0.51306099
5.491272 -8.7816887 -0.64030701
5.6215 -8.9438257 -0.81285501
5.4824581 -8.6335669 -0.89159501
5.4742432 -8.5330381 -0.711689
5.5179682 -8.5575123 -0.52861398
5.4836121 -8.4826574 -0.407924
9.4419975 -14.349413 1.321743
9.4943037 -14.392597 1.6932141
6.2982478 -9.1506739 5.8695269
6.364017 -9.2005186 6.4213662
5.5915751 -8.0240669 6.185452
5.3182359 -7.428267 6.2551098
6.6934042 -9.2131166 6.7753839
5.4692359 -7.50982 5.3326359
6.6931281 -9.145751 5.9881878
6.6115918 -8.9254284 4.4507022
6.9701948 -9.0322151 0.027346
6.6113811 -8.50599 -0.43508101
6.6704922 -8.5615702 -0.56345397
6.6170688 -8.4727278 -0.66461802
6.7626901 -8.6179848 -0.84292901
6.962049 -8.7878942 -0.97740197
6.8443751 -8.5576286 -0.769252
6.8211489 -8.4882011 -0.56532103
6.869698 -8.5283804 -0.44226399
11.718777 -14.37705 0.69385898
11.770317 -14.4062 1.05344
10.298358 -12.051442 8.3758945
5.3183689 -6.1083179 5.4658799
6.4420509 -7.2620692 6.6466198
7.2450409 -8.0915403 6.869101
6.9795032 -7.7048159 5.4929881
9.1087532 -9.5548954 0.031640999
9.158411 -9.5847673 -0.17413799
8.4507942 -8.8033266 -0.492825
8.3076077 -8.63416 -0.62203902
8.4147816 -8.7253008 -0.74940002
8.400465 -8.6702328 -0.92893302
8.8694696 -9.1542997 -0.98079598
8.4773521 -8.6689329 -1.057043
8.5763407 -8.6893578 -0.85706598
8.5919323 -8.6649504 -0.633497
9.4668608 -9.503253 -0.36919299
9.4499531 -9.4424706 0.032019999
13.67685 -13.508806 1.887799
7.932673 -7.567493 5.2511029
6.460659 -6.049705 5.7413812
6.5722728 -5.9707632 5.7598839
10.170207 -8.5723867 -0.69052702
10.353193 -8.7060804 -0.83627999
10.475689 -8.7676916 -1.051149
10.950784 -9.0792217 -1.240121
10.793867 -8.8649321 -0.980524
10.649382 -8.7049589 -0.71406502
11.269556 -8.0317173 5.1758342
12.969376 -8.7751245 -0.968081
12.807102 -7.1678562 3.931617
16.98823 -9.2765541 1.096068
17.065199 -9.2929335 0.72690499
8.263237 -3.8620319 6.1556182
8.1528673 -3.764437 6.283421
8.1453428 -3.7152071 6.1296921
8.2324972 -3.7319031 5.9909291
8.3339062 -3.766228 5.9323978
10.589479 -3.798418 5.3884711
10.459637 -3.7381599 5.599185
10.829847 -3.856312 6.0741472
8.0049391 -2.8399439 4.6866899
7.897367 -2.7914729 4.8079352
7.7818279 -2.7303331 5.0686131
7.7029319 -2.6926229 5.160779
7.7302861 -2.692116 5.3098249
7.9736309 -2.7561431 5.6935549
7.8709912 -2.6798289 5.8178968
8.0625982 -2.703383 5.82236
7.8046741 -2.596766 5.4517231
7.6370158 -2.5311501 5.2189431
7.6587362 -2.528496 5.100913
7.926424 -2.606668 5.128305
7.9358191 -2.5893769 4.7915068
8.0886879 -2.6288681 4.6929712
8.1797152 -2.647969 4.5427632
10.641279 -3.4311891 5.636096
10.439917 -3.352901 5.251967
11.7606 -3.7620139 5.5971231
12.12055 -3.8616469 5.43432
11.931205 -3.7860861 5.015687
16.089439 -4.135498 3.5952189
14.140569 -3.6171 3.531456
13.417449 -3.366051 4.8050489
13.257682 -3.309648 5.1106768
8.5637236 -2.1272969 3.5357151
8.5523949 -2.113966 3.763521
8.4950237 -2.089344 3.9655061
12.329311 -3.0172191 6.0796332
8.8583288 -2.156929 4.5958419
9.8537025 -2.3872039 5.3570409
10.909577 -2.6296091 6.1920738
10.834764 -2.5982981 6.3954792
9.1016397 -2.1715119 5.5671549
9.0051136 -2.126441 5.851912
6.666059 -1.565941 4.4418159
6.5550389 -1.523842 4.5417538
6.4264588 -1.462572 4.6116638
6.4197898 -1.4297841 4.5032048
6.6122861 -1.4565721 4.4876719
6.7298732 -1.474301 4.4690261
9.0712767 -1.976217 5.8716888
6.2614441 -1.3564759 3.9375999
9.1123991 -1.974105 5.7304649
6.3168788 -1.3608249 3.844548
9.2102613 -1.9841371 5.605504
9.5370779 -2.0429831 5.5984712
6.2538099 -1.3245 3.377641
8.8620682 -1.866165 4.5652332
8.70298 -1.822137 4.2588539
8.5565748 -1.7811379 3.9617901
8.8196926 -1.825236 3.8475909
8.6111326 -1.771673 3.522697
12.37813 -2.5018711 4.0500851
12.278048 -2.46684 3.6839039
9.3512802 -1.353181 2.7794371
9.0712862 -1.301912 2.9390759
9.1912298 -1.308249 3.2248039
9.2225695 -1.279977 3.9776249
9.2394772 -1.271404 4.2276711
6.5863581 -0.89074898 3.350328
6.3963151 -0.85749602 3.4098761
6.0312352 -0.80142403 3.3571601
6.071444 -0.79960299 3.515099
6.69484 -0.88170397 3.876018
5.9379072 -0.77500302 3.5628159
5.8045731 -0.75075501 3.597249
7.0232782 -0.90010101 4.478199
6.7047529 -0.851367 4.38413
6.3195462 -0.78756499 4.2978568
6.497539 -0.779136 4.5789852
6.188766 -0.71299601 4.2653618
6.3156199 -0.71276301 4.2125449
6.3282952 -0.70676202 4.1305289
6.3826451 -0.70533901 4.0612741
6.5271111 -0.713633 4.0355158
6.066329 -0.65613598 3.6303091
6.7020121 -0.72489101 4.0107241
6.1236162 -0.65514803 3.535012
6.356956 -0.672647 3.527216
6.0869722 -0.63694298 3.233752
6.7060661 -0.69385302 3.3984921
6.9308929 -0.70899302 3.3370161
12.367282 -1.221626 4.9796081
12.526951 -1.222731 4.7074699
6.6933212 -0.270955 1.7945091
11.831384 -0.45144999 3.7972219
12.219935 -0.45208499 4.2475662
12.315385 -0.44131601 4.6090322
11.399542 -0.39524299 4.5704679
11.024435 -0.36943799 4.7122579
10.736302 -0.34731901 4.8692532
10.632564 -0.331604 5.09516
6.7301311 -0.19427299 3.5575011
6.6166749 -0.18330801 3.652343
6.6947861 -0.17770299 3.844157
6.291328 -0.159683 3.7443309
6.16293 -0.14927299 3.788893
6.6487689 -0.153326 4.2061291
5.8444099 -0.127987 3.792033
5.9868188 -0.117214 4.0410929
5.646277 -0.08433 3.9512169
5.7615509 -0.059312999 3.9450359
6.9290419 -0.071332 4.7444382
5.9354219 -0.047327001 3.9341021
5.8381252 -0.039779998 3.7871349
6.3157539 -0.03571 3.9944589
6.155304 -0.027655 3.783133
6.2133961 -0.020710999 3.696779
6.7240138 -0.014615 3.8595901
6.866117 -0.0069510001 3.7885809
10.415492 0.001534 5.5032649
11.521558 0.055178002 4.9220409
6.2860279 0.037393998 2.518816
6.2874632 0.044693999 2.3516331
6.3675642 0.052657999 2.211885
6.4643841 0.060956001 2.0732939
11.926117 0.112457 3.8250129
6.5347538 0.069197997 1.922381
6.6268659 0.077869996 1.77536
6.4007668 0.082636997 1.548789
6.4295039 0.090465002 1.391595
6.4510751 0.098260999 1.235207
13.071243 0.639382 -0.171905
11.48298 0.66858298 1.648811
6.84688 0.41458699 1.313242
6.412076 0.395733 1.390326
6.1025209 0.38373199 1.479416
6.0758839 0.38907599 1.630972
5.7841358 0.37713501 1.705083
6.0409708 0.400933 1.941671
6.292048 0.42493299 2.190556
6.0597858 0.41631401 2.2717619
6.5440211 0.45722401 2.62854
6.1339211 0.43572599 2.6270001
6.3308511 0.45710099 2.8772111
6.3034658 0.46248901 3.0272889
6.4444909 0.48035699 3.257601
6.6476002 0.50325602 3.522464
6.354434 0.488491 3.516588
6.3819962 0.49806201 3.674401
6.7174802 0.53210002 4.0091901
6.0115919 0.483208 3.7066851
5.9698081 0.48682401 3.7881351
6.3518181 0.52540803 4.1343389
6.739048 0.604743 4.7343512
7.9050288 0.74640101 5.4365001
7.949811 0.769265 5.2937179
8.88235 0.85950297 5.9146891
7.9930372 0.78281403 5.209691
7.1959052 0.71317899 4.5733428
5.9830799 0.60000002 3.695689
6.2629228 0.63540697 3.7453539
6.3196402 0.64857298 3.646523
6.6317372 0.688393 3.6789141
6.5897398 0.69176602 3.5009739
8.352808 0.87684602 4.4376502
6.5461402 0.69488198 3.3183689
6.6331501 0.71190602 3.195328
6.1491222 0.66717798 2.8037219
7.5834041 0.822797 3.45769
6.09444 0.66841298 2.619143
6.0384388 0.66936499 2.4343841
6.0344491 0.67601401 2.2710619
6.0561018 0.68556798 2.1170571
5.860836 0.67035401 1.891893
5.8305302 0.67374498 1.72653
5.914865 0.690458 1.595263
5.9016552 0.69586003 1.4377919
6.0026412 0.71483302 1.308256
6.2467179 0.75126398 1.2045569
6.1195598 0.74317801 1.0301321
7.988893 0.97960597 1.153742
9.1102381 1.127856 1.104548
8.1303349 1.016126 0.80463099
6.6139112 0.84221298 0.37754899
7.4722729 0.96033198 0.28182799
7.0922661 0.91987401 0.13783599
6.9487171 0.90945798 0.016797001
7.0977559 0.93734598 -0.094043002
7.516695 1.001562 -0.208711
8.3926067 1.128189 -0.341988
8.2067595 1.1226211 -0.51208502
7.0026412 1.040879 -0.49698499
7.7298269 1.167328 -0.40584499
6.9956651 1.064765 -0.285777
6.963882 1.068199 -0.19391
6.747273 1.043002 -0.089683004
6.681407 1.0407619 0.016208
6.8784909 1.079652 0.134194
6.5953588 1.043057 0.249791
6.280582 1.000749 0.360136
6.0888128 0.97745001 0.47451699
7.9706011 1.28903 0.79290301
6.858459 1.117341 0.83611602
8.4968853 1.384264 1.035857
6.6306248 1.088137 0.96317798
7.8760648 1.292523 1.144093
6.63764 1.097201 1.124244
6.273149 1.044433 1.217532
6.2124338 1.041747 1.363252
6.1585808 1.040067 1.511163
5.9916749 1.018971 1.628125
6.2068362 1.062977 1.852394
5.9605608 1.027932 1.939839
6.0272541 1.046639 2.1249321
6.217649 1.0871381 2.3607409
6.5410738 1.151525 2.6612711
5.9517779 1.054906 2.5822151
6.4100251 1.143802 2.951525
6.2057428 1.114794 3.0199461
6.310895 1.141247 3.2328441
5.9603648 1.085004 3.20105
6.8276272 1.242877 3.6668191
6.20508 1.137004 3.4808371
6.096499 1.124423 3.558409
6.9084558 1.274179 4.0323329
6.599134 1.2250611 3.99334
6.7591519 1.262884 4.2261128
7.1165738 1.3382159 4.5797572
7.5606618 1.430823 4.9914651
7.1191568 1.364397 4.8919368
6.8996868 1.355599 4.9201021
6.8570428 1.3803281 4.7890692
7.60567 1.549419 5.1445532
6.5577102 1.34386 4.342226
6.4498491 1.329559 4.1649709
6.7203922 1.393473 4.2182589
6.221364 1.297533 3.781146
7.088737 1.478433 4.3083072
6.9177728 1.451157 4.0572238
7.7937412 1.6349109 4.5709729
6.1082501 1.288756 3.4446039
7.305912 1.541446 4.119998
6.2126422 1.318315 3.355684
5.932303 1.266035 3.0577431
5.9257202 1.271823 2.90288
6.044198 1.304593 2.802896
6.0229201 1.307328 2.6328931
5.7134809 1.247108 2.3432579
5.6437449 1.2387511 2.1610639
5.7172499 1.261852 2.0337131
5.9002352 1.309422 1.9383121
5.9466038 1.326957 1.792284
5.5372438 1.242368 1.5202219
5.6935239 1.284375 1.412159
5.691349 1.2908289 1.262991
6.1524649 1.402933 1.20813
5.6731281 1.30056 0.97260898
5.5705361 1.283849 0.81943899
6.216301 1.44029 0.767784
5.938705 1.383237 0.59880602
5.4655852 1.279729 0.43193701
5.2965488 1.246646 0.30812299
5.8502831 1.384147 0.224894
5.6561651 1.345163 0.112054
5.3716359 1.284085 0.013238
5.5699759 1.338335 -0.075248003
5.8621821 1.415754 -0.165984
4.9850588 1.210049 -0.20716999
5.314755 1.296612 -0.284008
5.2075071 1.276862 -0.331476
5.3229771 1.318282 -0.42196301
5.601161 1.414829 -0.50363898
5.2938018 1.363378 -0.38374999
5.1331658 1.33473 -0.27535
4.9951291 1.30503 -0.208501
5.3864031 1.4139349 -0.153273
5.4056668 1.42571 -0.073435001
5.2584982 1.393425 0.013039
5.3776498 1.43169 0.107255
5.1955972 1.3896821 0.201193
5.0032101 1.344449 0.293367
5.1402431 1.3876801 0.409688
5.5565748 1.506996 0.565382
5.1718149 1.4090919 0.64497697
5.8975821 1.614198 0.876481
6.2149801 1.708828 1.077106
5.6395788 1.557663 1.120129
5.8240638 1.615906 1.308045
5.5951662 1.559394 1.405339
5.585732 1.563693 1.553861
5.6067882 1.576607 1.713267
5.5926371 1.579645 1.8637969
5.5053272 1.561886 1.987776
5.6082258 1.598115 2.1810319
5.565134 1.592832 2.319453
5.6775789 1.632148 2.52368
6.0501032 1.746843 2.8545041
6.160408 1.7864521 3.0722151
5.6704478 1.6515059 2.977169
5.6542792 1.653919 3.1127551
5.5586681 1.6329679 3.1967659
5.9309731 1.7498209 3.549449
5.877501 1.741474 3.647182
5.816432 1.730726 3.7297239
5.865202 1.752651 3.87152
5.7325249 1.720265 3.8823709
7.4425731 2.2522769 5.247715
7.8608432 2.418777 5.7548342
6.8095222 2.129957 4.8851099
7.2443562 2.2844579 5.0346122
5.8098798 1.839523 3.9531181
5.8676128 1.865299 3.89397
5.7689581 1.8413219 3.7218699
5.8622031 1.878584 3.6625209
5.9732299 1.9218121 3.6017201
5.9571538 1.924283 3.4542661
5.3742809 1.742895 2.985218
5.5454121 1.805519 2.9398079
6.144021 2.0004189 3.2571509
5.8807378 1.922249 2.963357
5.4718642 1.795633 2.6105039
5.5235348 1.819703 2.484395
6.1717768 2.0412071 2.6047349
5.400178 1.792971 2.128135
5.428967 1.809538 1.987776
5.5969052 1.872735 1.892809
5.5502052 1.864275 1.722297
5.54494 1.869682 1.567575
5.2937188 1.791819 1.352192
5.2433972 1.781572 1.198477
5.2818761 1.801497 1.068419
5.6894078 1.9478689 1.004914
5.5335379 1.901683 0.83873701
4.9452891 1.705952 0.62944603
4.9626489 1.718389 0.51573402
5.1261592 1.781673 0.41758999
4.9641581 1.731836 0.29771999
4.921349 1.723312 0.19506299
5.3048282 1.864519 0.108373
4.993371 1.761564 0.012691
4.9098458 1.7385091 -0.068418004
5.6836958 2.0125189 -0.079200998
4.861176 1.7276371 -0.141993
4.7271752 1.686196 -0.202691
5.6601028 2.0263829 -0.31210801
5.3342671 1.916728 -0.35041901
5.0167289 1.8157901 -0.410532
5.3229551 1.954645 -0.49434599
4.9656549 1.849659 -0.371986
5.1987529 1.95025 -0.28826001
4.859798 1.829532 -0.209712
4.8120999 1.817956 -0.14158
4.9394822 1.872643 -0.069389999
5.756464 2.1900201 0.014762
4.636663 1.770169 0.095655002
4.6695528 1.788938 0.18706299
4.887857 1.879081 0.29653299
5.4353528 2.0968139 0.44827899
4.9885392 1.9311 0.52531201
4.8744488 1.8934439 0.62920702
4.7867179 1.8657711 0.736431
4.8077669 1.880407 0.86267298
5.2232432 2.049901 1.074249
5.1981301 2.0470209 1.209053
5.2428808 2.071676 1.36395
5.3005538 2.1015191 1.527467
5.1550121 2.0507431 1.631992
5.1992469 2.0753429 1.7953891
5.416719 2.1694419 2.026823
5.3240161 2.139488 2.1460011
5.285111 2.1309919 2.2833741
5.4098558 2.1885941 2.4930379
5.2171249 2.1176729 2.5522909
5.313159 2.163851 2.7478011
5.0993938 2.0836959 2.776861
5.0189562 2.0576291 2.8660891
5.63412 2.317482 3.3615079
5.1773462 2.136627 3.2149141
7.7523909 3.199316 4.8139081
5.9472432 2.4624469 3.82972
5.8637948 2.435873 3.902518
8.1753244 3.3961029 5.4409051
6.009232 2.5044711 4.1173978
8.4506655 3.5335231 5.9416499
7.3297572 3.084841 5.3668671
6.9920788 2.98104 5.3185492
8.2424192 3.5821869 5.956676
8.2954435 3.62815 5.7262998
8.3227959 3.651643 5.5859461
5.5532408 2.444186 3.6098559
5.6314769 2.4864271 3.5335181
5.5277901 2.448328 3.3359029
5.205977 2.313025 3.0099781
4.8643608 2.1680181 2.6845839
5.2298789 2.338207 2.7439129
5.3087211 2.3808539 2.6373401
5.1098542 2.298804 2.393646
5.1916189 2.3428371 2.282258
5.4720941 2.477057 2.2465401
5.4127159 2.457763 2.0648849
5.1188459 2.331495 1.8039401
5.0837469 2.3226371 1.6441261
5.2643342 2.4125431 1.551273
5.0196409 2.3074591 1.336671
4.7609029 2.1952181 1.134598
5.0178928 2.3207901 1.058454
4.6704988 2.1667039 0.86036599
4.6318712 2.1553209 0.73231602
4.7790408 2.2305641 0.634583
5.1402898 2.4064431 0.55736798
4.7778668 2.2435379 0.40615901
4.919003 2.316793 0.30789599
4.768044 2.252459 0.19726799
4.7859411 2.2677209 0.102072
4.6640558 2.2166021 0.012377
4.5374341 2.162884 -0.066027001
4.8699799 2.328351 -0.148569
5.0381351 2.415935 -0.225651
4.7464628 2.2828491 -0.27343199
4.991055 2.407635 -0.342583
5.314837 2.579051 -0.45457
5.1892791 2.547977 -0.503986
5.3459692 2.6558001 -0.41904399
4.6194448 2.3082681 -0.26809201
4.7415948 2.3761859 -0.214191
4.1960731 2.108902 -0.129255
4.3002071 2.1675041 -0.063256003
4.785326 2.4189949 0.012852
4.7504249 2.408289 0.10265
5.0311289 2.557941 0.211137
4.5282011 2.3088601 0.287826
4.5930858 2.3486741 0.396952
4.3764362 2.244302 0.48299301
4.8843179 2.5119159 0.66086501
4.7225761 2.4356799 0.76168799
4.8560929 2.511682 0.91360301
4.8780351 2.5302119 1.05206
4.8573909 2.5266731 1.18494
4.7706699 2.4886031 1.301867
5.1071968 2.6716299 1.544028
5.1763291 2.715451 1.719475
5.7819529 3.0417311 2.0952821
7.5837049 3.989584 2.7482071
5.5042539 2.9038031 2.1616819
5.123951 2.710779 2.1680701
5.1143451 2.71331 2.3198249
4.9482651 2.6325641 2.3944321
6.476892 3.4554729 3.3276391
5.1522899 2.756485 2.798774
5.1980782 2.7887471 2.973568
7.819068 4.2065921 4.6913242
7.726521 4.1683898 4.8441858
7.3244929 3.962482 4.780057
8.5435562 4.6476722 5.977612
8.3795176 4.5710492 6.0368552
5.1080418 2.7941589 3.7767949
4.9452729 2.720057 3.8089421
4.8356118 2.6890781 3.871527
4.8456101 2.724179 3.8060579
4.9386611 2.791611 3.760076
5.012002 2.840749 3.7370679
5.0971832 2.8968511 3.707957
7.317502 4.1925039 4.8407912
7.4561572 4.2949829 4.5465012
5.1652999 2.9993899 2.707526
5.2180781 3.0381529 2.5794649
7.149086 4.173574 3.3170111
5.3527908 3.133249 2.3197551
5.0648918 2.9726369 2.039948
4.9888682 2.9358079 1.856467
4.8542151 2.8641601 1.6579551
4.66887 2.762121 1.453203
4.6111159 2.735184 1.297164
5.5875092 3.314352 1.571835
4.1640449 2.476532 1.048509
4.7787948 2.849674 1.065223
4.065989 2.4310191 0.79163599
3.982734 2.387521 0.66562599
3.970571 2.386507 0.55741102
4.4426942 2.6773009 0.509381
3.9878221 2.4094961 0.35851499
4.4523821 2.697258 0.29477999
4.0646472 2.468821 0.17790399
4.3840852 2.6698251 0.098931
4.164999 2.5430379 0.011697
4.2017798 2.5721951 -0.064714
5.1526589 3.154294 -0.079359002
4.199264 2.5773699 -0.13561
5.185822 3.1828871 -0.16746999
4.1595492 2.5596459 -0.19724301
4.4016929 2.7157021 -0.268507
4.8416982 2.994946 -0.351962
4.535027 2.8198249 -0.410916
4.2380462 2.6625481 -0.436331
4.9454398 3.139096 -0.411201
4.3197818 2.756062 -0.266018
4.3988371 2.813688 -0.21088199
4.7778268 3.0639279 -0.15621699
4.1255031 2.6523769 -0.064424999
4.2118602 2.714813 0.012011
4.4346619 2.8657241 0.101763
4.3519001 2.8194079 0.193979
4.036582 2.6217849 0.27256101
4.0138831 2.6136799 0.36856601
4.062613 2.6521311 0.47644499
4.2924242 2.8092661 0.61726099
5.0184889 3.2844541 0.72167099
3.946156 2.5892 0.676552
4.4975538 2.958463 0.899593
5.3495998 3.518934 1.0700181
4.006978 2.6424339 0.91893101
4.807838 3.178592 1.2473381
4.9711428 3.294857 1.442965
4.7475471 3.154525 1.52695
4.7282948 3.149658 1.671218
5.3119488 3.5473759 2.048558
4.674428 3.1294911 1.953979
4.6755571 3.1381199 2.106065
5.0952749 3.4284301 2.4607921
5.052722 3.4168799 2.7649131
9.215414 6.2788219 5.8919511
5.0682068 3.461808 3.3866301
4.9497609 3.3893449 3.443413
4.9008479 3.3642321 3.5367391
4.891026 3.3658569 3.649087
7.7080679 5.3309131 6.0793338
7.6898942 5.3448019 6.3200812
7.5209212 5.279398 6.4296131
8.8200951 6.2527761 7.4025211
7.6280069 5.447742 6.0804219
4.8532681 3.491708 3.5571909
4.9133978 3.5436389 3.4772649
4.9532819 3.581172 3.3726201
5.0156841 3.635169 3.272995
4.432941 3.2602141 2.058073
4.962719 3.6587451 2.1416659
5.1039991 3.772063 2.0354259
6.4640441 4.7771921 2.5777991
4.7284541 3.503021 1.731046
4.8630562 3.61151 1.622691
4.3410249 3.2316589 1.309392
4.6747651 3.48856 1.262356
5.541101 4.135066 1.496298
4.2287912 3.1634159 1.0110691
4.1049209 3.078197 0.85739899
4.321074 3.248136 0.77488399
5.2974901 3.982105 0.94998199
3.87029 2.9163361 0.58309501
3.8793221 2.9302139 0.47742301
3.8624129 2.9244959 0.372785
4.269814 3.2407889 0.303543
4.1816158 3.1815109 0.196558
3.8859119 2.9636731 0.094190001
3.9530859 3.022176 0.011927
4.115911 3.1542411 -0.068116002
4.1585999 3.1946411 -0.14433201
4.5109062 3.473624 -0.229929
4.731359 3.652149 -0.310294
3.9840119 3.0826731 -0.31142199
4.666038 3.6103981 -0.36473501
3.9223101 3.0495269 -0.38229901
4.0176721 3.1537549 -0.44527599
3.814399 3.0229559 -0.34166399
3.9756539 3.1658311 -0.26383999
4.6928191 3.736912 -0.311434
4.062326 3.242568 -0.209914
4.7581229 3.797956 -0.245868
4.1461859 3.3173981 -0.146148
4.9204731 3.9369121 -0.17343999
3.709836 2.9753571 -0.062468
3.792417 3.048835 0.011663
4.0116038 3.2327361 0.099297002
3.879076 3.1333799 0.18653899
4.1241221 3.3392439 0.30048999
3.6494 2.961904 0.36166099
3.88241 3.1585071 0.491496
4.0556879 3.3073139 0.62968498
3.9447351 3.224483 0.73032999
3.990906 3.2699659 0.86217898
4.0241709 3.305043 0.996966
4.4715719 3.6812119 1.253472
4.1059289 3.3882079 1.287992
5.3836722 4.453022 1.8716201
4.7310529 3.9224751 1.8078049
8.9689837 7.4537148 3.740114
4.2023029 3.508868 2.047564
9.2410173 7.734376 4.828598
5.030921 4.2206268 2.8053551
4.894237 4.1156459 2.898679
4.8595462 4.0961261 3.044136
4.811533 4.065218 3.1752269
4.8512301 4.108418 3.358954
6.6100302 5.6375909 5.1688442
4.8202448 4.1402059 4.1218219
5.2859831 4.6046252 4.9051962
5.8153911 5.113492 5.302042
5.3085551 4.6897402 4.6948462
4.7395039 4.2165122 3.8988521
4.5104189 4.0220938 3.59554
4.5639019 4.0793061 3.5136061
4.6378789 4.1551361 3.4359081
4.6437469 4.1701198 3.297755
4.669776 4.2033091 3.167125
4.7061501 4.2459478 3.035929
4.7510419 4.296464 2.9036341
4.6958642 4.2564979 2.707535
4.719944 4.2883148 2.5552671
4.8253899 4.3943539 2.4409621
4.9654088 4.5324349 2.335259
5.0484891 4.6190228 2.1945341
5.1402612 4.7139611 2.051631
4.2334552 3.8914289 1.540405
4.002224 3.687459 1.316682
4.319643 3.989193 1.272509
4.2626262 3.9457281 1.112044
3.7807989 3.507879 0.86184901
3.8584881 3.5883031 0.75530303
3.8396831 3.5791459 0.63159698
3.5705431 3.3360231 0.479866
3.7493789 3.511272 0.39526501
3.729248 3.5005641 0.289635
3.683418 3.465596 0.18919399
3.3677759 3.176008 0.089218996
3.7396891 3.5349531 0.012334
3.8013251 3.601579 -0.068786003
3.699621 3.5133879 -0.140425
3.7178121 3.5388801 -0.20729101
3.5751691 3.411021 -0.25652999
3.52231 3.368418 -0.301303
3.549638 3.410363 -0.37876999
3.4178121 3.314383 -0.41505301
3.6435809 3.5663061 -0.35791001
3.4371071 3.3798809 -0.25025699
3.631413 3.579252 -0.205919
3.6437719 3.599781 -0.140975
4.359869 4.3072319 -0.16868
3.561784 3.5269721 -0.065843001
3.4642971 3.438411 0.011699
3.615602 3.5969379 0.098295003
3.6562729 3.645853 0.193156
3.348629 3.3468461 0.26809499
3.314863 3.3208079 0.361047
3.7269621 3.7423241 0.51866603
3.400234 3.4221849 0.58046699
3.6851001 3.7175219 0.750337
3.894346 3.9377401 0.92546999
3.876811 3.929121 1.056761
3.6366961 3.694345 1.121906
3.6470039 3.713428 1.259302
3.6607499 3.7360129 1.4011919
4.8039322 4.902698 1.838757
3.8809559 3.969945 1.6331199
4.7454028 4.8542132 1.996883
4.6799521 4.7983961 2.149642
4.5877051 4.7147398 2.2850561
4.5382042 4.6747031 2.436758
4.503201 4.649437 2.5935769
4.5044451 4.6615272 2.769213
7.4567132 7.7167482 4.584188
4.991179 5.213429 3.8135109
4.3036981 4.5267868 3.7162089
4.2389441 4.4690428 3.7857511
4.1976571 4.4358048 3.862433
4.154809 4.4007511 3.9259081
4.111393 4.3750491 4.0517211
4.1086369 4.4129858 4.2189498
4.07166 4.4141622 4.1116958
4.1535349 4.5239468 4.0705609
4.1837349 4.567461 4.017879
4.6700149 5.1102271 4.3782439
5.4385638 5.9512219 5.0987749
5.5585618 6.096734 5.0707068
5.637569 6.1978111 4.9847722
5.1359911 5.6860199 4.0484972
5.0620451 5.6172562 3.811713
8.0922194 8.9797821 6.0934291
5.3316689 5.9999142 2.78807
5.2784371 5.9539018 2.551841
5.3128901 6.0067821 2.358952
5.1474142 5.8333292 2.0840621
5.5291009 6.2805429 2.0245259
4.0117469 4.5676389 1.315659
3.504364 3.9993069 1.018026
3.382123 3.8688431 0.85871798
3.3820119 3.8777821 0.73756599
3.3348069 3.832633 0.61128801
4.9569168 5.6968942 0.90863001
3.245683 3.7389519 0.48621899
3.3811469 3.90414 0.39741299
3.4444921 3.9866271 0.29834199
3.196996 3.708863 0.183175
3.1526051 3.6659639 0.093188003
3.3787811 3.9381981 0.012437
4.3131709 5.0272942 0.015876999
3.2328351 3.776943 -0.065305002
3.198941 3.7461419 -0.135583
3.292341 3.864584 -0.20503099
3.608191 4.245296 -0.28924501
3.39855 4.00806 -0.32487401
3.652576 4.3279538 -0.43577299
3.622391 4.3328319 -0.492349
3.731106 4.505188 -0.41064101
3.590755 4.3562589 -0.29308099
3.135108 3.812474 -0.199341
3.345715 4.0782151 -0.14518499
3.1354959 3.8310361 -0.065029003
3.088938 3.783092 0.011706
3.230474 3.965826 0.098583996
3.2481649 3.9970009 0.19267
3.524174 4.346931 0.31688601
4.0768499 5.028635 0.36658099
3.0986669 3.8311701 0.37915301
3.339118 4.138268 0.52218401
3.320138 4.1245232 0.63709199
3.0730419 3.8266499 0.70351201
3.1815269 3.971163 0.85031199
3.27144 4.093111 1.003171
4.4054308 5.525064 1.529295
4.3328872 5.4470291 1.684008
4.275826 5.3880081 1.842638
4.210083 5.3178301 1.99519
4.1803422 5.2928929 2.163079
4.1268821 5.2376919 2.3162279
4.1038399 5.2209029 2.4837
4.0502272 5.1650419 2.630028
4.7255511 6.026247 3.068552
4.491807 5.7556329 3.309474
4.4135351 5.66891 3.441123
4.803741 6.1849022 3.9476531
5.464324 7.0354142 4.4905109
4.854917 6.2657909 4.1881809
5.8524361 7.5531969 5.0487089
4.8603969 6.2879448 4.3852272
5.6148672 7.2814631 5.2778759
4.0064888 5.2081952 3.9094851
5.2630358 6.8416309 5.1356091
5.02701 6.5505309 5.0748959
3.9030311 5.0981522 4.060739
5.0368981 6.5792131 5.2404218
4.9531121 6.485374 5.293499
3.718873 4.9403019 4.3267312
5.3242912 7.0730052 6.1945581
2.9748211 3.99031 3.4077699
3.773762 5.0619779 4.3229861
3.783947 5.1003232 4.2092299
3.8899429 5.2687092 4.1419859
3.95345 5.3677711 4.0973029
5.3566918 7.308485 5.2012119
4.1646628 5.6959958 3.8934169
4.5868649 6.2734408 4.2881212
3.6982329 5.0704031 3.315974
3.636075 4.9973731 3.11536
3.6321111 5.0041242 2.9616289
3.6445 5.0334721 2.8169329
3.657676 5.0640502 2.668643
3.6883271 5.1189928 2.528115
3.7686479 5.2432919 2.4150391
3.8073521 5.3101521 2.269634
3.88658 5.4339609 2.1426179
3.961689 5.5525818 2.0064781
4.0680871 5.7157469 1.879382
4.2032132 5.920135 1.7566741
3.2424691 4.578196 1.214129
3.8819251 5.4810739 1.453571
3.000813 4.2474489 0.99564999
3.182441 4.5156441 0.923163
2.727525 3.8797081 0.67981499
3.0156071 4.3000979 0.63195503
2.9174089 4.170362 0.49980301
2.924798 4.1912732 0.39326999
3.048789 4.3797941 0.30218601
2.988883 4.3043799 0.196035
2.9893949 4.3158169 0.101185
3.1418221 4.547143 0.013248
3.1595449 4.5841632 -0.073132999
2.970937 4.3212519 -0.14433201
2.7329259 3.9849629 -0.195145
2.7759061 4.057724 -0.255234
3.0211101 4.4271879 -0.33135301
3.3566179 4.9434562 -0.45978701
3.315273 4.9317141 -0.51805598
3.3215771 4.9910021 -0.420865
2.9089611 4.3930969 -0.273536
2.9736869 4.5021892 -0.217904
2.8003681 4.2505031 -0.140095
2.9626341 4.508193 -0.070860997
2.90995 4.4392438 0.012723
3.352371 5.1271629 0.118066
3.2912021 5.0463881 0.22538
2.8882129 4.4397402 0.299925
2.8238001 4.3517828 0.39917701
2.7454109 4.2417512 0.496187
3.0785861 4.7686429 0.68296498
2.7439411 4.261148 0.72649902
2.71209 4.222445 0.83860999
2.748749 4.290462 0.97553003
2.8219559 4.4160218 1.1341749
2.707701 4.248086 1.218854
3.7164941 5.830771 1.672956
3.590409 5.648478 1.792956
3.4941771 5.5111909 1.919559
3.4934199 5.5241709 2.096199
3.957581 6.258152 2.3747151
3.2757649 5.1933131 2.132807
3.800391 6.0250421 2.4743841
3.4494431 5.511075 2.777463
3.3796909 5.4135818 2.892899
3.100132 4.9786458 2.8091409
3.268683 5.2629218 3.1230121
4.6165791 7.433176 4.4108381
3.184814 5.1411762 3.1954441
3.118892 5.0478449 3.274065
3.0945301 5.0214291 3.3856659
3.0633149 4.9837241 3.480495
3.095623 5.0494032 3.6401861
2.965472 4.84972 3.5951741
2.97611 4.8798399 3.7076809
2.9202321 4.8132958 3.799433
2.8361909 4.7240829 3.8554749
2.8265209 4.757865 3.7891099
3.007854 5.0899682 3.918633
2.885139 4.8952579 3.6859119
2.8163869 4.7912989 3.5149961
3.018703 5.1491609 3.6684611
2.9687741 5.0774822 3.499413
3.019778 5.1784868 3.4409239
2.948765 5.0702291 3.236382
5.849597 10.084934 6.1601071
3.117888 5.3897719 3.138767
4.5475588 7.8822632 4.3586402
5.9977469 10.423774 5.4513831
3.5146241 6.1743588 2.4678209
3.3603051 5.9192119 2.182929
3.5765791 6.317234 2.1354451
4.1989689 7.4771271 1.855884
2.5574911 4.5665512 1.002043
2.5105829 4.4950132 0.86036599
2.5486071 4.5755482 0.75076199
2.76736 4.9818792 0.68571299
2.5434501 4.5913239 0.515441
2.5823519 4.6743279 0.410916
2.7461381 4.9844632 0.32225701
2.7149179 4.9413462 0.210913
2.6375451 4.8137579 0.105791
2.655458 4.8598161 0.013274
2.6314189 4.8291221 -0.072240002
2.7171569 5.000277 -0.15662999
2.593065 4.7851338 -0.2198
2.449403 4.532567 -0.26747
2.4669149 4.577672 -0.32148001
2.9972301 5.5617399 -0.390589
2.4395981 4.5522332 -0.39741299
2.3837709 4.498086 -0.4438
2.9234841 5.5789189 -0.44215301
2.317539 4.4476628 -0.26036701
2.841563 5.468802 -0.24889401
2.605144 5.0280371 -0.15586001
2.644124 5.1178122 -0.075668
2.5005569 4.853725 0.013087
3.311331 6.445858 0.139667
2.4852741 4.851686 0.203922
2.604121 5.0982561 0.32417899
2.6222939 5.1485848 0.44459599
2.597975 5.1154962 0.56342697
2.665699 5.263958 0.70996398
2.594552 5.1382599 0.82511503
2.723886 5.409977 1.012166
2.688518 5.3551831 1.1472059
2.4005909 4.7955499 1.160615
2.8726599 5.7385788 1.388846
3.2757609 6.6203241 2.368912
3.094388 6.3462749 3.200479
3.5377369 7.2985692 4.0885439
4.6798449 9.6834574 5.6826591
2.3826289 4.9447708 3.0286429
4.5581231 9.4596653 5.7939882
4.4245272 9.2097549 5.8648038
2.426434 5.0809112 3.4605851
4.1106629 8.6334372 6.0475459
2.245003 4.7292452 3.3958499
2.2199211 4.8498821 3.535223
2.1600571 4.7336221 3.37517
4.00248 8.7711687 6.254024
2.2915809 5.0373359 3.5000291
3.0233431 6.6664538 4.4989181
2.847568 6.2983141 4.1124749
2.908005 6.4519472 4.062202
3.043365 6.773293 4.097291
2.89744 6.509141 3.412612
2.926923 6.5959911 3.2710781
3.7934351 8.5756254 4.0059099
3.070338 6.9847798 2.8536279
2.444989 5.5797729 2.1160719
4.171803 9.5507488 3.3424959
3.1355541 7.2011991 2.3104129
2.672251 6.196104 1.46034
3.361587 7.8194599 1.629518
2.4451921 5.7060761 1.037384
2.3567591 5.517406 0.860021
2.3278 5.4672089 0.71498102
2.312223 5.4481759 0.58121502
2.513706 5.9421082 0.49645901
2.1606719 5.1241808 0.31490701
2.196928 5.2271209 0.212109
2.5095251 5.9903779 0.125176
2.2991879 5.5062342 0.014302
2.430531 5.8398538 -0.083089001
2.6107099 6.2933998 -0.187527
2.4117489 5.832922 -0.25490701
2.4687619 5.99051 -0.33637199
2.268142 5.5219278 -0.36905399
2.5072131 6.144547 -0.51065201
2.486963 6.1768832 -0.58050102
2.4710629 6.2207041 -0.46988401
2.4355021 6.1729789 -0.34451199
2.435102 6.1930318 -0.26874799
2.2976699 5.863503 -0.17332999
2.1645739 5.5428252 -0.078163996
2.239553 5.7545471 0.014801
2.3022239 5.9360032 0.12271
2.134912 5.5236359 0.22153001
2.236026 5.805295 0.35227701
2.2137561 5.7674718 0.47536099
2.2428019 5.8635001 0.61649603
2.3523009 6.171247 0.79466301
2.2049201 5.8048749 0.89010298
2.30305 6.0845098 1.08716
2.385772 6.325243 1.29425
2.4060161 6.4014578 1.480011
3.794224 10.130652 2.6173739
2.8334091 7.6187959 2.3911231
3.502403 9.4512424 3.2325561
3.958354 10.719765 3.969317
3.659903 9.9469986 3.9641111
3.5256059 9.6164474 4.1040478
3.706989 10.147583 4.6152239
3.095031 8.5029802 4.1017489
2.720418 7.5008931 3.8216939
2.5393381 7.1042881 4.3305259
3.5336201 9.9223204 6.2666292
2.6147201 7.3690991 4.805757
2.5653789 7.2567339 4.8678632
1.9077441 5.4164748 3.725095
1.823229 5.2150912 3.728389
1.845045 5.5019002 3.7642779
2.4770041 7.4149079 4.9442992
2.3986909 7.264514 4.3912601
2.5358911 7.7100892 4.4784679
3.4030049 10.427933 5.5294151
2.344996 7.2141991 3.633352
3.291852 10.207649 4.581831
3.0968299 9.6411715 4.0575552
2.9536741 9.2322464 3.625361
3.319994 10.418918 3.7983651
3.3010831 10.401252 3.4997721
3.2455211 10.309106 2.8952789
2.9533069 9.419035 2.388324
2.7711649 8.8741589 2.011986
2.097122 6.7431688 1.351977
1.8988431 6.1306772 1.072491
1.891263 6.1313529 0.91975898
1.940498 6.3170052 0.79514098
1.958756 6.4028821 0.657543
1.797159 5.8990908 0.47451699
1.741424 5.740046 0.33967
1.7516479 5.7979398 0.226576
1.9030811 6.3257031 0.127315
2.141747 7.1490541 0.017888
1.918606 6.4313388 -0.088159002
1.846531 6.2160792 -0.17847501
1.901154 6.4272552 -0.27068499
2.1157 7.1525731 -0.30123201
1.850089 6.2813892 -0.33994901
2.0193069 6.9450121 -0.55653101
1.972802 6.9044499 -0.62601
1.986189 7.0754218 -0.51589203
1.794486 6.4500098 -0.34757099
1.78102 6.4304771 -0.269474
1.74006 6.3110318 -0.180181
2.068028 7.5346751 -0.102633
1.856783 6.7958879 0.016886
1.696627 6.2381959 0.124598
1.6511821 6.099021 0.23637
1.680295 6.2352152 0.36567599
1.738032 6.5095601 0.66164798
1.733749 6.5238638 0.81222397
1.664583 6.2930331 0.933097
1.648314 6.2608848 1.081885
1.639606 6.2572708 1.238404
2.7539971 10.56015 2.361841
2.602994 10.028746 2.5068469
1.824101 7.0640421 1.954423
1.838625 7.154552 2.1729791
2.2063501 8.5854626 2.607574
2.4858379 9.7198257 3.217592
2.387032 9.3787813 3.3616309
2.525768 10.070389 4.435297
1.96295 8.0233765 4.5576992
2.327383 9.6095228 5.8826342
2.1116891 9.1348314 6.5603271
2.1587329 9.8037128 6.1697788
2.1276989 9.7164116 5.9179149
2.0658901 9.7587547 4.521626
2.0992351 9.9734144 4.3539772
2.108072 10.073341 4.1237612
2.0584559 9.893466 3.7794981
2.055841 9.938755 3.5253651
1.988052 9.6675386 3.16537
1.553918 7.6010861 2.282192
1.46086 7.1884189 1.965032
1.723061 8.4786243 2.317724
1.97967 9.8584137 2.176126
1.823355 9.246604 1.350975
1.762464 8.9928198 1.102636
1.333246 6.8448181 0.684811
1.307672 6.7552562 0.52944899
1.391927 7.235527 0.41723701
1.329805 6.9560761 0.26493099
1.3574851 7.1458521 0.140187
1.305483 6.9158421 0.016868999
1.3122849 6.9963789 -0.093505003
1.287846 6.910358 -0.193469
1.283457 6.9314299 -0.28468701
1.141368 6.5005269 -0.57537699
1.370304 8.0227861 -0.57135397
1.233771 7.32583 -0.38567701
1.212413 7.2503362 -0.296873
1.434065 8.5758362 -0.35114801
1.182793 7.1755419 -0.095527001
1.1968549 7.3136959 0.017763
1.152072 7.0916958 0.13847201
1.21358 7.5254431 0.285155
1.162737 7.263742 0.41655901
1.255376 7.9012432 0.61560601
1.2465481 7.9048219 0.78586602
1.377046 8.7986574 1.071576
1.567381 10.169246 1.719413
1.500438 9.8872852 2.1642809
1.527171 10.142722 2.481684
1.088237 7.402082 2.399451
1.422868 9.7568922 3.4249589
1.037019 7.169313 2.7093
1.427314 10.116194 4.6310339
1.7571011 12.559085 6.074018
1.376304 10.006523 5.3369532
0.928783 8.0677614 5.2679219
1.041249 10.072981 4.3260851
1.24696 12.201474 4.9145179
1.19883 11.866692 4.4608512
0.99355698 9.9504213 3.4735219
0.74313998 7.6214199 2.2525611
0.89252198 9.2649202 2.493423
0.95686799 10.055138 2.4438231
1.061394 11.581205 1.943405
0.76182598 8.6437531 0.85212898
0.77702498 8.9347649 0.69010198
0.69700998 8.1240921 0.46173099
0.73688602 8.8296595 0.17076799
0.498896 8.8122501 0.170113
0.491846 8.8701601 0.33233199
0.482685 8.8916426 0.50424701
0.48588699 9.147027 0.70483202
0.476509 9.1714535 0.90187401
0.50111502 9.8660269 1.1886491
0.42727599 9.5009842 2.3010781
0.406165 9.7890444 3.1421599
0.38645199 10.169114 4.0776401
0.37406701 10.153792 4.34062
0.065825 8.4485693 5.1927099
-0.026525 9.9712753 3.99544
-0.041574001 10.880794 4.0695548
-0.147525 12.343915 2.3634219
-0.15651201 11.936447 1.9948291
-0.196045 10.361543 0.58684599
-0.20972601 5.959693 -0.51988
-0.62204403 13.62363 -0.179142
-0.67054999 9.8924456 4.2357292
-1.202086 11.053607 4.1585331
-1.65941 12.886476 -0.17067
-0.87355202 6.429749 -0.49929801
-0.80224299 5.7060251 -0.50233603
-0.990955 6.8184099 -0.48368001
-2.1000669 13.774794 0.033397999
-1.4501441 5.9394598 -0.470451
-1.31394 5.2752061 -0.473937
-1.1659369 -4.239563 1.177881
-0.93349397 -3.4097459 1.0399261
-1.3277611 -4.871974 1.6194839
-1.134505 -4.181881 1.505105
-1.093004 -4.0473852 1.567989
-1.059311 -3.940712 1.6350729
-0.96102202 -3.5915999 1.5883
-0.91161299 -3.4227631 1.605607
-0.98706001 -3.7233369 1.84497
-0.95458502 -3.6176901 1.8860511
-0.831671 -3.1666811 1.729931
-0.99664599 -3.8127761 2.1744969
-0.93664199 -3.617357 2.223181
-0.833206 -3.535821 2.1613121
-0.79998499 -3.43032 1.943568
-0.814843 -3.5123539 1.90512
-0.79602402 -3.486052 1.620882
-0.96402299 -4.2443728 1.859368
-0.98655701 -4.366919 1.7938941
-1.047472 -4.6868992 1.668183
-1.212631 -5.4554758 1.792335
-1.183057 -5.351583 1.612237
-1.159025 -5.2717748 1.4459569
-1.2379709 -5.662014 1.402282
-0.837093 -3.8498371 0.85263997
-1.2239701 -5.6291089 1.246704
-0.67253298 -3.110327 0.609236
-0.70847499 -3.294961 0.56319398
-0.80304003 -3.755852 0.55054998
-0.86612099 -4.0739069 0.50114399
-0.76961702 -3.6406429 0.365421
-0.67864102 -3.2286961 0.253869
-0.73464102 -3.5153029 0.203361
-0.747302 -3.5966139 0.137419
-0.65958601 -3.1929801 0.062839001
-0.74594402 -3.6321831 0.0088879997
-0.796296 -3.900197 -0.052289002
-0.794936 -3.9166291 -0.109996
-1.1011389 -5.4252849 -0.152365
-0.76418197 -3.787528 -0.15604299
-0.748016 -3.729605 -0.19747899
-0.73548198 -3.68922 -0.232564
-0.69595402 -3.533468 -0.27711499
-0.70857102 -3.687294 -0.327335
-0.706231 -3.7689669 -0.26918599
-0.64598101 -3.4919701 -0.18436199
-0.67931801 -3.696027 -0.151766
-0.73909098 -4.0475149 -0.113242
-0.73444903 -4.0485659 -0.054049
-0.73001403 -4.0507331 0.0098660002
-0.73330301 -4.0961051 0.080201
-0.65996498 -3.711138 0.14100701
-0.60403001 -3.419498 0.196633
-0.72694302 -4.1432772 0.32368401
-0.653512 -3.7501731 0.373826
-0.650343 -3.7576311 0.45885399
-0.58857203 -3.4242711 0.49804899
-0.67064202 -3.9289069 0.66604197
-0.52164203 -3.077414 0.59757799
-0.56374002 -3.3492601 0.735035
-0.95908701 -5.7385321 1.407691
-0.92666602 -5.5840492 1.51634
-0.87542099 -5.3132191 1.584017
-1.2623661 -7.6617131 2.2841671
-3.8143699 -23.318659 7.5779538
-2.7786739 -23.387182 9.437005
-2.7187331 -23.342829 8.1630707
-2.690846 -23.337784 7.5342832
-0.87300301 -7.6491599 2.2646949
-0.64750201 -5.7321472 1.5453219
-0.867926 -7.683495 2.071383
-0.65588999 -5.8671122 1.428385
-0.85954601 -7.6888719 1.871904
-0.63296199 -5.7218261 1.245858
-0.396458 -3.62219 0.697613
-0.65794897 -6.0112729 1.1577359
-0.83737099 -7.6505332 1.473449
-0.428873 -3.960608 0.665712
-0.69496799 -6.4179702 1.0787539
-0.40927899 -3.820863 0.55083299
-0.61012399 -5.6958618 0.82114202
-0.42887601 -4.0479832 0.489795
-0.410283 -3.9156251 0.38662899
-0.55288601 -5.2765918 0.52101099
-0.39449 -3.807302 0.29453
-0.39082 -3.8148899 0.21715599
-0.553518 -5.4030199 0.30755699
-0.411838 -4.066339 0.152895
-0.50014699 -4.9382648 0.18568
-0.37736899 -3.769454 0.073013
-0.38539401 -3.894969 0.009381
-0.363253 -3.7149611 -0.049031001
-0.38596299 -3.994879 -0.110464
-0.378622 -3.966723 -0.160926
-0.35828301 -3.8000071 -0.198153
-0.48380399 -5.1313019 -0.267573
-0.37636399 -4.0417652 -0.25095201
-0.36205199 -3.987762 -0.30811
-0.416861 -4.8396559 -0.42347699
-0.29570401 -3.6290121 -0.25560001
-0.29764801 -3.7601581 -0.19582
-0.287714 -3.688781 -0.149425
-0.389644 -5.0711269 -0.139985
-0.28709099 -3.7938249 -0.049977001
-0.28429601 -3.815412 0.0091700004
-0.332495 -4.5329781 0.0876
-0.26140201 -3.621038 0.135811
-0.37551799 -5.2018151 0.19509999
-0.28861001 -4.0632372 0.23066799
-0.25149399 -3.5995581 0.277652
-0.27232799 -3.9635451 0.39014801
-0.262297 -3.8830791 0.468292
-0.36279899 -5.3709321 0.64772397
-0.35605401 -5.3632522 0.770486
-0.50732797 -7.6418939 1.097836
-0.36889201 -5.655396 0.94706202
-0.489508 -7.6402888 1.465739
-0.481033 -7.6465149 1.658112
-0.334984 -5.4248438 1.3150361
-0.47444201 -7.6832552 1.862498
-0.33109099 -5.4639668 1.4664
-0.46645999 -7.6979561 2.065949
-0.45627499 -7.6766348 2.2621551
-1.363368 -23.394621 7.5156541
-1.334812 -23.369011 8.1305866
-1.259288 -23.474947 10.042865
-1.229795 -23.430742 10.635647
-1.20574 -23.491138 11.266372
-1.178642 -23.492865 11.857362
-1.042248 -23.483139 14.447117
-0.47126701 -26.483269 12.68671
-0.34795401 -26.409842 9.8783998
-0.256001 -26.363728 7.755559
-0.014504 -5.2146769 0.74749899
-0.0087649999 -5.3920999 0.648799
-0.0023439999 -4.9740729 0.48846599
0.003908 -5.721087 0.44022301
0.010311 -5.607008 0.31750801
0.013834 -7.5229349 0.42600101
0.016313 -5.4501629 0.203885
0.031252999 -7.532536 0.14517801
0.039953999 -7.5338721 0.018058
0.048652999 -7.534193 -0.098968998
0.057473999 -7.5489221 -0.207776
0.046560999 -5.3104668 -0.21447399
0.074520998 -7.5105162 -0.38992801
0.100845 -7.5330548 -0.57970101
0.172507 -7.6232829 -0.53529
0.18940701 -7.594408 -0.39438701
0.253622 -7.6785049 0.43504599
0.26333499 -7.7027168 0.59305
0.17565399 -4.969975 0.48836899
0.272392 -7.7070909 0.75732797
0.185158 -5.0730071 0.61080998
0.281739 -7.7191458 0.929416
0.18713801 -4.9696441 0.71287698
0.77214998 -7.6037731 1.095565
0.78246701 -7.6176839 0.92141199
0.78976601 -7.6023211 0.75058502
0.79929602 -7.6085162 0.58867699
0.80961198 -7.6218419 0.43402901
0.81798202 -7.6168461 0.28657499
0.826895 -7.6168242 0.147664
0.83770102 -7.6341548 0.018408
0.84821397 -7.6484461 -0.101083
0.85770202 -7.653172 -0.21195801
0.866952 -7.6557879 -0.311158
0.87555897 -7.6527028 -0.39988199
0.88620698 -7.6672192 -0.47716001
0.90005898 -7.6323948 -0.591362
0.982669 -7.7185502 -0.54621398
1.005993 -7.7585158 -0.406156
1.009403 -7.7149038 -0.31422499
1.024255 -7.7587209 -0.215397
1.0301 -7.7340288 -0.102489
1.044315 -7.772131 0.018796001
1.058082 -7.8061552 0.15182599
1.064116 -7.7830982 0.293865
1.072686 -7.7788081 0.44465801
1.087091 -7.8164392 0.60724401
1.100181 -7.844121 0.777852
1.10896 -7.840848 0.95283097
1.110533 -6.8750682 3.84269
1.020151 -6.2695112 3.6460249
1.037078 -6.1060891 4.1798239
1.394614 -8.2111874 5.6208329
1.174221 -6.7250161 4.7767758
1.49941 -8.2493811 5.5572438
1.282648 -6.9652982 4.4792681
1.929268 -10.147065 5.4574828
2.1989341 -11.492908 5.8985219
4.5888791 -23.687477 10.937034
4.6915631 -23.631702 8.3688049
4.7137089 -23.600462 7.7184329
4.7405481 -23.59289 7.0788312
4.7659369 -23.577978 6.4439292
1.6392241 -7.829545 0.96250701
1.653441 -7.8522062 0.78801602
1.667444 -7.8735819 0.61928898
1.677363 -7.8754539 0.45596501
1.693633 -7.9069948 0.30250001
1.700496 -7.8944302 0.155642
1.712257 -7.9046531 0.019386001
1.711455 -7.857069 -0.105628
1.7682379 -7.9409809 -0.50295299
1.780995 -7.9120531 -0.62404501
1.813817 -7.887434 -0.70556402
1.849755 -7.8768091 -0.56799299
1.868889 -7.8764129 -0.42025799
1.87968 -7.8813462 -0.32721901
1.88588 -7.867053 -0.22266001
1.89694 -7.8729982 -0.106377
1.914667 -7.9064469 0.019499
1.922042 -7.8969522 0.156644
1.9318351 -7.8974681 0.30414501
1.942546 -7.90169 0.46077001
1.9574209 -7.9226508 0.627958
1.972777 -7.9453688 0.80394697
1.970978 -7.8990922 0.97959
6.2232771 -23.994471 7.9499192
2.3665719 -8.9959583 3.727267
1.4004689 -5.2010989 2.8460009
2.348912 -8.6833868 4.9635148
1.981402 -7.291326 4.336998
2.142534 -7.8127751 4.979074
2.739702 -9.3110771 6.1384139
2.845757 -9.6303167 6.171874
2.4367831 -8.1422167 4.689589
2.292625 -7.6283998 4.2087369
1.665668 -5.5190911 2.906049
2.626729 -8.7035112 4.582788
3.2898841 -10.855436 5.4329648
7.2754412 -23.80769 10.634893
7.296525 -23.778267 9.9662838
7.4149532 -24.064938 9.4180918
2.641124 -8.3648767 1.898399
2.6501441 -8.3597155 1.678972
2.658515 -8.3525763 1.464765
2.6666491 -8.3447313 1.255764
2.670959 -8.3249588 1.051984
2.6836381 -8.3313427 0.85955602
2.681376 -8.2914534 0.67053801
2.6909139 -8.2881527 0.49344799
2.7044809 -8.2972584 0.32646301
2.712683 -8.2898293 0.168109
2.7190199 -8.2768011 0.020881999
2.727109 -8.2691631 -0.114375
2.734941 -8.2607365 -0.239498
2.7489669 -8.2710342 -0.35199499
2.7466359 -8.2321997 -0.450535
2.7685671 -8.266036 -0.53892702
2.776159 -8.225482 -0.668006
2.8228371 -8.2377396 -0.75915003
2.863415 -8.2317486 -0.61183
2.880712 -8.2201157 -0.45219401
2.89573 -8.2324543 -0.35243899
2.9164989 -8.2609682 -0.24112099
2.923913 -8.2515173 -0.114993
2.945091 -8.2808523 0.021066001
2.954138 -8.2759228 0.16936199
2.9712851 -8.2936554 0.32956499
2.983593 -8.2977753 0.49932799
2.9952509 -8.2999983 0.67897701
3.0121801 -8.3167763 0.86864501
3.022728 -8.3158512 1.064647
3.040287 -8.3340864 1.271656
3.059304 -8.3561907 1.487016
3.067534 -8.348752 1.702852
3.091953 -8.3852043 1.934146
3.552891 -9.5334272 2.992784
3.3144801 -8.8003254 3.5171151
3.7088881 -9.7789116 4.4679041
2.6284249 -6.8346872 3.8691039
2.197773 -5.6562142 3.610368
3.444972 -8.8660221 5.6591911
3.9275739 -10.073562 6.6452241
2.0852239 -5.3119211 3.701694
3.456162 -8.8042631 6.1353869
3.4528179 -8.7363415 6.3396602
3.5013511 -8.7406721 6.588419
3.091553 -7.6154842 5.6274519
3.1938159 -7.8154912 5.5959172
3.2421091 -7.9075661 5.5438342
2.2004609 -5.349349 3.658247
3.2926531 -8.0044842 5.4740071
2.257221 -5.4693422 3.6365199
3.3476429 -8.1114779 5.3932552
2.4269841 -5.8614702 3.7744989
3.402775 -8.2181273 5.2920699
3.454556 -8.3159904 5.1688528
3.516432 -8.4373741 5.0437121
3.568356 -8.5341825 4.8875351
3.6362729 -8.6684217 4.738534
3.738694 -8.8837938 4.6165299
3.7941411 -8.9864922 4.4217138
3.8262579 -9.0333815 4.1909442
3.8702509 -9.1079292 3.965313
3.9113939 -9.1752882 3.730454
3.9558811 -9.2499638 3.4945221
3.9661591 -9.244441 3.2261429
3.8950961 -9.0499344 2.898246
3.9431009 -9.1323614 2.664722
3.9747901 -9.1766062 2.419601
3.6266699 -8.346447 1.96947
3.9892981 -9.1810017 2.1663959
3.6400111 -8.3507061 1.744032
4.0073481 -9.1934299 1.9200341
3.9998219 -9.147296 1.668319
4.0089502 -9.1393919 1.430578
4.0227299 -9.1420431 1.20179
4.0272608 -9.1237288 0.97937602
4.0161991 -9.0702877 0.76329303
4.0122752 -9.0331821 0.55970901
