# .PCD v0.7 - Point Cloud Data file format
VERSION 0.7
FIELDS x y z
SIZE 4 4 4
TYPE F F F
COUNT 1 1 1
WIDTH 1551
HEIGHT 1
VIEWPOINT 0 0 0 1 0 0 0
POINTS 1551
DATA ascii
5.67241 1.120337 1.106967
6.4574528 1.2831711 1.100181
6.0385661 1.207214 0.88272399
7.2251568 1.453161 0.88676798
6.3082118 1.276353 0.63203502
7.4641161 1.5102299 0.74784797
5.360908 1.091156 0.420966
5.6045632 1.147529 0.323953
5.5838141 1.1500289 0.213268
5.832056 1.208218 0.11479
5.8297601 1.214794 0.014273
5.885601 1.233554 -0.078991003
5.8853788 1.240643 -0.165544
6.9231701 1.459411 -0.19473501
5.9605451 1.2637089 -0.24607
5.883636 1.254535 -0.312316
6.076983 1.303141 -0.38423401
6.4865971 1.4067219 -0.51072901
10.629756 2.305232 -0.836945
5.738337 1.272367 -0.512411
5.4841208 1.242725 -0.39474499
5.5009489 1.259969 -0.29297799
5.5880909 1.28675 -0.231583
5.21312 1.206774 -0.147276
5.7858858 1.3464431 -0.078032002
5.6338792 1.317958 0.013868
5.6400738 1.326318 0.111668
5.13869 1.214703 0.19753
5.1617889 1.226485 0.30043399
5.7876291 1.382292 0.45786899
6.0482421 1.451951 0.61082703
6.1778669 1.490649 0.764678
5.8162289 1.410539 0.85789299
6.863843 1.6646039 1.0124151
7.1477199 1.742228 1.2294
5.3917508 1.320843 1.062778
5.3098378 1.307315 1.183459
5.2439842 1.297552 1.307041
5.3459702 1.329316 1.475715
5.1488209 1.286642 1.5611579
5.3085709 1.333119 1.755383
5.2601252 1.327445 1.8844171
5.14958 1.305908 1.9869601
5.4042382 1.377176 2.2346489
5.001277 1.280672 2.2054701
5.3391328 1.3737921 2.499032
5.5036101 1.422935 2.7227459
5.4068999 1.404629 2.8160219
5.2527909 1.371104 2.8684249
5.6844931 1.4908479 3.242662
6.7830281 1.787374 4.0263591
6.077106 1.608915 3.7402411
5.625783 1.496417 3.5778749
5.6142821 1.500337 3.6753509
6.4169049 1.7148269 4.2007828
5.7196021 1.535607 3.8415561
10.759693 3.0231509 7.6522279
5.6945548 1.614282 3.923053
6.585506 1.866847 4.5368419
5.4706502 1.557672 3.6897221
5.2289491 1.495416 3.4396291
5.144784 1.477816 3.289886
5.4431372 1.570359 3.370563
5.4687462 1.584625 3.2681811
5.747736 1.672709 3.303051
5.223506 1.526726 2.875433
5.2333989 1.5362231 2.749403
5.6454902 1.664309 2.819077
5.3106809 1.5723079 2.510592
4.9018211 1.457458 2.184649
5.0636392 1.511971 2.117487
4.8150969 1.4438469 1.880115
5.0001602 1.505676 1.81387
5.0230899 1.518942 1.683006
5.0791001 1.542316 1.56144
4.9319978 1.5039099 1.381267
4.964664 1.520172 1.256245
4.935441 1.5174921 1.1174639
5.4852571 1.693524 1.099069
5.0910578 1.578293 0.89069301
4.888309 1.52166 0.733877
5.2631269 1.645048 0.66349298
5.0582471 1.5874569 0.52061999
5.0581412 1.593876 0.408077
4.7347178 1.498013 0.28121099
4.2800918 1.359642 0.167998
4.9417682 1.57616 0.099970996
5.2360692 1.676725 0.013178
4.888134 1.571565 -0.067446001
5.6506262 1.8167109 -0.077967003
4.713644 1.521513 -0.136326
4.5463309 1.473335 -0.19300599
4.8707862 1.584731 -0.26591399
4.2637429 1.39271 -0.2773
4.524066 1.489374 -0.366494
4.7183552 1.5776711 -0.433725
4.1117601 1.396109 -0.304829
4.1773291 1.429204 -0.22920799
5.1682549 1.774937 -0.220688
5.0465341 1.7396851 -0.146918
4.501698 1.557721 -0.062573001
4.6466808 1.6139309 0.01179
4.2870889 1.494621 0.087503999
4.5783782 1.602136 0.181455
4.4320359 1.556703 0.26600301
4.7495961 1.674446 0.38751599
4.7501469 1.680842 0.49481899
4.5001631 1.5982651 0.57461298
5.0835142 1.812103 0.77360702
4.9693451 1.777909 0.88195699
5.135818 1.844196 1.044727
4.8576221 1.750677 1.1174639
4.802165 1.736991 1.235551
4.805871 1.744586 1.3696229
4.828773 1.759246 1.511772
4.8159089 1.760903 1.644526
4.871254 1.787552 1.802386
4.7532258 1.7505029 1.894478
4.6764679 1.72841 1.99772
5.0637112 1.8782181 2.307219
4.8628259 1.81013 2.3520551
5.059021 1.889859 2.586674
4.8663239 1.824314 2.619765
5.2193079 1.963555 2.9464431
4.877068 1.841275 2.876462
4.89535 1.854672 3.0048349
5.2391052 1.9918751 3.3347709
5.4143181 2.065686 3.5616429
5.3324318 2.041538 3.6112089
5.3112822 2.0405221 3.69081
5.2313528 2.0237639 3.7854481
5.1845708 2.0334091 3.8967531
6.519424 2.5569429 4.9000359
5.2576079 2.090281 3.873852
5.2389522 2.096971 3.7401869
5.1483059 2.067625 3.598839
5.1698551 2.083251 3.525152
5.508338 2.227092 3.651705
5.3276749 2.1612461 3.420671
4.577961 1.863305 2.83707
5.3764338 2.1882961 3.331902
5.2719698 2.1529241 3.142174
4.8631191 1.99255 2.77686
4.8736372 2.0034781 2.6562259
4.8524499 2.0013559 2.514102
4.8963571 2.026118 2.4020109
4.7137032 1.956956 2.1803279
6.4870739 2.6931939 3.000602
4.7531881 1.97982 2.0631821
5.1895809 2.1686599 2.1036129
4.8105912 2.016856 1.811901
4.77843 2.009897 1.662544
4.7879748 2.0204561 1.528705
4.6663771 1.975536 1.357461
6.5183401 2.7595749 1.896202
4.6045551 1.955669 1.2103879
4.6953721 2.0006781 1.104562
4.655529 1.990097 0.96932501
4.8089042 2.0622661 0.874376
4.7483749 2.0428369 0.74097198
4.398284 1.898283 0.57640499
4.2568111 1.843088 0.455531
4.4765301 1.944394 0.37554699
4.5572 1.985732 0.28149399
4.1735129 1.824313 0.17038999
4.2989769 1.88511 0.090470999
4.509933 1.9838589 0.011809
4.481636 1.9776241 -0.064346001
4.1517029 1.837801 -0.124963
4.7367711 2.103368 -0.209309
4.138855 1.843616 -0.235222
3.916595 1.750071 -0.26520601
3.980278 1.789623 -0.33580601
4.7601552 2.1669171 -0.45595899
4.431107 2.0420251 -0.34250399
4.235579 1.96386 -0.242377
4.1494751 1.929792 -0.184815
4.617394 2.153929 -0.140232
4.1452851 1.939569 -0.060116999
4.2655869 2.0018959 0.011294
3.8979239 1.834878 0.083033003
4.116087 1.943414 0.170278
4.435863 2.100697 0.27793199
4.4832711 2.1295309 0.381915
4.813942 2.2934511 0.52364999
4.213038 2.0131719 0.561831
4.1133528 1.971414 0.65384901
4.8456688 2.329313 0.89844
4.540308 2.189018 0.96499997
4.420608 2.1376419 1.062681
4.6428738 2.251775 1.248485
4.6715021 2.2723019 1.391618
4.65944 2.2731259 1.525036
4.5614719 2.2319 1.628646
4.4640141 2.19064 1.727245
4.7228498 2.324465 1.968744
4.8801842 2.408951 2.180717
4.7181888 2.3358021 2.2490771
4.6613431 2.3144009 2.3590729
4.8778791 2.4289839 2.6099999
4.6670489 2.3307641 2.629668
4.5006089 2.254173 2.6596
4.6810799 2.351373 2.8904719
4.5249128 2.2795091 2.908258
4.8301549 2.4403241 3.2197261
4.996788 2.531796 3.4427819
7.8649058 3.9850271 5.4189129
7.771945 3.9492691 5.5135622
7.5757718 3.8606701 5.5155358
7.6693912 3.9308341 5.8160629
7.1154928 3.7308159 5.5009041
7.675344 4.0585108 5.6319962
4.9191108 2.608402 3.52141
5.0481372 2.68434 3.513994
4.6310611 2.469461 3.122577
4.476397 2.3936651 2.913734
4.3997879 2.3592801 2.7547171
4.3857751 2.358325 2.631103
4.560246 2.4589789 2.6116631
4.7822208 2.5858409 2.6039529
4.539793 2.46157 2.3409081
4.4814248 2.436667 2.1791489
4.8198352 2.6279211 2.199687
4.7591772 2.60202 2.0286469
5.509129 3.0203691 2.182353
4.3799849 2.407934 1.602993
4.4864011 2.473223 1.5069751
4.2133551 2.3290901 1.2896661
4.4315372 2.456419 1.225909
4.2739701 2.3755679 1.058239
3.9738469 2.214803 0.87098199
3.839149 2.1455741 0.73493701
4.0681081 2.279732 0.668464
4.3537092 2.446434 0.60089499
4.7739868 2.6898921 0.53811502
3.926353 2.218303 0.34700701
3.9725111 2.2504759 0.25854
3.9578359 2.248235 0.170278
4.0441289 2.3034749 0.089700997
4.1585512 2.3750451 0.011479
3.9593439 2.2673719 -0.059932999
4.0864468 2.3464711 -0.129695
4.5019102 2.5919859 -0.209793
4.2569389 2.4575269 -0.255182
4.0780649 2.3605869 -0.291307
3.9511249 2.2993701 -0.35176399
4.2728639 2.5132549 -0.43216199
4.0198531 2.3896351 -0.328289
4.1181979 2.461062 -0.249065
3.912677 2.344409 -0.184209
3.7205739 2.235178 -0.11946
3.9837289 2.3995769 -0.061089002
4.1610341 2.5129621 0.011651
3.9914329 2.4168711 0.089932002
4.0045152 2.43115 0.17524999
4.7135062 2.8615789 0.206277
4.0432849 2.4611139 0.268038
4.1822038 2.5523391 0.37700501
4.2190652 2.5815611 0.48572999
3.8903461 2.386636 0.54916799
4.2309599 2.6023681 0.71202499
4.0675011 2.5083389 0.798558
4.2646379 2.6367469 0.95992303
5.1835608 3.2049 1.166762
4.253253 2.6365459 1.082987
5.0532298 3.1324439 1.2866811
4.2794628 2.6596749 1.219089
4.6803432 2.91629 1.477267
4.3033328 2.6883171 1.492582
6.2421989 3.909632 2.3621941
5.0807338 3.190397 2.0839159
4.7415438 2.985085 2.095556
4.3550072 2.7488101 2.063554
4.4013901 2.7852359 2.2251129
4.414484 2.800703 2.369808
5.6762099 3.610446 3.222111
4.5445199 2.898031 2.7169931
7.1051879 4.542573 4.4558702
6.8501682 4.3907552 4.4895802
6.7526369 4.3393068 4.6073141
6.564868 4.229434 4.6462841
4.3837142 2.889493 3.673737
4.4354382 2.953228 3.648438
6.5798202 4.4697952 4.389092
4.4951248 3.061254 2.873564
4.4138212 3.0134001 2.694037
4.5161619 3.0909619 2.621232
4.5977082 3.1546171 2.5275199
4.27705 2.941921 2.217649
4.55762 3.1427081 2.2182839
4.233727 2.9266241 1.924955
4.5646062 3.1631961 1.929042
4.2261238 2.9359 1.650329
4.11025 2.8624811 1.473392
4.2325382 2.954957 1.38282
4.2522521 2.976068 1.255775
4.1540651 2.9145379 1.0982161
4.1252198 2.9014609 0.96556401
3.9805119 2.806592 0.81388599
3.867115 2.7333641 0.67882198
3.599236 2.5502999 0.53077102
3.673027 2.608995 0.442435
3.5468309 2.5255549 0.33503899
3.944427 2.815582 0.274427
3.782176 2.706398 0.173979
4.0108819 2.8771069 0.095135003
3.5357561 2.5425079 0.010438
3.487895 2.5142391 -0.056478001
4.3395901 3.128181 -0.070270002
4.0000629 2.8905051 -0.13583
3.4050641 2.4665711 -0.16980299
3.3737259 2.449846 -0.216454
3.373019 2.4553249 -0.257925
3.320339 2.4287901 -0.316549
3.2637899 2.4107831 -0.353737
4.3487821 3.2122059 -0.471331
3.360831 2.50667 -0.29432499
4.4435258 3.3141961 -0.38914299
3.381108 2.534039 -0.219357
3.388746 2.5459111 -0.171175
3.4303851 2.5834291 -0.118195
5.1926899 3.9106231 -0.17891499
3.437161 2.5947981 -0.056570001
3.620229 2.739603 0.010882
3.528759 2.6768401 0.085364997
3.475317 2.6426611 0.163325
3.6652441 2.793803 0.26097101
3.2870669 2.511586 0.31831399
4.034997 3.0904901 0.49911901
3.2933481 2.5285161 0.49959099
3.2900209 2.5320449 0.59510398
3.616534 2.790024 0.76328599
4.080534 3.155545 0.98756403
3.496177 2.710151 0.95734298
3.9541161 3.072489 1.2115639
4.1212192 3.209945 1.39938
4.0992422 3.200479 1.529833
4.0995889 3.208426 1.6695679
4.9072089 3.840487 1.998474
4.5552182 3.573545 2.0110731
4.2084451 3.309402 2.0023739
4.4281301 3.4988339 2.4109321
4.4301929 3.517211 2.7093551
7.930716 6.3264122 5.360311
4.4819908 3.5923979 3.2970541
4.3955631 3.531523 3.354712
4.2884068 3.453629 3.3841369
4.2390332 3.4219861 3.445508
4.2515669 3.440273 3.547684
8.7527666 7.2523332 7.7827311
4.2532592 3.549211 3.5933969
4.2371311 3.5441041 3.4936149
4.2448559 3.558959 3.4045579
4.2790809 3.5961201 3.325567
4.3572431 3.670445 3.2701721
4.4346519 3.7444739 3.202564
6.8609681 5.8068299 4.7492528
7.6400619 6.5120382 4.5505261
3.849582 3.2966771 2.030823
4.197443 3.60303 2.068933
3.717803 3.1988249 1.70362
5.6743188 4.8937001 2.403116
3.9793811 3.4399979 1.54733
5.40769 4.6747079 2.10271
4.0347972 3.496105 1.430173
4.044826 3.5130229 1.296223
3.703531 3.2241499 1.062681
3.4063561 2.9724081 0.865529
3.5026979 3.0636461 0.77762598
3.2266841 2.828846 0.61511201
3.2069199 2.8181181 0.51368803
3.4674649 3.054215 0.453771
3.2655251 2.88308 0.33519199
3.7450931 3.3142371 0.28319001
3.5771599 3.1730361 0.178876
3.3137889 2.9463069 0.085460998
3.285589 2.9280701 0.010549
3.2662539 2.917649 -0.057528999
3.358722 3.007273 -0.124082
3.3485601 3.0051849 -0.18170699
3.2987461 2.9674001 -0.23034801
3.2156119 2.899385 -0.267674
3.223258 2.919873 -0.33465499
3.133461 2.865145 -0.370152
3.1719141 2.92747 -0.303009
3.2132959 2.979516 -0.227497
3.3447449 3.108629 -0.184411
3.5751841 3.330543 -0.134482
3.2917111 3.073622 -0.059158001
3.296447 3.0852139 0.010822
3.334549 3.128154 0.088119999
3.332118 3.133152 0.17110001
3.7032931 3.4902711 0.288165
5.2058249 4.9063749 0.40508199
3.123107 2.950321 0.330589
3.081404 2.917701 0.416731
3.253588 3.087908 0.53973001
3.857785 3.6613381 0.63995898
3.2962589 3.1356969 0.65214598
3.250087 3.098968 0.75042999
3.4557409 3.302727 0.91517001
3.5000031 3.3528199 1.048932
3.457799 3.320097 1.1598279
4.128305 3.9822791 1.687304
7.9488831 7.7034459 3.8449581
3.9222341 3.8099661 2.0451109
3.6818991 3.584837 2.0590911
8.1457777 7.9494781 4.8623271
4.4183431 4.3218918 2.8016579
5.124783 5.0129108 3.249609
4.2728992 4.189352 2.8661621
4.219439 4.146554 2.982121
4.1586251 4.0962901 3.0842581
4.1669941 4.1140871 3.2310669
4.635148 4.5869341 3.7430999
6.474659 6.407311 5.2285919
6.1063442 6.0709691 5.2921972
4.5677562 4.5518489 4.0783792
5.9829831 5.9621472 5.3419809
6.142889 6.1357431 5.6319962
4.2103782 4.2250509 4.0254302
4.304143 4.3594661 4.2866001
4.6395078 4.743001 4.5427508
5.2268748 5.3434711 5.1178689
4.19419 4.307723 3.9849291
4.235692 4.3604631 3.9433219
5.8341141 6.0199351 5.3018918
4.8565869 5.022943 4.2941828
6.0101819 6.2160521 5.314189
5.746973 5.9715061 4.7571568
6.0640488 6.3156462 4.8311419
4.1278739 4.3091388 3.1529319
4.1176009 4.3084288 3.0041771
4.1362648 4.338028 2.870914
4.133121 4.3448172 2.71826
4.1736798 4.3976779 2.5900719
4.3182082 4.5605521 2.5165839
4.417449 4.6762228 2.405931
5.2504902 5.5710201 2.6591179
3.419312 3.6364999 1.6008559
5.1315761 5.4575248 2.4025049
4.242722 4.5227199 1.824173
3.432256 3.6673 1.345558
4.3041811 4.5989361 1.687382
3.5229709 3.7729969 1.248955
3.813344 4.093492 1.210745
3.6045899 3.8784299 1.013701
3.1633379 3.4115889 0.77746099
3.122375 3.3752611 0.65909898
3.1176651 3.378037 0.55311
3.303874 3.588146 0.478986
3.056911 3.3276761 0.347698
3.793483 4.1294899 0.43147701
2.8763821 3.1384721 0.241071
3.0796499 3.3680999 0.170727
3.113699 3.413296 0.089045003
3.1103029 3.4175329 0.011076
3.0724671 3.383841 -0.060038
2.9481781 3.254549 -0.120863
2.9042571 3.213552 -0.17492799
2.88026 3.1944461 -0.223298
2.9350059 3.2627809 -0.271314
3.66592 4.0753231 -0.33888099
3.0447471 3.4006231 -0.35122699
2.8611219 3.2255659 -0.375884
3.2634161 3.7137051 -0.347056
2.865237 3.275902 -0.225942
2.8859451 3.307317 -0.177269
2.9988799 3.444804 -0.125706
2.825932 3.253768 -0.056609999
3.1216531 3.602699 0.011426
3.2666249 3.778877 0.096271999
4.285974 4.9580741 0.126313
2.878118 3.3372681 0.164857
3.0761189 3.5752389 0.267077
3.0385909 3.5399351 0.35897601
2.913007 3.401613 0.439796
3.0859189 3.612004 0.57162702
3.168216 3.7170711 0.70010602
2.9966249 3.5240309 0.77301103
2.9964261 3.5320971 0.88677698
3.6028261 4.2569218 1.206938
4.2879052 5.0663791 1.436438
3.3227301 3.9352281 1.246133
4.2093759 4.9853158 1.578655
3.4551139 4.1015792 1.4366421
4.1137948 4.8950119 1.880896
4.0457768 4.8254418 2.019546
3.9922061 4.772778 2.1613531
3.935499 4.7160859 2.2973349
3.9013939 4.6862688 2.443311
3.8302629 4.6116929 2.5610011
3.7836349 4.5663152 2.688122
3.762053 4.5510159 2.8281479
3.7184689 4.5089288 2.94611
3.66206 4.451035 3.0454831
3.662941 4.462657 3.1856551
3.5979121 4.3938112 3.2597179
3.605269 4.413239 3.3905039
3.5931931 4.4088831 3.495667
3.55252 4.3693128 3.5614991
3.5557489 4.3836751 3.661423
3.550472 4.3979788 3.8145361
3.511323 4.3910322 3.9340179
3.5027449 4.4222202 3.8625529
3.565223 4.522624 3.8169799
3.5851779 4.5588012 3.7621009
3.60689 4.5973711 3.695663
4.9105659 6.259047 5.031426
4.4870362 5.7742038 4.0349689
7.1426182 9.191576 6.4230032
6.245152 8.11409 4.641355
4.0511289 5.2888279 2.6694541
4.6249509 6.067081 2.64993
4.0147491 5.2920222 1.953988
2.711735 3.5830939 1.203757
4.0425382 5.3415222 1.7945091
3.175972 4.2066321 1.2752939
4.1048112 5.4368958 1.648263
2.987669 3.966779 1.074737
2.7858739 3.707804 0.887905
2.8655291 3.8230419 0.79839301
3.0439129 4.0708618 0.72862703
2.5864229 3.4674129 0.52049702
2.643234 3.5521619 0.434811
2.5399909 3.4216959 0.32790399
2.543009 3.434087 0.24197499
2.6677871 3.611336 0.16796
2.723088 3.6951661 0.088467002
2.5860281 3.5177131 0.010465
2.717737 3.7058711 -0.060366001
2.727984 3.7289159 -0.12716401
2.663568 3.649739 -0.182474
2.5497711 3.502332 -0.224905
2.6082029 3.5913501 -0.2744
2.5124691 3.476459 -0.33005199
3.122128 4.362546 -0.46768299
2.4686289 3.483453 -0.29971701
2.7694581 3.9272389 -0.249479
2.6973841 3.8344669 -0.18933401
2.6912391 3.835176 -0.128952
2.86762 4.0966382 -0.065686002
3.507545 5.0108252 -0.080343999
2.648989 3.7936611 0.01109
2.6543839 3.8108079 0.089507997
2.6069779 3.752018 0.170913
2.5058689 3.6154399 0.249099
2.5153019 3.6380661 0.34033301
2.503623 3.6301651 0.433052
2.5969911 3.774905 0.55131799
2.6638589 3.881748 0.67484897
2.5244379 3.6877439 0.746804
2.6186371 3.8348849 0.88903302
3.6496041 5.3580432 1.403017
3.7919791 5.580965 1.632507
3.7372019 5.5139818 1.784417
3.7332981 5.5220108 1.960761
4.144835 6.1769948 2.7821641
3.944191 5.8927698 2.8412931
3.971112 5.9479151 3.0552089
4.1305652 6.2179732 3.5754671
4.1328621 6.2371259 3.771651
5.6080189 8.4847383 5.3738589
4.1601372 6.3260412 4.3459592
4.6216559 7.063529 5.1879978
4.197619 6.4480958 4.9909201
4.1838498 6.6441908 5.0932312
3.4324501 5.4791131 3.9737301
3.763818 6.0391812 4.0846038
3.801429 6.1153531 3.9731309
3.7561629 6.058207 3.766326
4.8272891 7.7857952 4.8403511
3.7709129 6.0978112 3.614105
4.5452542 7.3690772 4.1469722
3.1956091 5.1944242 2.7644999
3.1896291 5.1982322 2.6053929
3.2106409 5.2461271 2.4645121
3.2203 5.2756538 2.311698
3.247026 5.3333659 2.1689
3.310374 5.4516549 2.0455041
3.3575981 5.5439191 1.906577
3.398134 5.625598 1.7606111
3.4528461 5.7311931 1.618868
2.5492139 4.2424359 1.071141
3.5721209 5.9447718 1.500952
2.5426099 4.2426071 0.94694799
2.4694929 4.1314721 0.80432701
2.3103721 3.875469 0.64675403
2.5852301 4.3480039 0.60865998
2.3807631 4.014719 0.45836499
2.3535931 3.979423 0.35575399
2.6788139 4.5413408 0.29856801
2.638962 4.4856701 0.19468901
2.3148191 3.9451821 0.088159002
2.4894531 4.254118 0.011814
2.4006391 4.1132941 -0.06256
2.2885489 3.931726 -0.12521
2.4073949 4.1469679 -0.193652
2.3177421 4.0032272 -0.24014699
2.354212 4.0771389 -0.29106
2.8627851 4.957911 -0.353937
2.5920651 4.513227 -0.400482
2.3026819 4.052846 -0.40636799
2.4872561 4.4254351 -0.35637
2.3315949 4.171133 -0.24808
2.159652 3.8740849 -0.179125
2.1900949 3.9394391 -0.124055
2.304455 4.1565132 -0.062428001
2.3148201 4.1866608 0.011467
2.3549099 4.270884 0.093998
2.901504 5.2766662 0.22526801
2.2317419 4.0698209 0.26283699
2.489506 4.5524249 0.39925399
2.4448531 4.4831228 0.50146502
2.166301 3.983336 0.54558402
2.3095479 4.2585201 0.69442999
2.1076961 3.8971169 0.740376
2.447233 4.537498 0.98699999
2.4416251 4.539721 1.115561
3.1183729 5.814168 1.596292
3.243221 6.063684 1.842121
3.1472919 5.9007902 1.9672509
3.026829 5.7228608 2.421345
3.2607739 6.18256 2.800751
2.8714049 5.4596481 2.6352501
2.8012481 5.3412929 2.7339489
2.7505591 5.2594938 2.8428359
2.7086289 5.1939902 2.952862
2.657624 5.1106429 3.0436139
2.632308 5.0763679 3.1552191
2.5812719 4.992116 3.2258661
2.5772569 4.9985828 3.34602
2.544122 4.94841 3.4197431
2.498461 4.8734999 3.4636819
2.494349 4.8794408 3.554759
2.452888 4.8259459 3.65343
2.409775 4.7961602 3.7557199
2.382673 4.7976351 3.6676459
2.3997531 4.8603349 3.592679
2.424855 4.9255691 3.5612891
2.431071 4.9526949 3.4893391
2.449687 5.0053201 3.424979
2.473515 5.0688992 3.3557351
2.488374 5.1144028 3.2646959
2.516053 5.1866069 3.180824
2.505456 5.1800642 3.040344
2.5762711 5.342308 2.989773
3.6724069 7.6153221 4.2618442
2.646554 5.5043721 2.925343
2.5564001 5.3327079 2.6806901
2.6898601 5.6278811 2.6647141
2.5855839 5.4258862 2.4083481
2.5569091 5.3979669 2.074729
2.9293871 6.2029161 2.200031
3.0294681 6.434166 2.0919859
3.441407 7.3090658 2.3764491
2.0658431 4.4008269 1.302345
3.05423 6.5063691 1.925442
2.0780971 4.4403219 1.186166
2.011349 4.3107252 1.029472
2.113102 4.5425749 0.959171
2.03335 4.3844309 0.80762303
2.0887511 4.517621 0.71344399
2.3149869 5.0222478 0.66540498
1.982644 4.3144112 0.466281
2.4268789 5.2811069 0.57075697
2.169827 4.7362199 0.40086499
2.129086 4.6615949 0.29020101
2.1177211 4.65099 0.191175
2.0447979 4.5047102 0.095347002
2.067976 4.5698562 0.012023
2.0666101 4.580987 -0.066013999
2.357728 5.2262988 -0.075313002
2.260354 5.0260291 -0.151678
2.040976 4.5523481 -0.20148
1.930292 4.318892 -0.245591
1.906723 4.2795038 -0.28964099
2.3210521 5.209434 -0.352579
2.369514 5.3515878 -0.45034999
2.2939799 5.2467079 -0.49921
2.3552361 5.4557028 -0.41715401
1.986518 4.6311359 -0.26161101
1.973159 4.614769 -0.202691
1.9067349 4.4737759 -0.13384899
2.5952871 6.109004 -0.087187
2.005842 4.7367902 0.01233
2.0431261 4.8404961 0.101262
2.048861 4.869854 0.197642
1.88113 4.4857402 0.27544501
2.04757 4.8985891 0.408537
2.0637591 4.9534702 0.52697301
2.038249 4.9082799 0.63948101
1.863325 4.5018148 0.698403
1.930035 4.6783462 0.84569699
1.906772 4.637218 0.95992303
1.93844 4.729857 1.106254
2.3179741 5.6559329 1.3228509
4.3985109 10.912301 4.0867858
5.1423178 12.800447 5.1593699
2.425544 6.0581002 2.614778
4.829422 12.184934 6.2779102
3.881259 9.8594179 5.598568
3.8051829 9.7324381 5.99822
2.0155661 5.172893 3.3030701
1.965946 5.0629091 3.3380589
1.873944 4.8593998 3.3784361
1.8160321 4.7419872 3.4268739
1.757666 4.654212 3.481107
3.0980811 8.3202839 6.078846
1.784853 4.8277111 3.4114709
1.958837 5.3363619 3.5951741
1.884056 5.1511378 3.3710461
1.9336179 5.305727 3.3598249
2.5077291 6.8810539 4.3573928
3.448329 9.4962502 5.7990918
3.5225191 9.735816 5.7128248
2.077971 5.7641649 3.2374899
4.2238941 11.759646 6.2986889
3.1332841 8.7873716 4.228909
1.9576451 5.5719619 2.0514319
2.503418 7.1253729 2.6233521
2.5375381 7.2493811 2.4632781
1.681462 4.8579021 1.243782
1.650115 4.7853022 1.095466
2.0597789 5.995923 1.213771
1.850095 5.4059539 0.954808
1.8210829 5.3414111 0.80893898
1.8020951 5.3059011 0.674245
1.7348419 5.1274252 0.53156602
1.771255 5.2551322 0.42671999
1.728762 5.1488242 0.30755699
1.668551 4.988678 0.19678199
1.689521 5.0709591 0.103016
1.692131 5.0985198 0.012876
2.0235021 6.0969648 0.015398
2.0344591 6.1538649 -0.085138001
1.747813 5.3075042 -0.153796
1.889755 5.7610321 -0.244859
1.978218 6.0544362 -0.33066899
1.801421 5.5351248 -0.35986
1.53242 4.7459898 -0.383757
1.8010989 5.578104 -0.45104
1.875657 5.9026661 -0.53994203
1.7747689 5.676383 -0.41750401
1.914099 6.172318 -0.335491
1.604845 5.1963911 -0.219639
1.9594949 6.3709459 -0.18345501
1.639906 5.3539982 -0.073553003
1.450896 4.7566261 0.01192
1.5415781 5.075048 0.102226
1.731064 5.722734 0.22366001
1.6572109 5.5016189 0.32536599
1.604185 5.348084 0.42963499
1.878329 6.262033 0.503057
1.603858 5.3696308 0.550331
1.6625921 5.5899239 0.70172101
1.6567841 5.5941811 0.83632499
1.6292911 5.5248981 0.96255499
1.794602 6.1379838 1.383981
2.2646811 7.779283 1.960326
2.9922259 10.278433 2.590095
2.2710841 7.8348541 2.1852379
2.4519329 8.495615 2.601084
2.718719 9.461257 3.157124
3.03406 10.605017 3.8315051
2.7959099 9.8591557 4.1062799
1.986177 7.0349102 3.1227789
1.9011509 6.7637658 3.1847899
2.7278161 9.7482939 4.8485012
1.833949 6.6430092 3.802592
1.856549 6.7554278 4.0213809
1.854565 6.7790351 4.1815019
2.00582 7.3993659 4.8486199
1.986269 7.3611159 4.9457512
1.4636821 5.474906 3.8246059
1.536939 5.9707012 4.2212958
1.775633 7.1026039 4.3558588
1.928696 7.753098 4.585907
1.766755 7.1375179 4.0571928
1.655869 6.7229972 3.6584101
2.1279819 8.7270803 4.3024831
2.218657 9.145052 4.2656541
2.295886 9.5602589 3.9396479
2.4931381 10.488885 3.74488
2.4228921 10.299571 3.1124389
1.50708 6.5427299 1.285413
1.39746 6.0991888 1.045625
1.4085931 6.1807251 0.90869099
1.3125319 5.790278 0.71438402
1.34461 5.9638939 0.60036999
1.3288161 5.925889 0.467305
1.256344 5.633359 0.32683599
1.219339 5.4974599 0.210651
1.371433 6.2173581 0.12271
1.333396 6.0784512 0.014916
1.391017 6.3764768 -0.085729003
1.324074 6.1036701 -0.17189901
1.316625 6.1035171 -0.25216299
1.3494771 6.2912302 -0.334039
1.326004 6.2170272 -0.39299601
1.415731 6.7140789 -0.527991
1.367085 6.6359472 -0.590662
1.359864 6.759603 -0.48403001
1.277903 6.4294052 -0.340312
1.273438 6.4460621 -0.265358
1.3154269 6.6994958 -0.187912
1.273741 6.527308 -0.087357998
1.2485631 6.4380279 0.015719
1.049181 5.4437881 0.106851
1.226094 6.361722 0.124868
1.0863121 5.6718688 0.216034
1.091822 5.7366691 0.33068001
1.113333 5.8869381 0.461014
1.149304 6.116015 0.611121
1.2300479 6.587811 0.80637002
1.159346 6.249404 0.91110301
1.3496521 7.2752361 1.06066
1.1395479 6.1826859 1.0505691
1.107957 6.0506778 1.177668
1.219752 6.7051849 1.4749351
1.5238039 8.4321823 2.073205
1.680535 9.3610048 2.5477619
1.546806 8.6738672 2.5917709
1.710012 9.6538525 3.1442981
1.79904 10.225426 3.6064119
1.636462 9.3649273 3.555649
1.386857 8.0465031 3.488132
1.6409121 9.6542082 4.6903982
1.118174 7.970314 4.6197591
1.387634 10.417195 4.489511
1.3173079 9.9775515 4.0326352
0.94835198 7.2477078 2.7338209
1.269632 9.7913485 3.429553
1.229082 9.5655184 3.0929921
1.194665 9.4713507 2.557337
1.226372 9.8142958 2.3930271
0.76709002 6.197144 1.351406
0.77471101 6.3800201 1.073974
1.243414 10.340053 1.492869
0.807666 6.7828131 0.82190001
0.75032997 6.3640952 0.62929899
0.780743 6.6886811 0.51817101
0.75344402 6.5874138 0.248034
0.731677 6.46351 0.125369
0.72198302 6.4446659 0.015544
0.76524401 6.9031148 -0.091232002
0.73183799 6.6724439 -0.18474799
0.729289 6.7210379 -0.27302501
0.73441797 6.9178438 -0.43008
0.71104699 6.848834 -0.52983302
0.59841901 6.0364032 -0.52882499
0.72531003 7.6788402 -0.54145199
0.637308 7.0073428 -0.28416201
0.63581002 7.0818229 -0.19569799
0.57406098 6.56493 0.015795
0.57519197 6.6669912 0.12897199
0.58420998 6.8643661 0.257716
0.60546798 7.213037 0.409888
0.55418199 6.6952438 0.51694399
0.566625 6.9434071 0.68412697
0.82417798 10.396779 1.494998
0.71758503 9.1872387 1.539923
0.75136 10.07063 2.443352
0.733854 10.165724 2.9981461
0.51871198 7.4256258 2.585618
0.66596502 9.533637 3.3196321
0.65000701 9.9711704 4.52947
0.65510499 10.232582 4.9111381
0.40705901 6.5983758 3.493032
0.418414 7.9895849 5.399312
0.34214199 7.9460282 5.445539
0.353836 9.2130213 5.8310661
0.39188799 10.86171 6.4665518
0.359146 11.866078 5.6861029
0.29716799 10.210244 4.630208
0.265995 9.519681 4.0683742
0.30025899 11.21208 4.4942188
0.24768899 10.128178 3.5191309
0.210878 9.5278902 2.8034251
0.220171 10.499406 2.813251
0.204419 10.96227 2.3728399
0.126352 9.025013 1.086031
0.103901 8.0924034 0.79475999
0.096230999 8.240078 0.63409603
0.081710003 7.7701221 0.44002199
0.076141 8.1389513 0.30448201
-0.032357 5.6345358 -0.49122
-0.148598 8.0241337 0.154678
-0.16166499 8.2146616 0.30735999
-0.17998999 8.1798344 0.62956899
-0.20224901 8.730649 0.857602
-0.30160701 10.007572 2.4224229
-0.30266401 9.6730318 2.5925281
-0.30832899 9.5012379 2.79637
-0.33836401 9.7295227 3.3816471
-0.33482099 9.3163013 3.4866381
-0.375976 10.13328 4.0631342
-0.48131001 11.857238 5.6839428
-0.502729 12.040035 6.0745239
-0.408039 8.3723259 5.3013582
-0.55576003 8.3934641 5.320066
-0.65053999 8.7457676 4.2005372
-0.774849 10.099734 4.3272629
-0.83628398 10.73709 4.3153129
-0.73935401 9.0837278 2.9228899
-0.76940298 9.3191166 2.7506521
-0.80203301 9.5785627 2.5749321
-1.026018 11.305657 1.365931
-1.015521 10.772906 0.61273998
-0.96306401 10.091058 0.37921
-1.000037 10.227194 0.024630001
-0.71535403 6.9017792 -0.428969
-0.61721498 5.823071 -0.45058
-0.576536 5.208312 -0.45682701
-0.71061403 6.1578779 -0.43515101
-1.6706769 13.642041 0.032942999
-1.417465 11.145011 0.86448801
-1.392662 10.849365 1.074177
-1.302596 8.5012579 5.2859139
-1.310761 8.4887238 5.4323149
-1.522475 9.7843981 6.4232731
-1.320218 6.2621269 -0.39564899
-1.132066 5.308589 -0.417667
-1.036654 4.752809 -0.42408499
-1.250307 5.6071539 -0.40328801
-1.556378 6.9042201 -0.36742699
-1.793228 5.5556169 -0.36090899
-1.550046 4.7643838 -0.38552099
-1.429849 4.3265691 -0.39724901
-1.700369 5.0661101 -0.375137
-2.0426271 6.0393362 -0.33098
-1.610956 -5.2538071 1.472092
-1.58498 -5.1904612 1.596434
-1.404562 -4.6379609 1.683277
-1.364517 -5.418097 1.643562
-1.938298 -7.696414 2.334682
-1.387774 -5.5374632 1.529278
-1.409974 -5.6537108 1.409807
-1.43481 -5.7817178 1.289219
-0.99764103 -4.0400672 0.79670799
-1.503878 -6.0901361 1.200985
-0.97482598 -3.967344 0.68268901
-1.511427 -6.1512022 1.058481
-0.93636602 -3.829895 0.56516498
-0.94340599 -3.8781121 0.48023799
-0.96013802 -3.9668241 0.400801
-1.261688 -5.2126842 0.52667999
-0.90760303 -3.768796 0.29829001
-1.3548681 -5.6260529 0.44528601
-0.963323 -4.0205822 0.234117
-0.88771302 -3.723978 0.143213
-0.93023598 -3.9224541 0.077696003
-0.84320903 -3.573864 0.0088010002
-1.286399 -5.4522839 0.013427
-0.902991 -3.847105 -0.051908001
-1.1895159 -5.067821 -0.068378001
-0.92078298 -3.943392 -0.111454
-0.86677301 -3.7315309 -0.15471201
-0.870776 -3.768496 -0.20079701
-0.83083099 -3.614665 -0.229294
-0.88331401 -3.8840489 -0.306499
-0.82459801 -3.7049489 -0.33089599
-0.81958598 -3.7643299 -0.270446
-0.84037697 -3.9031789 -0.207277
-1.074784 -5.0200491 -0.207331
-1.058216 -4.9706812 -0.13987499
-1.0759701 -5.0829172 -0.068246998
-0.80820501 -3.8398559 0.0094050001
-0.83024198 -3.9673049 0.078120001
-1.06801 -5.103477 0.100492
-1.039996 -4.9983811 0.190988
-0.79443699 -3.8404081 0.222074
-1.050283 -5.0771999 0.29359299
-0.76241899 -3.7072251 0.29123101
-1.001227 -4.8684192 0.38245201
-0.80358797 -3.9303949 0.39395899
-0.807428 -3.9725349 0.487764
-1.082701 -5.3268752 0.65405601
-1.014328 -5.0202012 0.73416102
-1.237425 -6.1243739 0.89563602
-1.5403121 -7.6234479 1.114863
-1.2280689 -6.1144152 1.042164
-1.199707 -6.0091209 1.173155
-1.53141 -7.6705618 1.497517
-1.134627 -5.7175608 1.26151
-1.1402071 -5.7806182 1.425563
-1.114462 -5.6845341 1.551791
-1.510851 -7.7063971 2.1037281
-1.502171 -7.7092438 2.3104129
-1.104007 -7.6793451 2.282192
-0.78359503 -5.4956818 1.4871
-1.0958329 -7.6855402 2.079663
-0.774333 -5.4759512 1.338082
-1.087605 -7.6913538 1.8794301
-0.77446502 -5.5228562 1.206938
-0.86865997 -6.194581 1.3537329
-1.077546 -7.6841841 1.6792639
-1.065783 -7.664712 1.481534
-0.76423401 -5.5429769 0.93502998
-0.950948 -6.8972111 1.1634721
-1.060066 -7.6886458 1.296977
-0.72450501 -5.3000312 0.76679701
-1.046671 -7.6567988 1.1077681
-0.72452402 -5.3462148 0.649158
-0.70204902 -5.2256889 0.51778603
-0.71559799 -5.3735361 0.41712999
-0.771882 -5.8478279 0.334016
-0.67313999 -5.1455269 0.19412801
-0.82506001 -6.3068128 0.237941
-0.683474 -5.271893 0.102457
-0.68592298 -5.3391042 0.012902
-0.67427301 -5.2967949 -0.070138
-0.83337098 -6.5465999 -0.086687997
-0.758892 -6.017035 -0.16692001
-0.733531 -5.8705268 -0.23892701
-0.765625 -6.1854019 -0.32356599
-0.73995203 -6.0351992 -0.37590301
-0.59215999 -4.9238601 -0.38160801
-0.857207 -7.7294741 -0.54593402
-0.62579298 -5.7643218 -0.30101401
-0.83705002 -7.7102518 -0.40263
-0.57380301 -5.342896 -0.217016
-0.56862199 -5.3528442 -0.148156
-0.51527202 -4.904582 -0.064778998
-0.81334001 -7.7417212 -0.102252
-0.80426401 -7.7413111 0.018655
-0.79670298 -7.7557392 0.15026499
-0.55441302 -5.4590821 0.205268
-0.57265002 -5.704143 0.32463101
-0.62367201 -6.2854619 0.48602501
-0.479112 -4.8859501 0.48211399
-0.486514 -5.0210991 0.60698801
-0.545968 -5.7033639 0.821284
-0.56112301 -5.9338808 0.996014
-2.1082871 -23.449268 6.307045
-2.0780759 -23.415983 6.9151521
-0.42485601 -5.6793461 3.388459
-1.080049 -23.552094 10.687255
-1.051739 -23.528425 10.061329
-0.941387 -23.488777 7.5391688
-0.91341799 -23.467218 6.9083791
-0.88569701 -23.451792 6.2868609
-0.94177997 -26.561026 5.7518849
-0.18399499 -5.5509391 0.92810702
-0.24505199 -7.6597462 1.098545
-0.23666701 -7.6749668 0.92392099
-0.228686 -7.7045288 0.75693703
-0.21929801 -7.68714 0.59174597
-0.21051399 -7.690794 0.43566799
-0.148004 -5.6451101 0.21124899
-0.20221999 -7.7129531 0.28863099
-0.193137 -7.7061491 0.14857
-0.184499 -7.716773 0.018502001
-0.17542601 -7.7093391 -0.101293
-0.166906 -7.7272711 -0.21272799
-0.157722 -7.714098 -0.311602
-0.148343 -7.6892118 -0.39926001
-0.14 -7.7189908 -0.47728401
-0.121438 -7.6713591 -0.59036499
-0.085597999 -7.6335649 -0.66552597
-0.050216001 -7.610106 -0.53423899
-0.032598998 -7.5976982 -0.39443901
-0.023963001 -7.6377358 -0.30845499
-0.015162 -7.6410909 -0.210307
-0.0063390001 -7.6423378 -0.100387
0.002477 -7.651978 0.018340999
0.011317 -7.6545701 0.14752901
0.020089 -7.6336341 0.285566
0.029069999 -7.6806402 0.43493301
0.037957001 -7.6841912 0.591286
0.046732001 -7.6699619 0.75322402
0.055675 -7.6833768 0.92451799
1.781 -26.409285 6.4042168
0.56963497 -7.7769208 0.93825603
0.57771403 -7.7640848 0.76455998
0.58423698 -7.7310371 0.59658003
0.61981499 -7.7261562 0.018578
0.63031101 -7.7447228 -0.102068
0.63908303 -7.741725 -0.213801
0.645827 -7.714704 -0.31265101
0.654984 -7.7168241 -0.40206
0.66165602 -7.6898522 -0.47716001
0.67678303 -7.6584268 -0.59159303
0.70883 -7.6190758 -0.66708899
0.74668199 -7.642714 -0.53907102
0.76361197 -7.6335702 -0.39827499
0.77253902 -7.6337538 -0.30986699
0.78098702 -7.6292262 -0.211078
0.79220599 -7.6514339 -0.101044
0.80225801 -7.6620922 0.018466
0.81044698 -7.6547871 0.148358
0.821316 -7.67277 0.28866899
0.83190298 -7.6877322 0.43787301
0.84074497 -7.6862988 0.59496802
0.85089999 -7.6968589 0.76045603
0.859505 -7.6932998 0.93144703
0.95331103 -6.8143311 4.6435652
0.89406699 -6.1823511 4.3708758
1.26486 -8.2732449 5.4290071
1.067982 -6.7756739 3.9372489
1.423251 -7.9503541 0.971825
1.429507 -7.9324508 0.79153502
1.4343899 -7.907196 0.61836803
1.43957 -7.8838072 0.453816
1.448539 -7.8813848 0.29977101
1.454222 -7.8611398 0.154081
1.460276 -7.843195 0.019122001
1.469951 -7.84478 -0.10484
1.477667 -7.8358698 -0.219469
1.4840209 -7.819943 -0.321448
1.4909509 -7.8072071 -0.41263601
1.498199 -7.7961941 -0.49079701
1.509675 -7.759131 -0.60824102
1.54698 -7.7592821 -0.68975699
1.57875 -7.732048 -0.55398703
1.5941581 -7.7164388 -0.40905899
1.608803 -7.7421679 -0.31935
1.619475 -7.7485738 -0.21787301
1.628709 -7.7479811 -0.103999
1.642139 -7.7672858 0.019029001
1.649783 -7.7590718 0.152886
1.663745 -7.78054 0.29764101
1.673955 -7.7842932 0.45087701
1.68427 -7.7884111 0.61315101
1.6943721 -7.7915411 0.783032
5.281302 -23.499891 5.8275962
5.3208318 -23.549109 6.4674768
5.4250469 -23.881964 7.2041302
5.4585962 -23.901608 7.8628831
1.334529 -5.633153 2.9182019
2.078892 -8.7301922 4.7417779
1.73155 -7.2343979 4.104538
1.914145 -7.9566579 4.6974192
2.3413939 -9.6346169 6.0938549
2.4352369 -9.8226566 6.8296928
2.5270989 -9.6653233 6.4804139
2.5328619 -9.4635201 5.4055638
1.704802 -6.3111768 3.2954121
2.0906579 -7.7396178 4.0412798
2.454942 -8.9241171 3.7086699
6.5896029 -23.846525 9.2530956
6.6832662 -23.862852 7.289638
6.6193552 -23.5298 6.5479512
2.3528349 -8.2900848 1.864979
2.3656521 -8.2986813 1.652083
2.3711851 -8.2817841 1.4395469
2.3773029 -8.2670479 1.233061
2.3860071 -8.2613173 1.034662
2.3885241 -8.2343349 0.84196502
2.3960559 -8.2247705 0.65918398
2.4020929 -8.2101107 0.48440301
2.4174139 -8.2271967 0.32078001
2.422518 -8.2094412 0.164968
2.429888 -8.1995077 0.020498
2.4334519 -8.1768436 -0.112064
2.4467759 -8.1869583 -0.23517901
2.4537261 -8.1757708 -0.34473199
2.4670501 -8.1858044 -0.443847
2.469635 -8.1601992 -0.52707899
2.4841399 -8.1402369 -0.65488702
2.5214269 -8.1275949 -0.74186701
2.5638731 -8.1313915 -0.59852499
2.57919 -8.1144972 -0.44203299
2.599658 -8.1462803 -0.345337
2.618747 -8.1734791 -0.236224
2.6259069 -8.1633139 -0.112642
2.6420109 -8.1809387 0.020606
2.653456 -8.1839914 0.16581599
2.673605 -8.2137775 0.323136
2.686877 -8.2222662 0.48982999
2.6964769 -8.2194242 0.66562802
2.7103181 -8.2294989 0.85085797
2.722997 -8.235961 1.043741
2.742471 -8.2627764 1.24796
2.747112 -8.2448826 1.452238
2.7646329 -8.2656126 1.66863
2.7827549 -8.2879086 1.892054
3.2498081 -9.5690479 2.972748
2.9791441 -8.6731911 3.429888
3.218179 -9.2644081 4.4456601
8.4548216 -24.159151 12.902568
1.885319 -5.347496 3.1286471
1.776984 -5.021708 3.0576041
2.0674379 -5.8210979 3.6753039
3.6720281 -10.263737 6.8942242
3.1386781 -8.677969 6.2277799
2.7376831 -7.461216 5.5610571
2.8363249 -7.620923 5.5675678
2.882443 -7.690392 5.4434361
2.9387579 -7.8131628 5.4148569
2.989583 -7.920507 5.3542752
3.0406661 -8.0277224 5.2759652
3.085741 -8.1183958 5.1673102
3.128772 -8.2030582 5.0394201
3.193871 -8.3447313 4.9301801
3.245157 -8.4494715 4.7824221
3.2885921 -8.5330553 4.609796
3.3639369 -8.6985941 4.4670658
3.4330189 -8.8468313 4.3015728
3.479214 -8.9352112 4.0962658
3.5210171 -9.0117626 3.8767891
3.5650139 -9.0933599 3.6530361
3.597429 -9.1448946 3.413475
3.618113 -9.1663733 3.1604841
3.5357521 -8.9274979 2.82459
3.588263 -9.0295563 2.602879
3.6157 -9.068058 2.3619859
3.629324 -9.0717468 2.114573
3.637161 -9.0609274 1.869264
3.64171 -9.0420256 1.628926
3.6419649 -9.012598 1.393402
3.654346 -9.0132055 1.170252
3.6566451 -8.9890356 0.95298898
3.6466801 -8.9349499 0.74257898
3.63661 -8.8808947 0.54342598
3.639524 -8.8588123 0.358275
3.647073 -8.848052 0.18445
3.6564331 -8.841753 0.022933001
3.658294 -8.8173904 -0.125395
3.6662669 -8.807807 -0.26258099
3.607455 -8.6383734 -0.37806299
3.522897 -8.4085569 -0.473295
3.6973281 -8.7963276 -0.589894
3.673362 -8.6830893 -0.72547001
3.6020839 -8.4060535 -0.79727697
3.5837901 -8.2577047 -0.63192803
3.3474791 -7.6646252 -0.43420401
3.85692 -8.8033333 -0.38815099
3.931519 -8.9454708 -0.26893699
3.9615729 -8.9856176 -0.128994
3.969856 -8.9762974 0.023525
3.9786999 -8.9682312 0.18909401
3.973603 -8.9288979 0.36560199
3.962419 -8.8761454 0.55043697
3.9624319 -8.8486576 0.74603099
3.9681759 -8.8341093 0.95103401
3.9909141 -8.857337 1.168938
4.023488 -8.9021177 1.400354
4.0538878 -8.9418373 1.6406291
4.0678039 -8.9450378 1.8812979
11.0363 -23.756462 9.7971277
11.395871 -24.235954 12.827534
3.0427561 -6.012712 3.868053
4.3499069 -8.4254923 3.7994249
4.4321699 -8.5605068 3.6053929
4.6023512 -8.8640261 3.4692559
4.6549602 -8.9400311 3.2325561
12.355093 -23.594837 7.1348219
7.5359011 -14.111967 1.571048
4.697845 -8.6282511 -0.27039501
4.6389122 -8.4732466 -0.501499
4.6586089 -8.4858589 -0.59847099
4.5856628 -8.3073378 -0.73014998
4.8192921 -8.635766 -0.86215299
4.731883 -8.3876076 -0.676045
4.7698908 -8.409399 -0.50191402
5.3932052 -9.4827194 -0.44056901
4.8442411 -7.9714661 4.9286461
5.4923048 -8.9908953 6.0475039
4.8750148 -7.9596391 5.55335
4.0768819 -6.570785 5.218626
5.1300812 -8.2682438 6.5667758
4.2100682 -6.7157879 5.5461512
5.1995411 -8.2094326 6.653399
4.1114779 -6.4583702 5.0743899
4.923708 -7.6948528 5.7776141
5.1448002 -8.0198879 5.856133
5.66397 -8.8067417 6.229815
4.9447169 -7.6493888 5.0258369
5.5819001 -8.5263958 4.3535838
8.8974619 -13.556673 6.4975181
5.85537 -8.4654198 -0.53436899
5.8271928 -8.4038458 -0.63222402
5.8239989 -8.3578529 -0.78385401
5.8594918 -8.3262787 -0.8876
5.9110289 -8.3173962 -0.71631098
6.4400849 -9.0175152 -0.575275
6.455689 -9.0172768 -0.447873
6.4683599 -9.0129185 -0.305336
9.7193346 -12.932513 6.4822688
6.092298 -8.0480223 4.8346782
6.7382388 -8.7529764 6.9861612
6.4393029 -8.3048096 7.092051
6.4888668 -8.2105045 7.1652422
5.1357861 -6.4675679 5.4738221
5.853179 -7.3709912 6.2384329
5.4823699 -6.8387451 5.2148619
5.5852051 -6.9505219 5.1180758
6.2573848 -7.713552 4.7573538
6.4603782 -7.9449701 4.641768
7.1105471 -8.6827488 4.1974182
11.95335 -14.056734 0.044227
7.8107691 -9.1208019 -0.48495701
8.010355 -9.3319769 -0.63847399
7.821372 -9.0904741 -0.74137902
7.33149 -8.4813108 -0.862647
7.310854 -8.3786583 -0.96941203
7.5175829 -8.5354557 -0.79845297
8.49473 -9.5999794 -0.66548598
8.5813513 -9.630249 -0.16943499
12.590051 -14.096048 0.045301002
12.629418 -14.107178 0.36493
7.0473261 -7.5493441 4.6814022
6.9484639 -7.3917918 5.360311
11.289989 -11.926977 9.7711554
5.926126 -6.231523 5.4387288
6.0411792 -6.135478 5.4456782
10.255706 -10.295854 7.6784101
14.117709 -13.625674 1.9267941
9.3620415 -8.8697004 -0.52082998
10.229166 -9.6463547 -0.86922997
8.9256878 -8.37819 -0.94197601
8.9926825 -8.36304 -1.070591
9.7534819 -8.9450006 -0.68705302
9.813983 -8.9795952 -0.53721303
9.8729534 -9.012578 -0.367928
11.358556 -9.8962069 6.435699
10.56466 -9.1186333 7.3738151
6.5103331 -5.3861461 5.6003361
11.978231 -9.160737 -0.78286302
11.203563 -8.4249496 -1.222057
12.171928 -9.0650368 -1.065398
11.79228 -7.5873742 5.2444949
16.483633 -9.4285736 3.1733
7.3467479 -2.9773779 5.5467238
7.0120072 -2.766309 4.7673731
7.1429901 -2.8084109 4.7172661
7.574451 -2.94768 4.4847488
11.696477 -3.6383619 4.581358
11.557899 -3.580513 4.8483109
11.765346 -3.6298029 5.2598929
10.499779 -3.2259991 4.979073
10.37576 -3.17469 5.1971059
10.374131 -3.161015 5.466846
7.6214461 -2.3125939 4.2082701
7.5574312 -2.283571 4.3562398
7.5351238 -2.2672811 4.5167112
7.3292732 -2.1960461 4.5522032
7.282208 -2.1727271 4.6706638
7.3213959 -2.175159 4.8304458
7.299108 -2.1592989 4.9375882
7.3287401 -2.149559 5.154295
7.3335609 -2.1139851 5.3403339
7.3292542 -2.0758901 5.2156048
7.4216542 -2.083431 5.1091952
7.2969651 -2.0392849 4.914731
7.4282289 -2.066669 4.8764148
7.4682212 -2.0684371 4.7628198
7.450542 -2.054224 4.5982208
7.527998 -2.0661719 4.4808679
7.5127311 -2.0525861 4.2972999
9.9574327 -2.7080851 5.4523439
10.36909 -2.807091 5.415081
10.272215 -2.76806 5.095592
8.0052691 -2.147212 3.7570119
8.1660423 -2.180155 3.6107011
8.2875938 -2.2022951 3.436034
11.56229 -3.058115 4.4731121
13.569337 -3.504704 3.3908279
15.602139 -3.9910641 3.0832231
15.171752 -3.1561279 2.9668291
12.099386 -2.4731519 3.3082609
11.78938 -2.395546 3.538851
12.363517 -2.497262 4.0451989
12.560763 -2.5067959 4.790493
8.2273989 -1.632039 3.3609011
8.2743778 -1.6313879 3.602844
8.1987944 -1.6066099 3.7871511
8.2461338 -1.6059459 4.023859
8.5047941 -1.646086 4.366725
5.9909391 -1.152328 3.223475
5.850502 -1.1182719 3.2866261
6.0384612 -1.146942 3.5280421
5.9806519 -1.128768 3.621105
5.8246498 -1.0923311 3.6422801
5.7852468 -1.077999 3.721854
8.8128853 -1.642156 5.669641
5.6664648 -1.049058 3.7381561
6.2377849 -1.139872 4.2793961
5.5749002 -0.99202001 3.9621091
6.2676249 -1.085307 4.3551879
5.176342 -0.88397098 3.4805291
6.3060989 -1.076901 4.2401681
5.642766 -0.95688999 3.712579
9.3285131 -1.581911 6.1375642
5.7764611 -0.97267097 3.7047501
5.843379 -0.97696298 3.641233
5.9837322 -0.99329698 3.608834
6.139915 -1.0119081 3.5718501
5.963798 -0.97577101 3.3344541
5.9153652 -0.96080399 3.1664801
6.1719198 -0.995121 3.15137
7.618588 -1.228372 3.8900361
8.1031313 -1.296857 3.930552
8.1604118 -1.296321 3.7454519
8.345294 -1.315757 3.6091299
12.282843 -1.8782001 3.9850371
16.696957 -2.4739399 3.6529641
16.421335 -1.60149 4.419899
11.985136 -1.112733 4.5018368
11.551034 -1.058902 4.6478329
8.9983768 -0.79332298 4.326674
8.2136993 -0.71454602 4.156064
6.145359 -0.52743202 3.25898
5.6315789 -0.476749 3.1185019
5.8934851 -0.492039 3.3946271
5.8464589 -0.48127699 3.4902101
5.4269962 -0.440411 3.346436
6.6922469 -0.54308897 4.126626
6.5611248 -0.52478999 4.1628318
5.9431558 -0.46841699 3.8671329
6.7862039 -0.534863 4.4156942
5.9787941 -0.45727599 4.0466871
5.8555059 -0.420517 4.107729
5.8682818 -0.39407301 4.0269532
6.0504441 -0.392203 4.0186291
6.2124429 -0.39546999 4.0380139
6.2664442 -0.39161199 3.9709401
6.019671 -0.36917299 3.7066851
5.6720681 -0.34125301 3.380789
5.814548 -0.343059 3.3433521
6.1230478 -0.35412601 3.3842151
6.1165819 -0.34663501 3.2370231
10.269943 -0.55810398 4.9262571
10.347495 -0.55028403 4.6970911
10.770543 -0.54771698 4.3212638
11.105756 -0.52601701 3.5657361
6.1747222 0.037296999 1.493996
5.8689079 0.042202 1.572233
5.8585711 0.048928 1.723426
6.0111389 0.057190001 1.927929
5.8375092 0.062314 2.027807
10.446481 0.123641 3.907361
5.6136088 0.072967 2.249527
10.859408 0.153759 4.6395798
8.6670208 0.132779 3.9291739
10.111372 0.154907 4.5839682
9.9978409 0.164791 4.78932
9.894268 0.17457201 4.9883571
6.6073899 0.131934 3.6465459
6.3080621 0.13328201 3.6216321
6.2531281 0.139393 3.7213221
5.6801181 0.13321599 3.492002
5.6008468 0.137861 3.5433249
5.7088442 0.147159 3.7044151
5.2224889 0.14675499 3.525887
5.4391541 0.178137 3.8078899
5.2045569 0.194656 3.5659549
5.693562 0.226192 3.77665
5.519042 0.225675 3.5830569
5.7301679 0.240971 3.6272449
6.0415282 0.26109901 3.716634
5.8681931 0.260432 3.4948111
6.6217651 0.30157799 3.8048301
6.6373692 0.31001899 3.666353
5.8454509 0.286641 2.950161
10.592093 0.5194 5.3457608
5.8377662 0.29305699 2.799638
10.057783 0.50490201 4.8234472
5.7440991 0.295039 2.6072011
5.607357 0.29455 2.3987529
5.5392699 0.29742199 2.2227471
5.87884 0.32249799 2.20205
5.424088 0.303875 1.887042
5.6726718 0.32440701 1.822264
5.9321489 0.34615499 1.747978
5.7101989 0.33986399 1.532384
5.5998268 0.339818 1.357366
5.8286691 0.36049601 1.263837
5.996973 0.377902 1.150403
5.7699571 0.37032101 0.96618098
11.303314 0.75182801 1.3630641
11.465595 1.070835 -0.59782797
10.987981 1.039095 -0.44573399
11.153757 1.067836 -0.30838999
10.862586 1.103651 0.61827999
11.21632 1.165921 1.107406
10.827807 1.1382411 1.310023
10.782421 1.146143 1.55431
5.695436 0.61878401 1.096813
5.5066452 0.60474998 1.1989
5.5256519 0.61332899 1.345137
5.3362069 0.598517 1.438453
5.4840541 0.62155199 1.623526
5.398129 0.61817503 1.742557
5.4050422 0.62532997 1.889995
5.3092322 0.62049699 1.999221
5.8897209 0.69528598 2.3763609
5.3646641 0.63962299 2.3080051
5.3957419 0.64968699 2.463527
5.462173 0.66413301 2.6354871
5.744163 0.70519298 2.9173019
5.7008119 0.706595 3.0352049
6.4422598 0.79849499 3.4299641
7.2291398 0.90456599 4.0199928
6.0093451 0.75902802 3.4767671
5.8685789 0.74818599 3.519866
6.009552 0.77325499 3.723964
5.489687 0.71284801 3.5010979
5.447721 0.713844 3.5640099
8.3846397 1.118507 5.7086592
7.1951461 0.99390602 5.0823469
6.4978909 0.92839402 4.4941659
5.8467512 0.84923899 3.9158709
5.6048231 0.82074898 3.674484
5.6118722 0.82844198 3.5876901
5.8178239 0.865762 3.615052
5.5982099 0.83973002 3.368006
5.7755032 0.87318599 3.3528099
5.723124 0.87207901 3.194351
6.1532888 0.94494301 3.289346
5.7077341 0.88331801 2.9114499
6.5804849 1.018384 3.3566301
5.7708559 0.89995301 2.797478
6.7795968 1.057265 3.2864749
5.8933911 0.92607701 2.7042229
5.567802 0.88155299 2.4081819
5.57057 0.88862699 2.260314
5.63553 0.90570498 2.1347909
5.6117339 0.90857899 1.974651
5.3343568 0.870031 1.733395
5.244513 0.86163402 1.563416
5.483448 0.90744197 1.488912
5.2413712 0.87363797 1.285641
5.3042631 0.89045602 1.163999
5.5306382 0.935076 1.073872
5.3721218 0.91469598 0.91063601
7.9993048 1.3715841 1.163391
7.4655609 1.297943 0.74413401
8.7215872 1.516313 0.86932999
6.3336802 1.10874 0.494771
7.4532938 1.304734 0.58223301
9.0084896 1.587781 0.51798499
5.8327341 1.035031 0.221604
6.9860721 1.248078 0.136777
6.5243011 1.1734051 0.015889
6.1593242 1.115152 -0.082222
6.3725762 1.16142 -0.17828199
6.7753162 1.242955 -0.27818999
6.4550328 1.191952 -0.34077901
7.4213729 1.370391 -0.39179501
7.2311249 1.343962 -0.45469999
6.9147282 1.301787 -0.541417
7.2197628 1.394009 -0.64103502
6.2158451 1.23017 -0.444814
6.413763 1.284844 -0.33958599
6.0659928 1.222509 -0.24990299
5.8399272 1.184011 -0.164003
6.046978 1.233315 -0.081065997
6.818037 1.390577 -0.091403
5.4122491 1.11041 0.013243
