# .PCD v0.7 - Point Cloud Data file format
VERSION 0.7
FIELDS x y z
SIZE 4 4 4
TYPE F F F
COUNT 1 1 1
WIDTH 1552
HEIGHT 1
VIEWPOINT 0 0 0 1 0 0 0
POINTS 1552
DATA ascii
1.753654 6.0043411 1.3537329
2.245074 7.7202029 1.9452749
2.1473961 7.4161291 2.0682781
2.149714 7.4565191 2.2827561
2.1632349 7.536315 2.5145831
3.125494 10.9365 3.950942
2.260771 7.9808512 3.3237059
2.526036 8.9968691 4.2359281
1.762615 6.3059788 3.136147
1.738168 6.2464728 3.268404
1.798841 6.4936929 3.5603039
1.751127 6.4081759 3.952435
1.925938 7.1127882 4.6604691
1.861889 6.908062 4.640995
1.361383 5.0981321 3.5611291
1.300034 4.9607449 3.588315
1.291337 5.0225682 3.5507021
1.459722 5.7326789 3.9208429
1.7304029 6.828845 4.5697041
1.725706 6.9113412 4.2382579
1.6949641 6.8219008 4.034822
1.628746 6.5880971 3.7446179
1.5406359 6.294425 3.2666039
2.3273649 9.6542091 4.2424068
2.360034 9.839839 4.0545788
1.34219 5.6248579 2.162816
1.803414 7.636292 2.5164161
2.5064859 10.724659 2.9503951
2.4259269 10.434607 2.5919759
1.4950759 6.4647608 1.436015
2.3214309 10.091365 1.982461
1.405605 6.1428571 1.0530421
1.365296 5.9987078 0.88187301
1.343967 5.9368739 0.73242301
1.24015 5.5079541 0.55443603
1.232551 5.5040078 0.43400899
1.168124 5.2448859 0.30427799
1.3962359 6.2691102 0.36369801
1.255144 5.6665978 0.217118
1.329639 6.0361409 0.119126
1.208176 5.5152011 0.013533
1.289362 5.918664 -0.079568997
1.291631 5.9623909 -0.16790999
1.277205 5.9290509 -0.24494
1.410627 6.585546 -0.34964401
1.34272 6.3042898 -0.398487
1.363879 6.4774008 -0.50934798
1.338078 6.5046091 -0.57893699
1.2306139 6.1262441 -0.43865201
1.264195 6.3700199 -0.33715001
1.278932 6.4836788 -0.26689199
1.211189 6.178009 -0.17327499
1.2255861 6.2901621 -0.084178999
1.098619 5.673595 0.013852
1.220108 6.3404741 0.124444
1.14981 6.0127668 0.22900601
1.067433 5.6173201 0.32378301
1.104609 5.850028 0.45809901
1.1165299 5.9510388 0.59460402
1.107885 5.9430122 0.72740501
1.142586 6.168951 0.89932603
1.119027 6.0811601 1.033263
1.107983 6.060657 1.179549
1.893888 10.428055 2.2937319
1.635275 9.0639191 2.2284131
1.704707 9.5166311 2.5899401
1.636921 9.1996117 2.748677
1.3067729 7.4441948 2.6253209
1.7361521 9.9579363 3.780549
1.536859 8.8757076 3.6093609
1.7526619 10.192245 4.4180121
1.196164 7.0046248 3.221122
1.362934 8.0373983 3.904633
1.350608 8.0210791 4.1002469
1.766013 10.715541 6.2336879
1.372852 9.7308245 5.8468428
0.94591999 7.1858201 2.9041519
0.96132398 7.3688102 2.779362
1.296155 10.026044 3.511584
1.229164 9.5952692 3.102459
1.105401 8.7091789 2.582458
0.79176402 6.4166622 1.39921
0.76515299 6.3215661 1.064085
0.79048502 6.5949011 0.95210999
0.809277 6.8186159 0.82620102
0.75590402 6.4325829 0.636042
0.78831702 6.7761331 0.52492201
0.72234303 6.272429 0.357535
0.70327097 6.169704 0.232296
0.746907 6.6207662 0.12841401
0.75013298 6.7192378 0.016205
0.69669801 6.3746128 -0.176494
0.729074 6.7431722 -0.273913
0.69581503 6.5060859 -0.33969
0.71654201 6.7742038 -0.42113301
0.76248097 7.3717642 -0.57026398
0.64397597 6.5214262 -0.57129502
0.639777 6.8011632 -0.47954801
0.58602101 6.3885388 -0.33305401
0.70698601 7.806663 -0.31656501
0.63594198 7.1139269 -0.196578
0.57362503 6.5890589 0.015853001
0.56159902 6.5387082 0.126487
0.54209697 6.3985858 0.24022099
0.54126698 6.478013 0.36810699
0.54351002 6.5970812 0.50934798
0.530366 6.529983 0.643372
0.54722202 6.835669 0.82512599
0.71642101 9.0816679 1.305853
0.718952 9.2504482 1.550472
0.45761901 5.9776268 1.147771
0.73746097 9.7821388 2.123034
0.73440498 9.8945074 2.400553
0.73565102 10.068213 2.704313
0.497219 7.0298719 2.2601931
0.518453 7.453105 2.5951331
0.67209297 9.826683 3.6838629
0.63913298 9.6751938 4.14223
0.436542 6.9782538 3.524529
0.49802199 8.2695408 4.5712261
0.48645601 8.2369604 4.736249
0.55776602 9.634882 5.7420239
0.544155 9.5929127 5.9053531
0.371952 7.8470421 5.4968462
0.32585701 10.099009 5.3388209
0.28694901 9.9718122 4.5220389
0.183791 7.6190958 2.647305
0.160625 7.3689671 2.1681809
0.19308899 9.3579798 2.507396
0.166958 10.445804 1.745785
0.105808 8.4676037 0.83160502
0.087830998 7.7495918 0.596349
0.041297998 7.4802408 -0.098259002
-0.037023 6.0658789 -0.52882499
-0.143007 8.0667086 0.019338001
-0.153308 8.1150446 0.156432
-0.165858 8.2705507 0.30945301
-0.18199401 8.1319189 0.62588698
-0.211373 8.9783115 0.88193703
-0.21436 8.6767492 1.0443389
-0.29651999 9.7150326 2.351639
-0.300686 9.4933395 2.544399
-0.31364101 9.5519381 2.811326
-0.34711501 10.209595 3.276227
-0.33921 9.3386364 3.4950459
-0.397847 10.293694 4.4007258
-0.49022499 11.024631 6.0891709
-0.40950799 8.3367147 5.2789078
-0.55650699 8.3561459 5.2965469
-0.83362001 11.326058 5.724772
-0.61159497 7.931931 3.398561
-0.84424001 10.785816 4.3350258
-0.78162098 9.4230328 2.7814131
-0.79048502 9.3972969 2.5262849
-0.914177 9.7793293 0.75577497
-0.97789598 10.205083 0.38350901
-0.96043903 9.9016809 0.191734
-0.66712201 6.2709732 -0.48525801
-0.62318802 5.6100841 -0.49208799
-0.77963799 6.7333331 -0.47583699
-1.420313 9.6955004 4.6934218
-1.616266 10.771346 6.0099401
-1.3131 8.5479136 5.3152361
-1.5396791 9.4377756 6.69104
-1.4868391 8.5505438 5.3340869
-1.508674 8.4435844 4.5320182
-1.439783 6.816299 -0.43069699
-1.223888 5.7284002 -0.45073399
-1.124396 5.145606 -0.45917201
-1.359457 6.08566 -0.43774199
-2.9467759 12.772439 0.031417999
-2.934953 10.246846 6.1181941
-1.6871409 5.1790209 -0.41912499
-1.5325969 4.6315088 -0.42530099
-1.82529 5.431396 -0.40223801
-1.784035 -5.8362322 1.634853
-1.6344171 -5.368958 1.6508991
-1.354448 -5.3988652 1.637354
-1.920319 -7.6544409 2.321419
-1.420629 -5.6905479 1.571198
-1.402705 -5.6465049 1.407691
-1.898316 -7.6415529 1.905062
-1.480189 -5.9879699 1.334908
-1.89134 -7.6512418 1.705704
-1.496665 -6.0848331 1.199668
-1.479533 -6.0452819 1.0400209
-1.43617 -5.8976068 0.87009603
-1.340333 -5.5318842 0.68487698
-1.1549751 -4.7910452 0.483971
-0.942738 -3.9305761 0.31102499
-1.286207 -5.362608 0.42434201
-1.2043329 -5.0469851 0.29381901
-1.398528 -5.860796 0.341196
-1.291449 -5.4398928 0.20915601
-1.289952 -5.4616928 0.108161
-1.0823621 -4.6065378 0.011342
-1.349064 -5.7416229 0.014137
-1.543734 -6.6043949 -0.089091003
-1.16775 -5.0220699 -0.141911
-1.1992691 -5.1847701 -0.214918
-1.1171809 -4.855422 -0.258656
-1.125635 -4.9181991 -0.31191599
-1.123894 -4.9632988 -0.39158201
-1.067899 -4.8193798 -0.430338
-1.081228 -4.9886098 -0.35833001
-1.057487 -4.9341559 -0.26197401
-1.049845 -4.9262691 -0.203417
-0.998191 -4.710578 -0.13252901
-1.205366 -5.720892 -0.076797999
-1.079729 -5.1541028 0.012622
-1.1125081 -5.3413591 0.105155
-1.265443 -6.1109881 0.233455
-1.040023 -5.0517921 0.29206601
-1.023985 -5.003191 0.39296299
-1.001642 -4.9229689 0.49335301
-1.109508 -5.4855518 0.67340899
-1.06612 -5.3026009 0.77530998
-1.060822 -5.3079758 0.90453798
-1.317329 -6.5914459 1.123255
-1.5172 -7.5915279 1.29368
-1.519096 -7.6469769 1.492628
-1.511593 -7.6555438 1.688782
-1.501343 -7.6501288 1.8862489
-1.494585 -7.6623349 2.0913081
-1.4851021 -7.6607642 2.2954559
-1.087559 -7.6167679 2.263284
-1.082098 -7.6416359 2.067502
-1.0764461 -7.6654429 1.8728451
-1.0676171 -7.666821 1.675245
-0.77498502 -5.612844 1.084779
-0.69972003 -5.1555519 0.74579602
-0.76851398 -5.7119608 0.69347799
-0.68059301 -5.1030502 0.50556999
-0.73096102 -5.529407 0.42917499
-0.75914103 -5.7941189 0.33090699
-0.703978 -5.4216628 0.20452
-0.66680902 -5.1823068 0.100704
-0.99459898 -7.7298279 0.150208
-0.62490201 -4.90131 0.011843
-0.97622198 -7.7279119 -0.102318
-0.96030301 -7.673214 -0.21283799
-0.68684202 -5.5400348 -0.22544999
-0.95078498 -7.6689868 -0.31208599
-0.653184 -5.3188262 -0.278202
-0.94350201 -7.6828589 -0.401853
-0.92566001 -7.6102748 -0.473952
-0.60640699 -5.2911639 -0.46429601
-0.82178199 -7.4754581 -0.527937
-0.61535197 -5.719245 -0.29862899
-0.80615401 -7.4926081 -0.391224
-0.7974 -7.4925451 -0.30429801
-0.56359398 -5.3543811 -0.148184
-0.78846699 -7.4907651 -0.20730799
-0.53582901 -5.1477408 -0.067984
-0.77972603 -7.4908791 -0.098929003
-0.51354998 -4.9896269 0.012023
-0.77442002 -7.52423 0.018130001
-0.56538099 -5.556272 0.107641
-0.54957902 -5.4635882 0.20541801
-0.747549 -7.5188251 0.42786601
-0.73795801 -7.5105238 0.58069801
-0.72986603 -7.5173211 0.74169099
-0.47914001 -4.9948788 0.60376197
-0.55962801 -5.8339472 0.705185
-0.47513101 -5.0140572 0.72195798
-0.486866 -5.2018209 0.87305701
-2.0794711 -23.380079 6.2878962
-2.0512371 -23.368273 6.9004769
-2.0234859 -23.362082 7.5205402
-2.0021541 -23.430347 8.1683207
-1.894217 -23.443062 10.661245
-1.840776 -23.456547 11.860513
-0.419837 -5.6866131 3.392549
-0.67300898 -9.8932543 6.692081
-1.049933 -23.40667 10.620785
-1.024137 -23.436676 10.021651
-0.94103998 -23.392904 8.1322279
-0.91160703 -23.331762 7.4884739
-0.88617098 -23.372259 6.8801589
-0.60562199 -18.846804 3.1510489
-0.240207 -7.753984 1.112025
-0.23033699 -7.7238302 0.92977399
-0.22083899 -7.703763 0.75683999
-0.21121401 -7.677392 0.59097898
-0.201667 -7.6520801 0.43346301
-0.192605 -7.6432261 0.286015
-0.18348099 -7.6313772 0.14712401
-0.173949 -7.599988 0.018221
-0.16535801 -7.6085472 -0.099967003
-0.15623 -7.5925169 -0.209014
-0.14703301 -7.5704002 -0.30579099
-0.137674 -7.536592 -0.39132801
-0.128976 -7.5375042 -0.46605399
-0.111075 -7.503993 -0.57747602
-0.041375998 -7.4385781 -0.52219498
-0.024186 -7.436945 -0.38609201
-0.015631 -7.4509101 -0.30090901
-0.0070329998 -7.4531741 -0.205135
0.00159 -7.491354 -0.098403998
0.010216 -7.4759722 0.017919
0.018823 -7.4625902 0.143829
0.027481999 -7.474721 0.27962199
0.036144 -7.481926 0.42368299
0.044856999 -7.4927158 0.57655501
0.053534999 -7.4967461 0.73621798
0.062097002 -7.4857469 0.90074497
0.070932001 -7.5049491 1.075842
0.16119599 -6.5844932 3.154722
0.17974 -6.17416 3.5454659
0.17107099 -5.6513758 3.3639159
0.44149601 -9.2650776 6.1478291
1.716502 -26.382811 8.4791603
0.56792402 -7.7587228 1.115147
0.57605499 -7.7465811 0.934672
0.58281398 -7.7167969 0.75996703
0.59046799 -7.6995649 0.59420103
0.597947 -7.680418 0.436234
0.60564399 -7.664731 0.287622
0.61259699 -7.6400561 0.14772201
0.62219399 -7.6487131 0.018394001
0.62999898 -7.6353922 -0.100637
0.63656998 -7.607523 -0.210115
0.64567697 -7.6104331 -0.30845499
0.65447199 -7.609622 -0.39651299
0.660918 -7.581718 -0.470496
0.67596501 -7.5523949 -0.58345997
0.70845598 -7.5230551 -0.65875202
0.74081302 -7.4949431 -0.52870703
0.79060298 -7.5520749 -0.099744
0.80035001 -7.5607352 0.018223001
0.80980802 -7.5663738 0.146662
0.81706202 -7.5516138 0.284145
0.82993501 -7.588522 0.43227601
0.84153301 -7.612988 0.58936799
0.84987199 -7.6078539 0.75175798
0.86118698 -7.6291699 0.923801
1.157825 -8.8731537 4.510767
1.267674 -9.458993 5.4779992
1.216465 -8.9200296 5.533061
1.148017 -8.2750206 5.4192109
1.277627 -8.7619724 6.1957049
1.318987 -8.7614784 6.0664172
1.0599819 -6.8787489 4.514739
0.93551999 -6.0247588 3.856019
1.2895499 -8.3047132 5.3152552
1.378625 -8.8110514 5.4812231
0.77983397 -4.9466052 2.9794099
0.79153699 -4.9833698 2.8963101
0.82525301 -5.1570868 2.8817761
1.416762 -8.788332 4.7034702
1.413636 -7.8421302 0.95880401
1.414911 -7.7975469 0.77824301
1.4219019 -7.7848158 0.60893202
1.429781 -7.7769942 0.44776699
1.434435 -7.7518868 0.29491201
1.443054 -7.7483039 0.151903
1.4515409 -7.7441149 0.018885
1.4559259 -7.7182031 -0.103172
1.463129 -7.7073822 -0.21592
1.472899 -7.710176 -0.317009
1.482159 -7.7102599 -0.40760699
1.4824769 -7.6640329 -0.48258999
1.501507 -7.6672649 -0.601183
1.556278 -7.7564058 -0.68967003
1.601495 -7.7945938 -0.55860901
1.624788 -7.8161578 -0.414451
1.6410331 -7.848743 -0.323829
1.65124 -7.8522201 -0.220845
1.667438 -7.883903 -0.105851
1.686264 -7.9276199 0.019427
1.699316 -7.9437671 0.15656701
1.706153 -7.930881 0.30347201
1.716311 -7.9334679 0.45964
1.7344 -7.972403 0.62780499
1.737849 -7.9440169 0.79857099
1.751399 -7.961843 0.98090398
5.2962298 -23.429773 5.8118401
5.3311281 -23.458628 6.444447
5.4338689 -23.783527 7.1764741
1.648845 -6.9214368 3.586647
1.835499 -7.6656651 4.1648231
5.7748442 -23.995083 13.618022
2.7276471 -10.428472 7.1444759
1.436318 -5.4655991 3.665777
2.524009 -9.470849 5.8315029
6.431571 -23.910883 13.662468
2.2897699 -8.396575 4.168571
6.638195 -23.799431 8.5824137
6.6596651 -23.770248 7.9169369
6.6242418 -23.435085 6.5238862
2.3521769 -8.2486095 1.856307
2.3608501 -8.2428513 1.641553
2.364872 -8.2210007 1.429493
2.373318 -8.2146282 1.225683
2.3868949 -8.2259178 1.030601
2.3909891 -8.2045984 0.83922797
2.4026639 -8.2093382 0.65818602
2.402751 -8.1745434 0.48247999
2.4143701 -8.1791325 0.31902301
2.414561 -8.1450663 0.163735
2.4264109 -8.1504679 0.020383
2.4384861 -8.1565599 -0.111827
2.4443309 -8.1417761 -0.233968
2.4593 -8.1574001 -0.34408599
2.470885 -8.1616945 -0.442707
2.4789331 -8.1542501 -0.52689397
2.494576 -8.1380882 -0.65496403
2.5330369 -8.1292019 -0.74230099
2.570091 -8.1158266 -0.59761399
2.5883901 -8.1084223 -0.44187701
2.6015761 -8.1173429 -0.34424701
2.6099479 -8.1112108 -0.23451801
2.625936 -8.1286364 -0.112208
2.6395559 -8.1386404 0.020508001
2.6506529 -8.140748 0.165007
2.668937 -8.1648474 0.32134101
2.6828029 -8.1752739 0.48722899
2.694864 -8.1800709 0.66271299
2.701823 -8.1694221 0.84499401
2.71668 -8.182621 1.03741
2.7327361 -8.1992502 1.238879
2.751127 -8.2227459 1.4489419
2.7592969 -8.2156076 1.659228
2.7699759 -8.2158995 1.8764009
3.2075181 -9.4030561 2.9225149
3.0037711 -8.7395706 3.2100379
8.2395449 -23.883423 9.4492693
8.1658754 -23.581352 9.9993868
3.144506 -9.0132713 4.3271699
3.1011159 -8.8559437 4.4942808
3.0737531 -8.7453995 4.6728139
3.002301 -8.5106602 4.7684069
2.9763839 -8.4061804 4.9205179
2.9430561 -8.2816296 5.0448961
2.0172191 -5.6556191 3.572531
2.8957641 -8.1187706 5.1284499
2.8814211 -8.0491552 5.2544971
3.1502769 -8.7682581 5.8925352
3.267837 -9.0625029 6.249126
3.3240681 -9.1521168 6.5712509
3.3524711 -9.0989609 6.7850618
3.703155 -9.7372952 6.4027891
3.6821949 -9.6486149 6.1444259
2.795809 -7.3006458 4.487339
9.3489399 -23.914679 10.969209
3.5912809 -9.1243 3.667398
3.589576 -9.0890989 3.394444
3.5911241 -9.0623598 3.1262801
3.601609 -9.0582476 2.867485
3.613265 -9.0570297 2.6121941
3.6181159 -9.0388327 2.3556359
3.6236479 -9.0224266 2.1042089
3.6471169 -9.0505714 1.868136
3.6482971 -9.0234137 1.626454
3.6406629 -8.974679 1.388293
3.6129191 -8.876791 1.153169
3.5930829 -8.7989273 0.93334401
3.6012139 -8.7898092 0.73091698
3.619679 -8.8058252 0.53912997
3.652555 -8.8566914 0.35838699
3.6780591 -8.8893414 0.185413
3.70472 -8.9245768 0.023161
3.7097211 -8.907547 -0.126748
3.5555351 -8.509572 -0.25383201
3.282598 -7.8308978 -0.34291601
3.3936491 -8.0696564 -0.45447499
3.4530621 -8.1844234 -0.549169
3.5949931 -8.4661531 -0.707748
3.7212141 -8.6519661 -0.821073
3.7434621 -8.5940142 -0.65804797
3.6580579 -8.345192 -0.47303599
3.7010159 -8.4167328 -0.371324
3.465862 -7.8573031 -0.236362
3.7733741 -8.5011616 0.022293
6.3162189 -14.054385 1.18564
6.3518519 -14.09011 1.517784
3.9798911 -8.8013124 1.162248
4.0162148 -8.8543396 1.393685
4.009109 -8.8115978 1.6177191
4.023942 -8.8171587 1.8555371
4.027082 -8.797081 2.0938439
4.0245981 -8.764883 2.3335309
4.0618391 -8.8192177 2.6010671
4.07446 -8.8197145 2.8578899
4.049541 -8.7391291 3.0890219
11.032265 -23.664328 9.7652493
11.224606 -24.004145 10.617932
11.351627 -24.057409 12.741139
2.8832159 -5.7107601 3.9318399
4.312562 -8.4443197 5.0099339
3.980269 -7.7713928 4.4013848
4.3521872 -8.4733467 4.5625329
4.388413 -8.5195742 4.3440971
4.588685 -8.8327942 3.7227471
4.6204481 -8.4345264 -0.38839301
4.6359329 -8.4395733 -0.499892
4.566546 -8.2904501 -0.58514303
4.7737021 -8.6192169 -0.75815302
4.747798 -8.4794264 -0.847215
4.810123 -8.4980783 -0.68549901
4.7452922 -8.3383789 -0.49807701
9.3062611 -15.546479 6.2937479
5.28198 -8.7775087 4.1047921
5.1682291 -8.5660009 4.2738352
8.5397644 -14.080184 7.887454
4.6896052 -7.6518941 5.1514301
4.6913848 -7.5366478 5.9911551
4.7318778 -7.446876 6.0409951
5.0175142 -7.8360701 6.0357971
5.482234 -8.36831 4.5348382
6.1891599 -8.9858503 -0.143324
6.1770229 -8.9238625 -0.43830901
5.7855411 -8.3376369 -0.526851
5.8141851 -8.3581963 -0.62944698
5.8445859 -8.3605061 -0.78492898
5.9635868 -8.3644724 -0.72114301
6.074542 -8.4784374 -0.54147202
6.4635491 -8.9993458 -0.447469
10.239661 -14.049653 0.98446602
9.440033 -12.581364 5.463594
6.5246062 -8.6748428 4.0597458
6.508049 -8.6319847 4.3316789
5.9820542 -7.8583479 4.9784541
5.6696639 -7.21981 6.4233069
5.305995 -6.6293578 5.3703098
10.042523 -12.428744 8.8168325
6.3380899 -7.788588 4.8096228
7.0495868 -8.6017008 4.4562812
11.913917 -14.098667 1.420329
11.9367 -14.092462 1.045807
11.968119 -14.063369 0.355912
7.9603362 -9.3320389 0.0294
7.7245922 -9.013299 -0.32671401
7.8227978 -9.1065359 -0.484835
7.277739 -8.4324322 -0.688622
7.2367148 -8.3457603 -0.84998798
7.284987 -8.323204 -0.964288
7.42103 -8.3998156 -0.78682798
12.592975 -14.055864 0.045233998
12.623654 -14.057289 0.36414
12.812587 -14.069791 2.7277751
7.0108981 -7.4697609 4.9068179
5.7595201 -5.9956779 5.610764
10.010453 -10.04134 7.8235512
7.0918512 -7.0644312 4.7945042
13.935675 -13.407251 1.899038
13.651354 -13.012347 0.36348501
9.7547913 -9.2336531 -0.369688
9.4626551 -8.9363613 -0.52563202
10.301673 -9.7061586 -0.73480302
8.9217501 -8.386488 -0.75699002
9.0060873 -8.4265432 -0.94903398
9.0974369 -8.4332333 -1.081447
9.0515919 -8.3130484 -0.86273801
9.8321609 -8.9671021 -0.53741503
9.8416624 -8.9549026 -0.36622199
9.0965786 -7.9164791 4.8319459
10.027041 -8.7058372 5.672781
10.519954 -9.0486107 7.3317699
10.457799 -8.974062 7.603734
6.3105698 -5.2770262 5.75598
11.127293 -8.8959284 5.3282189
11.916378 -9.0821209 -0.777834
10.902255 -8.2494297 -1.051993
11.29161 -8.4619856 -1.2301331
11.271276 -8.3654318 -0.98535597
10.702428 -7.5279021 4.8938351
11.041617 -7.7473488 5.4047418
11.034485 -7.7042508 6.1003971
11.533374 -7.413106 5.4936371
16.220215 -9.3177109 1.836978
12.155665 -6.8708391 3.3783641
6.74897 -2.7586269 4.9204669
6.7196841 -2.6741371 4.9517741
6.812254 -2.6926789 4.8550611
6.8588662 -2.701911 4.7819452
7.3022299 -2.847245 4.663157
11.331589 -3.4891181 4.7508621
11.388217 -3.492101 5.0886102
11.45128 -3.4969161 5.4274378
10.339751 -3.144362 5.1763711
9.731699 -2.9471259 5.1256471
10.027776 -3.0240991 5.5340991
7.392756 -2.220088 4.2591338
7.3844151 -2.208251 4.4241161
7.258038 -2.1612799 4.5056739
7.2434082 -2.1477821 4.643436
7.184031 -2.121115 4.7374401
7.1498208 -2.1019919 4.8341889
7.0506482 -2.0550821 4.9562678
7.074019 -2.0263159 5.14885
7.0102358 -1.972895 4.9862361
7.193881 -2.0065711 4.9500852
7.2292099 -2.0073929 4.8668408
7.1978598 -1.9897 4.7230082
7.2860012 -2.0049601 4.6444831
9.8250122 -2.703645 6.2629828
7.3105431 -2.0025971 4.5097642
7.4000401 -2.0178909 4.40271
9.808548 -2.662425 5.6079888
10.11809 -2.7338531 5.5378361
10.023601 -2.695837 5.2323279
7.750257 -2.074789 3.8428609
11.716593 -3.1220441 5.4963851
8.1367216 -2.1580231 3.5961659
11.351701 -2.996614 4.7043691
13.484141 -3.5428131 5.2143688
13.668456 -3.5234971 3.7812769
14.90706 -3.059104 3.2933791
11.763888 -2.3715811 3.530103
11.474749 -2.299428 3.7532461
13.787517 -2.7296381 5.2567558
8.3283129 -1.6287529 3.625237
8.0662451 -1.5677921 3.7248089
7.9528251 -1.536165 3.8795781
8.0004311 -1.5357389 4.1065488
8.1822062 -1.560796 4.4012108
9.1486483 -1.7341419 5.1379189
5.7146368 -1.076355 3.3378761
10.327667 -1.932807 6.2512898
5.7249689 -1.064549 3.578922
5.7669482 -1.065438 3.7090261
5.6763191 -1.0418791 3.743598
5.4883361 -0.994223 3.7641909
5.3028789 -0.93522602 3.7677591
5.429204 -0.93155003 3.771596
5.49575 -0.929842 3.6943331
5.6458821 -0.94850999 3.7136669
5.7554379 -0.96005499 3.6903181
5.8146129 -0.96298701 3.6223831
5.7147331 -0.93963802 3.4457259
5.6373038 -0.92019397 3.278635
7.4371638 -1.205125 4.157197
7.7421632 -1.2453361 4.143333
8.0992785 -1.293131 4.1344571
7.9260659 -1.256052 3.843724
8.1371984 -1.279839 3.733892
11.901716 -1.815362 4.181942
11.462415 -1.721161 3.409601
12.652544 -1.869851 3.094521
8.5163927 -0.78746998 2.9708359
11.678378 -1.052513 4.6984172
11.404926 -1.014537 4.891398
8.477253 -0.72437298 4.2888522
5.952529 -0.49472401 3.295805
5.4205508 -0.44418201 3.1218221
6.2901211 -0.51543802 3.622628
5.276691 -0.42622599 3.1496761
5.5542059 -0.44216001 3.4244549
5.4505749 -0.42754999 3.4578021
5.3223791 -0.41127601 3.4627881
6.3109479 -0.47294399 4.2710052
5.6305618 -0.39568201 3.949497
6.497746 -0.456622 4.5577731
6.5712018 -0.43115199 4.5088539
6.1184201 -0.38718501 4.0633788
5.616858 -0.34890601 3.6505389
5.572762 -0.33967999 3.5310309
5.7523432 -0.34392199 3.5417459
5.601377 -0.32837701 3.3383501
5.884336 -0.338119 3.383177
5.7800331 -0.32539201 3.194351
10.266391 -0.56601298 5.432723
10.002695 -0.53982502 5.0495739
10.015008 -0.52884197 4.803576
11.992853 -0.61933702 5.4435391
10.638203 -0.53699398 4.5504031
11.706843 -0.57732803 4.696558
10.906997 -0.51251 3.7927859
10.997158 -0.50396699 3.530617
5.9390659 0.059275001 1.747131
5.7130089 0.063653998 1.832341
5.7826161 0.071135998 2.0087759
10.162173 0.16038799 4.3417988
9.8342657 0.16662 4.4584589
8.362711 0.151402 4.0061479
9.8920574 0.17908999 4.7387791
9.4716797 0.182467 4.775444
9.8024883 0.200212 5.1804509
9.9203806 0.214145 5.4751329
6.4257579 0.146164 3.6893361
6.0020232 0.143499 3.5720191
6.0035362 0.150501 3.6909759
6.0576892 0.158888 3.8325
5.2867651 0.144811 3.4306791
5.2098179 0.154796 3.5174961
5.4642458 0.187746 3.8256631
5.2042389 0.20299301 3.5659549
5.2642879 0.217573 3.49213
5.6024938 0.238059 3.6374781
5.6613832 0.24713901 3.5839491
7.2688241 0.33421299 4.3292708
6.383038 0.30090401 3.6679289
6.5572829 0.31674999 3.62239
7.2044411 0.34801099 3.9798939
9.8614388 0.48782 5.2168899
9.725296 0.49240699 4.9086828
5.6310372 0.29165599 2.7007151
5.4771342 0.29005301 2.4862339
5.3552799 0.289837 2.2911119
5.4980102 0.303956 2.206382
5.2274609 0.29508001 1.958234
5.4509492 0.314046 1.896557
5.8356519 0.34299999 1.874791
11.566739 0.67985398 3.7159879
5.8109312 0.34830901 1.71242
5.172627 0.31607801 1.388254
5.5468988 0.34540501 1.344667
5.8739371 0.37260801 1.273778
5.4700451 0.35336599 1.049428
10.835751 0.72523099 1.556722
12.914807 1.196146 -0.91049701
11.955048 1.135245 -0.62343901
11.36729 1.092734 -0.461189
10.865553 1.05722 -0.300466
10.701109 1.116485 0.82789201
10.538533 1.111879 1.0406539
10.809259 1.153118 1.307992
8.3059273 0.90556699 1.396199
5.3898888 0.59396702 1.038146
10.153999 1.118973 1.95576
5.9165988 0.65896499 1.288373
5.3015919 0.59669298 1.290814
5.2412271 0.59600699 1.413095
5.1294999 0.58933902 1.518827
5.0793591 0.58956599 1.639946
5.0841479 0.59610897 1.7781039
5.2589769 0.62280202 1.980654
5.2102871 0.62318301 2.1026089
5.6366539 0.68082303 2.425467
5.1967421 0.63381499 2.373111
5.1192112 0.630404 2.4704721
5.3469701 0.66475803 2.7160931
5.5067191 0.69111699 2.9324279
6.2453399 0.79119802 3.4735911
5.5427642 0.70873499 3.2074471
5.819694 0.751028 3.4912319
5.462605 0.71139902 3.3857081
5.7508659 0.75573498 3.6684029
5.4773908 0.72627997 3.584146
5.2548261 0.709198 3.57847
5.100852 0.71258497 3.6037941
7.2236371 1.009137 5.103559
5.350698 0.772865 3.7015431
5.543602 0.81389201 3.7136691
5.5662112 0.82381803 3.6499951
5.5311842 0.82520199 3.536911
5.7179179 0.85986298 3.5537889
6.1543131 0.93280101 3.7034259
7.0677309 1.071247 4.2530861
5.6121202 0.85729301 3.2587221
5.3851528 0.82903397 3.0064189
6.3517628 0.97784197 3.5460579
5.7752609 0.89596099 3.0879951
5.2281952 0.81731999 2.667479
6.3415899 0.99137598 3.2355449
5.1716752 0.814641 2.507622
5.3756299 0.85316902 2.467242
5.264966 0.84188598 2.277755
5.2924361 0.85258597 2.1479859
5.2772632 0.85643297 1.999571
5.0136881 0.819646 1.7646509
4.9628239 0.81725103 1.613071
5.047276 0.837183 1.504999
5.1000018 0.85202599 1.385149
5.1777239 0.87119502 1.270355
5.400218 0.915084 1.1853631
5.3191051 0.90770602 1.033069
5.9238229 1.0179861 1.004419
8.1187677 1.395179 1.376585
7.1056881 1.229586 1.0337
8.1270514 1.416065 0.992612
7.2077179 1.264509 0.71862602
8.0085764 1.40501 0.79847401
7.3570261 1.299516 0.57486802
5.8880382 1.047105 0.33865201
6.6839728 1.196664 0.254015
10.254661 1.835941 0.389714
6.4695382 1.166042 0.126699
6.25388 1.134676 0.015235
6.1310482 1.119749 -0.081867002
6.594944 1.2124031 -0.18455499
7.217494 1.3355221 -0.29642999
6.4973769 1.210081 -0.34311199
6.3922548 1.198199 -0.40206599
7.2222629 1.371159 -0.56566101
7.1080952 1.383761 -0.63130802
6.3088422 1.258635 -0.45160699
6.2267728 1.257324 -0.329788
6.324574 1.284721 -0.26063699
6.025166 1.2311929 -0.169258
5.6503658 1.161455 -0.075773001
5.8580718 1.2112449 0.014338
5.8095808 1.208268 0.114366
6.4321718 1.345552 0.245828
5.3588929 1.127532 0.310101
5.5815258 1.181157 0.438995
7.1944742 1.5312231 0.72233999
7.0357308 1.505983 0.86574298
5.7685452 1.241765 0.84583199
5.6875639 1.231248 0.972444
5.2513938 1.1432149 1.028932
5.586319 1.222936 1.237608
5.5909562 1.230759 1.385115
5.25881 1.163988 1.442852
4.9565911 1.103125 1.493711
5.3496642 1.1971281 1.758132
5.324059 1.197884 1.895573
5.251091 1.187866 2.0135829
5.3810568 1.2238359 2.2112169
5.4388561 1.243616 2.3834319
5.6960149 1.309369 2.649313
5.5069728 1.272648 2.707195
5.608459 1.302954 2.9024479
5.470787 1.277658 2.9684
5.9905448 1.406382 3.3953259
5.4722681 1.291405 3.22736
6.0808601 1.435027 3.586287
5.1183228 1.2141531 3.129735
6.4704428 1.534899 3.9565251
6.2808771 1.497627 3.968493
6.1641102 1.4773411 4.0088911
6.9013381 1.654031 4.4883542
5.8235211 1.402866 3.8856361
6.0468998 1.471524 4.1999621
5.886075 1.461359 4.2436018
5.8743401 1.487417 4.148982
5.8119998 1.4859951 3.97609
5.465301 1.404106 3.6603351
5.2373071 1.352007 3.4209199
5.3166008 1.379064 3.3757589
5.3888679 1.4044811 3.3132961
5.096036 1.334474 3.023752
5.4462309 1.4329391 3.1073899
6.1346312 1.614061 3.5001619
5.422029 1.433296 2.9632609
5.5044842 1.461933 2.8709381
5.146471 1.37324 2.5512519
5.3171072 1.425378 2.495317
5.0862479 1.369823 2.2502551
5.0805292 1.374604 2.108932
5.046144 1.371583 1.9557821
4.963706 1.3553669 1.787292
4.93957 1.354934 1.642694
5.060967 1.394546 1.5442261
5.0475368 1.397154 1.403003
5.350769 1.487771 1.343726
5.0522089 1.41107 1.135232
5.4838338 1.538489 1.09042
5.5318551 1.558884 0.96041203
4.9156551 1.3913929 0.73231602
5.51508 1.567982 0.68989402
5.2460508 1.498072 0.53576899
5.183084 1.486594 0.41490501
5.06076 1.457872 0.29822901
5.1193051 1.481168 0.19936199
6.2107449 1.796955 0.24186601
4.8485022 1.408921 0.097312003
4.7978339 1.400233 0.01198
4.4283009 1.29796 -0.060616001
4.5070071 1.326714 -0.12931
4.6031518 1.360819 -0.19385301
4.5761518 1.35861 -0.24782
5.0512018 1.506032 -0.32586101
5.0109181 1.5066839 -0.40263
4.7653379 1.456997 -0.43441999
5.1030169 1.586171 -0.375137
4.8619919 1.523636 -0.264514
4.8284912 1.519289 -0.20442601
4.3789291 1.383417 -0.12639301
4.4043331 1.3970701 -0.060695
4.7451472 1.511236 0.011936
4.8815598 1.560927 0.098777004
4.9390869 1.585637 0.19405299
4.9860101 1.607082 0.296646
4.6624699 1.508777 0.37708199
4.724052 1.534759 0.487782
4.949811 1.614453 0.62646002
5.1175799 1.675751 0.771905
4.5725279 1.503147 0.80432701
4.929234 1.626745 0.99376899
4.991457 1.6537091 1.137982
4.7746549 1.588028 1.217443
4.6122708 1.539916 1.302604
4.9820018 1.669789 1.545637
4.726459 1.590253 1.599329
4.7862792 1.616567 1.7548079
4.68888 1.589736 1.85174
4.7531848 1.6177011 2.0118539
4.8053498 1.641681 2.169328
4.6971331 1.610801 2.2509041
4.6996379 1.617767 2.380621
4.8698759 1.682693 2.5972581
5.01127 1.738063 2.8025539
4.7793789 1.663862 2.7923999
4.8821139 1.705984 2.9684939
4.6419382 1.628114 2.9267449
4.9783649 1.752605 3.2438071
5.0386238 1.780395 3.3797619
5.0849662 1.8034199 3.499794
5.0620408 1.80853 3.627697
5.0084128 1.815654 3.727628
5.061552 1.86156 3.6925039
5.1439319 1.905436 3.635771
5.2293792 1.943994 3.6189749
5.1881819 1.935536 3.502167
5.3074231 1.987051 3.4830999
4.720736 1.773651 3.0003741
5.3401909 2.0063901 3.394083
4.7092209 1.775565 2.8888431
5.0272241 1.902142 2.965838
5.4505248 2.069541 3.0805211
5.2895269 2.0154481 2.8533831
4.7090521 1.800534 2.414747
4.848701 1.860384 2.3541191
4.524375 1.74198 2.071115
4.5129499 1.743598 1.938581
4.558629 1.7673301 1.82862
4.7134628 1.833663 1.756776
4.6365461 1.809939 1.596275
4.5771208 1.7928669 1.4460191
4.4814868 1.761418 1.289924
4.4883428 1.770129 1.167353
4.9148002 1.944912 1.143905
4.7366948 1.880802 0.97571802
4.911252 1.9567159 0.88344097
4.6049819 1.84089 0.71089
4.5714359 1.833645 0.59265202
4.0345912 1.623751 0.427091
4.4811559 1.809521 0.371865
4.1917739 1.6983351 0.256109
3.997323 1.624956 0.16141801
3.960453 1.615334 0.082436003
3.9537461 1.617954 0.010239
3.907136 1.604177 -0.05548
3.851444 1.586545 -0.114646
4.5137119 1.8654881 -0.19724301
5.4879279 2.2681241 -0.239815
4.1705942 1.72935 -0.234392
4.1957288 1.74549 -0.28094
4.3822622 1.835036 -0.365574
5.4867949 2.29755 -0.457715
4.3131819 1.8297091 -0.408452
4.13622 1.777351 -0.31603399
4.7324772 2.046602 -0.26767701
3.7930551 1.645569 -0.166979
3.903702 1.698959 -0.117177
3.9202771 1.7115951 -0.056189001
4.2172279 1.847075 0.011035
3.9268849 1.725352 0.082667001
4.007906 1.766503 0.163848
3.8643601 1.708595 0.239261
4.876132 2.16272 0.41045499
4.18085 1.8601511 0.44937399
3.841424 1.7144769 0.50616097
4.703454 2.105772 0.73870099
4.6976042 2.1097009 0.86053097
5.1195059 2.3063231 1.075001
6.3113999 2.8432679 1.325276
4.7338309 2.139199 1.124233
4.4147549 2.001184 1.172762
4.4007812 2.001466 1.2951
4.4583631 2.0338969 1.441503
4.7103658 2.155472 1.661323
4.523519 2.076318 1.728886
4.9320321 2.2707551 2.0307491
4.5305052 2.092268 1.99958
4.4316292 2.052844 2.086436
4.714747 2.190635 2.356596
4.4036942 2.05233 2.3270559
4.9207902 2.300272 2.7381499
4.668745 2.1890509 2.7245369
4.532021 2.1313679 2.763413
4.5957608 2.167856 2.9167211
4.7682161 2.2559769 3.138428
4.4441628 2.1089699 3.023365
4.683291 2.229105 3.2803421
4.3419771 2.0728381 3.121026
4.8478332 2.3281519 3.6293759
7.62887 3.7512679 5.8206649
4.8713698 2.4094059 3.602071
4.8483429 2.4050181 3.5106781
4.5930939 2.285043 3.244529
4.4367728 2.2137051 3.047451
5.0405402 2.514951 3.4621561
4.4844642 2.243999 2.9835
4.5384851 2.2776151 2.9147291
4.4641552 2.2468071 2.757616
4.6719661 2.358192 2.7651811
4.239243 2.1459539 2.395149
4.2509398 2.158071 2.283426
4.2968998 2.187675 2.185673
4.6487441 2.37361 2.2298269
4.5905552 2.350615 2.06653
4.845871 2.4884479 2.037405
4.3989358 2.2653971 1.718714
4.349575 2.246362 1.570011
4.298573 2.2263401 1.4240071
4.3109102 2.2390821 1.3013099
4.2937589 2.2365 1.171351
4.4770808 2.3385921 1.09314
4.5919871 2.405405 0.99245298
4.4671841 2.3466351 0.84322399
3.6870961 1.94231 0.59737498
4.2971878 2.270076 0.584768
4.2925091 2.2739761 0.47703201
4.492394 2.3865409 0.39142901
4.2665868 2.2729399 0.27374801
3.798002 2.0289681 0.161082
3.7129869 1.989097 0.081183001
3.7272129 2.002284 0.010141
3.739543 2.0144999 -0.055794999
4.0799928 2.2040169 -0.12763201
3.8973069 2.111172 -0.179004
3.773443 2.0497389 -0.22293501
3.5997789 1.960821 -0.25342
3.699904 2.0265009 -0.32460499
3.5984859 1.992723 -0.358601
3.7375889 2.092473 -0.30069801
3.7960539 2.136791 -0.22614899
3.9461241 2.2272949 -0.182999
4.875443 2.751827 -0.22609501
3.882622 2.1973939 -0.122789
4.121223 2.3387539 -0.062245
4.1944661 2.386754 0.011567
3.6551189 2.085475 0.081106
4.246717 2.4295499 0.183025
3.792336 2.1754401 0.247572
5.2159419 3.000134 0.463009
4.2915888 2.4750869 0.48651201
4.267312 2.467685 0.59312999
3.7482131 2.1733141 0.62107098
3.8200531 2.220892 0.73839802
4.3919392 2.5601931 0.97327298
3.9059999 2.283005 0.97913003
5.0240488 2.9364901 1.259395
4.082129 2.3923061 1.144778
4.1424088 2.4340401 1.287078
4.1997938 2.4743209 1.433884
4.1034279 2.4239759 1.528478
4.115056 2.4372921 1.661292
5.0027199 2.9708929 2.176127
4.3842731 2.610523 2.044585
4.514111 2.6949339 2.245934
4.2145782 2.522752 2.226546
4.3916059 2.6356561 2.4531929
4.359664 2.623373 2.5648489
4.4666319 2.6948071 2.756304
4.4589882 2.697269 2.875495
4.4864068 2.720973 3.0118041
3.9203961 2.383929 2.7298901
4.5959468 2.7947199 3.2002959
4.2248621 2.5757921 3.041168
4.2660661 2.6077089 3.1622131
7.2280331 4.452929 5.7293568
6.2880778 3.9142749 5.1826749
6.340632 3.9879689 5.128603
4.055934 2.5773649 3.039274
4.7070551 2.9988091 3.4302149
4.103683 2.621109 2.897089
4.1382632 2.6499641 2.820642
4.1753788 2.6805799 2.737808
4.2824368 2.756336 2.690901
4.2152519 2.720027 2.5288379
4.1451378 2.681603 2.3646381
4.0713782 2.640595 2.1997099
4.0845141 2.655864 2.0813291
4.1999269 2.73785 2.008878
4.7583718 3.1097651 2.1260331
4.881496 3.198334 2.0271511
5.8715429 3.8470089 2.4382901
4.1346302 2.7158561 1.586502
4.3354621 2.8549831 1.527011
4.1466541 2.7375641 1.331067
4.0006862 2.647871 1.160769
4.9943738 3.305547 1.44908
3.9938321 2.6500061 1.037298
5.874289 3.8977351 1.5257
3.9481521 2.6263111 0.90783697
4.9580879 3.29812 1.140061
3.927351 2.619055 0.78883398
3.715457 2.483983 0.64065301
3.6618021 2.4542749 0.53041202
3.7098291 2.4927101 0.438916
3.6038029 2.4275451 0.33434799
3.7456801 2.529448 0.25593999
3.600476 2.4374821 0.162652
4.484252 3.0357881 0.20257699
3.8484991 2.6119189 0.089643002
3.6320331 2.471169 0.010529
3.784157 2.5811031 -0.060169
3.273402 2.238306 -0.109143
3.3484941 2.295361 -0.16395199
3.4469321 2.3687251 -0.21712799
5.0214262 3.4507141 -0.31630799
3.757864 2.5888319 -0.28211299
3.578238 2.477355 -0.334885
4.4717731 3.095984 -0.418511
3.5571849 2.4873071 -0.37840199
3.6244569 2.5594909 -0.31148201
3.2430091 2.3014331 -0.206448
3.2917221 2.3417521 -0.16314501
3.261951 2.3262801 -0.110271
3.4505391 2.4668281 -0.055716999
3.551188 2.545017 0.010472
3.526468 2.53351 0.083687998
4.158268 2.994736 0.191698
3.6362121 2.6251731 0.253961
3.8342199 2.77491 0.36419299
3.3736269 2.447541 0.40930301
3.7385221 2.718899 0.556216
3.6746421 2.6789761 0.65186203
4.0055318 2.927336 0.82905
3.9987149 2.9294801 0.94901699
3.841908 2.821471 1.031587
3.9222381 2.8874781 1.178406
3.989979 2.945024 1.32848
3.8706861 2.8639131 1.416387
4.1728539 3.094991 1.666209
4.0973568 3.0463669 1.7735111
4.3985991 3.278266 2.0517671
4.4989948 3.3612239 2.2502711
6.1571832 4.6112008 3.286206
4.2938142 3.2234769 2.4338009
4.2653942 3.209892 2.5568669
4.2173672 3.1814179 2.6629779
4.1573639 3.1437249 2.753969
4.1662912 3.1580861 2.884675
7.524931 5.7177181 5.4247322
6.1871948 4.7126002 4.6273661
7.3551431 5.6291938 5.8577919
7.2220922 5.5406752 5.9046431
4.1509428 3.1998589 3.537075
4.011415 3.122092 3.556783
4.0607839 3.190882 3.5360129
4.1404748 3.269074 3.4965501
4.2102618 3.3321071 3.482923
7.1759558 5.6927772 5.7931151
4.1754479 3.352087 2.8291831
4.0523462 3.2610049 2.622016
4.159915 3.3555241 2.559891
4.210537 3.4044249 2.4544439
4.4401498 3.5986121 2.4415741
3.8199251 3.1032839 1.972056
3.92558 3.196682 1.893427
4.1075811 3.3528299 1.841761
3.8153501 3.121675 1.581005
4.0360889 3.310102 1.535478
4.7911792 3.9386849 1.661505
3.5412371 2.9180329 1.110209
3.871053 3.197351 1.0865819
3.1274879 2.589308 0.77733999
3.090663 2.564867 0.67115098
3.047838 2.5353019 0.568286
3.243099 2.7041049 0.50807297
3.2599261 2.72455 0.41722
3.0441959 2.550251 0.30557799
3.160032 2.653543 0.23366401
3.4327371 2.889333 0.16784801
3.7704339 3.1810601 0.095077001
3.3803041 2.8586299 0.010611
3.215764 2.7258849 -0.055374999
3.2322259 2.7462959 -0.116736
3.919863 3.3383889 -0.207937
3.4673009 2.9599049 -0.236674
3.4148979 2.9220331 -0.27785501
4.0602632 3.4742529 -0.33036599
3.392458 2.916487 -0.34424499
3.3534949 2.9101701 -0.38708699
3.76685 3.2996459 -0.351538
3.375783 2.970958 -0.233459
3.5741911 3.152936 -0.19248199
3.253823 2.8770421 -0.119543
3.133944 2.7775371 -0.055007
3.2625611 2.898289 0.01046
2.951704 2.628279 0.076173
3.1297989 2.7933731 0.156932
3.169131 2.8350861 0.240788
3.0680289 2.7510619 0.31708601
3.481086 3.1287351 0.45963499
3.1268921 2.8169539 0.50639999
3.0952139 2.794934 0.59780002
3.0625739 2.771915 0.69027102
3.2668591 2.963711 0.84446901
3.2091789 2.918184 0.93872899
3.8309431 3.491694 1.2541291
3.9002309 3.5630701 1.4151649
4.2551322 3.8963611 1.697181
5.164691 4.7402778 2.2482829
4.1989961 3.8629301 1.9818701
8.699708 8.0034266 4.1061449
3.8243361 3.5264599 1.945623
3.710392 3.429379 2.0244999
7.042798 6.5550418 4.6083221
6.9414239 6.4757419 4.785347
4.1574788 3.896668 3.1441071
4.0631289 3.8171051 3.19998
4.0111518 3.7770619 3.2780161
3.9937539 3.769434 3.3752351
3.9790349 3.7642851 3.464216
3.950784 3.879174 3.402987
3.8851969 3.823643 3.2432461
3.939826 3.8864191 3.1765821
4.01333 3.9681411 3.1141541
4.0650978 4.0286689 3.023993
4.178092 4.1502872 2.968617
7.982564 7.9478688 5.3953829
8.0340548 8.0177269 5.1450419
3.4777181 3.4787281 2.1013651
3.5083289 3.517504 1.990653
3.8708329 3.889976 2.0524681
8.9678593 9.012208 4.7551122
4.094336 4.1241598 2.0186191
3.71768 3.753464 1.6943049
3.8658609 3.912143 1.6178809
3.3269961 3.3746631 1.269482
3.3055999 3.360754 1.140545
3.116787 3.176157 0.963054
3.2197299 3.288698 0.881136
3.1289141 3.203367 0.74828798
2.924377 3.0009229 0.60063797
3.05142 3.138582 0.52670902
3.7358961 3.8426089 0.64485699
2.9545901 3.046052 0.416731
2.9835491 3.08306 0.330129
3.17747 3.291095 0.259049
5.362587 5.5543509 0.437195
3.2021599 3.3243821 0.17267001
2.9678569 3.088311 0.082552001
3.0201769 3.1500659 0.01046
2.9969151 3.133074 -0.056951001
3.265687 3.4220121 -0.13019
3.11078 3.2672739 -0.182192
3.870044 4.0647349 -0.22666
3.0764489 3.2387359 -0.231904
2.931587 3.093425 -0.26347801
3.751333 3.9584241 -0.33715299
3.253845 3.449476 -0.36488301
2.9616399 3.1690719 -0.378142
3.0294199 3.2719309 -0.313023
3.6427591 3.9343679 -0.376398
3.1280429 3.3942311 -0.239629
3.7283411 4.0456119 -0.28561601
3.1203499 3.39378 -0.186187
3.826386 4.161684 -0.228315
3.0873611 3.3657329 -0.125706
2.8305261 3.0929489 -0.055073
2.903362 3.17994 0.010321
3.0405221 3.33795 0.087021999
2.931587 3.225872 0.163063
3.097549 3.4164541 0.261141
2.8124969 3.1093099 0.32260999
2.9730589 3.2944939 0.43578899
3.095011 3.4376459 0.55657399
3.0077231 3.3485129 0.64519298
2.7152569 3.0299759 0.679887
3.129072 3.4999211 0.89881098
3.224267 3.614846 1.048297
4.1480889 4.6505761 1.348657
3.3753829 3.7931211 1.228496
3.217407 3.623982 1.298205
4.0640082 4.5882812 1.803008
3.51337 3.975909 1.701634
4.1556439 4.7247992 2.353384
4.0279212 4.5903311 2.4470301
3.873034 4.4241638 2.5118949
3.837445 4.3937922 2.6443591
3.8825319 4.4558568 2.83074
3.8343101 4.4108419 2.94611
3.7758329 4.3537669 3.0450161
3.7443621 4.327632 3.157634
3.693789 4.2792091 3.2447829
3.673219 4.2653918 3.349088
3.6231761 4.2171712 3.417125
3.5525601 4.1447001 3.452457
3.5440459 4.1445069 3.537344
3.482933 4.0922351 3.626579
3.404933 4.038455 3.6960959
3.391531 4.0606799 3.6224501
3.4208231 4.1151438 3.546824
3.4243121 4.1290808 3.4796579
3.4593561 4.1812048 3.4321451
3.431298 4.1571212 3.3129251
3.495188 4.2445512 3.271368
3.5294399 4.2962999 3.1915171
3.5625179 4.3468552 3.10111
3.5437629 4.3342228 2.958122
3.6213341 4.4396172 2.8880429
3.647758 4.482625 2.7681041
3.667058 4.5170422 2.6373401
3.7105241 4.5814538 2.518573
3.743567 4.6332388 2.386775
3.7889769 4.7005911 2.2581
3.7974789 4.722362 2.1049161
3.857034 4.8078389 1.976791
3.2454529 4.05513 1.527858
3.240087 4.058085 1.3911
3.2107079 4.0308752 1.246839
3.4604299 4.3547511 1.203765
2.8145671 3.5504341 0.86740899
3.062187 3.8720181 0.824929
4.1518488 5.2498531 1.118476
2.963877 3.7566619 0.68591702
2.860889 3.6348071 0.55657399
2.5506589 3.248405 0.40558901
2.761256 3.5250289 0.34455201
2.8752301 3.6793289 0.26442
2.646219 3.3943851 0.161007
3.091702 3.9753399 0.097061999
2.779314 3.5822411 0.010867
2.6176319 3.3819489 -0.056175999
2.768111 3.5849659 -0.12466
2.7688401 3.594528 -0.18324099
3.4023621 4.4169712 -0.22516701
2.6828761 3.4913039 -0.228586
3.253041 4.2332759 -0.277165
2.601408 3.3934431 -0.26434201
2.607749 3.4181199 -0.33081901
3.2010241 4.1957579 -0.406082
2.544637 3.367727 -0.36798
2.5466721 3.403167 -0.29838699
2.675792 3.593082 -0.23257799
2.7040229 3.6398039 -0.18312
3.331466 4.484386 -0.225611
2.709902 3.6565759 -0.125265
2.855644 3.862607 -0.063097998
2.91906 3.957988 0.011788
3.712038 5.033196 0.01499
2.4428861 3.32041 0.079448998
2.4927659 3.3964591 0.15760501
2.736062 3.7370441 0.262272
2.5257349 3.458194 0.32951501
2.5141361 3.4507151 0.41927201
2.5356619 3.4887609 0.51894403
2.887219 3.9821849 0.705073
2.775702 3.8377409 0.791471
2.619909 3.6312079 0.85725498
3.147614 4.3733139 1.166114
2.9471209 4.1047878 1.222617
3.8393641 5.3475151 1.592765
2.9123781 4.0662642 1.339865
2.558778 3.581341 1.294757
3.7734721 5.2814641 1.909399
4.3417988 6.1218872 2.8070359
3.822511 5.4029951 2.6519721
5.8669782 8.333746 4.6198859
5.9175529 8.4472055 5.199018
5.7421889 8.2171574 5.2967758
5.1035209 7.3213229 4.9243832
4.038774 5.8082361 4.060709
4.5765562 6.6143589 4.9434681
4.508419 6.532074 5.0196662
4.2925401 6.2658758 5.1257658
4.1776099 6.2212982 5.1308632
4.2421622 6.349247 5.061131
4.4591069 6.6907492 5.2156782
4.4136119 6.6391711 5.0421162
4.5204258 6.817018 5.027247
4.5633059 6.8990569 4.9213691
3.9435201 5.9922371 3.958154
5.284019 8.0291452 5.303627
3.9631441 6.037303 3.8158469
5.460516 8.3394566 5.024817
5.4806399 8.391428 4.8005519
4.1385241 6.384984 3.0488379
3.9834759 6.1771669 2.553134
2.3882909 3.7319989 1.186937
3.5880041 5.621058 1.613459
2.655544 4.1709099 1.070084
2.7279179 4.2955952 0.974213
3.4655769 5.457171 1.2376519
2.25893 3.5662301 0.70543402
2.5071931 3.9683499 0.67286301
2.4396541 3.8714089 0.55060101
2.206893 3.5110769 0.407251
2.352531 3.7524419 0.34079301
2.99389 4.7754512 0.43370199
2.2640009 3.620574 0.241806
2.3316419 3.73839 0.16482
2.3871119 3.8372531 0.087099001
2.3846741 3.843272 0.010841
2.4478929 3.9554 -0.061101999
2.367496 3.8354471 -0.124055
2.2954841 3.7284601 -0.176825
2.2805319 3.7138231 -0.226253
2.26034 3.690552 -0.26754999
2.1534419 3.5344119 -0.31846699
2.4253299 4.0226002 -0.40949401
2.5099931 4.207087 -0.343905
2.2318499 3.76071 -0.22702999
2.255132 3.810009 -0.178802
2.26846 3.842695 -0.122817
3.0032699 5.0874391 -0.1626
2.4198921 4.1101208 -0.062651999
2.2284751 3.795074 0.010549
2.205972 3.7667711 0.084132001
2.263468 3.8752561 0.16788501
2.3086951 3.963244 0.25972801
2.3946381 4.1217871 0.36680099
2.356005 4.0661469 0.461492
2.3834281 4.124505 0.57318002
2.8603129 4.949749 0.68786299
2.332006 4.0463691 0.66945702
2.262418 3.936177 0.75867099
2.427094 4.2340488 0.93435001
2.5209589 4.409668 1.099274
3.2528951 5.7053308 1.589002
3.195683 5.6200018 1.7318881
3.1323891 5.523603 1.867915
3.071806 5.4314752 2.0012219
3.056371 5.4188519 2.161025
3.0109291 5.3527951 2.2969849
2.95648 5.2703242 2.421366
2.929594 5.2366309 2.5633581
2.9154849 5.2256379 2.7124801
2.927428 5.2614079 2.883873
4.1189661 7.4232011 4.2793999
3.1080141 5.6320629 3.5494399
4.2980018 7.7884531 4.9084401
3.072197 5.6132989 3.932888
2.89698 5.3520269 4.1071019
2.818862 5.2660041 4.1793919
3.769088 7.201129 5.1404672
2.6467359 5.0855088 3.4109559
2.6486821 5.1037068 3.300539
2.6434209 5.1080809 3.1735771
2.6318009 5.100122 3.032402
2.645046 5.1404409 2.914151
2.660919 5.1860762 2.791862
2.6790521 5.2363729 2.66624
2.691287 5.2754002 2.5299661
2.7276831 5.3621092 2.4105799
2.7862761 5.4930582 2.3036399
2.8577809 5.6502981 2.1994159
3.009634 5.9677238 2.1435339
2.804076 5.5762181 1.836026
2.983922 5.951086 1.7833821
2.244781 4.5030141 1.088909
2.2653821 4.5575991 0.97440201
2.0300851 4.0961399 0.763946
2.006762 4.0609212 0.64930803
1.926402 3.9097371 0.52443898
2.3156991 4.7136278 0.51573402
2.1794081 4.4492478 0.38122499
1.998408 4.0917711 0.257862
3.1062789 6.3789172 0.26541701
1.9794869 4.0770202 0.087350003
2.983423 6.1447601 0.131651
2.120645 4.3806872 0.011666
2.0002029 4.144145 -0.060444999
1.953189 4.0587831 -0.123972
1.944169 4.0520692 -0.18150599
1.950933 4.0782971 -0.234703
2.01986 4.235023 -0.29007301
1.969057 4.1532912 -0.35368201
2.377459 5.0755119 -0.48861399
1.934691 4.1807079 -0.323387
1.930454 4.1971059 -0.23983601
1.879959 4.0998502 -0.182151
1.88516 4.1238198 -0.124798
1.938139 4.2527781 -0.061391
1.918058 4.221694 0.011114
2.0068519 4.430799 0.093746997
2.0035591 4.4372249 0.182128
1.9859509 4.4118762 0.27397501
2.041827 4.5501289 0.383757
2.0340049 4.5468211 0.489151
2.0267179 4.5446739 0.59874499
1.748006 3.9319749 0.61681402
2.0824499 4.6989622 0.85888201
2.012666 4.5557652 0.95353001
1.9538569 4.4365911 1.049143
2.8055179 6.3704438 1.506451
1.947281 4.4356098 1.172057
1.9464231 4.4475532 1.300534
2.49577 5.7208552 1.836026
2.8402519 6.5104842 2.0894461
2.4132919 5.5493708 1.940755
2.8043311 6.4690681 2.4491179
2.3298969 5.3917632 2.1967959
2.524581 5.8422952 2.380358
2.3814321 5.5286469 2.4120679
2.42871 5.6564488 2.62975
2.2004139 5.1411872 2.534951
3.520997 8.2531624 4.2977309
2.3182549 5.4514608 2.986172
2.2846749 5.3898439 3.0931339
2.2569089 5.3415952 3.1996651
2.207221 5.2409382 3.2641981
2.160497 5.1466942 3.320966
2.1539569 5.1478329 3.429692
2.1357291 5.1209369 3.5091159
2.114465 5.0865698 3.573262
2.1277759 5.1522722 3.7619531
2.044019 5.0153198 3.7895451
1.9845001 4.9346728 3.6416581
1.997172 4.9996719 3.5683711
2.0213771 5.0773492 3.5449629
2.072474 5.2233148 3.5540161
2.06517 5.2225871 3.451683
2.146734 5.44732 3.4835629
2.049722 5.2188859 3.218399
2.082629 5.3208241 3.1528029
2.7938011 7.1622272 4.0620451
3.203907 8.2702217 4.248054
2.411273 6.3109808 2.526788
2.335856 6.1564121 2.111774
2.1778851 5.8008561 1.4991699
1.630167 4.3573418 1.006839
1.664975 4.4661779 0.91253799
1.727963 4.6516132 0.82921499
1.837368 4.9637532 0.75870901
1.761489 4.7757878 0.61248302
2.513222 6.8139048 0.87386602
1.888202 5.1376801 0.53752798
1.772579 4.8404059 0.39664599
1.662912 4.5573168 0.27471
1.784775 4.9089642 0.195399
2.570801 7.070899 0.281454
1.757512 4.8515129 0.099450998
1.885293 5.2231512 0.01331
2.2933819 6.3537521 0.016191
1.730863 4.812777 -0.067183003
1.733873 4.8387842 -0.14147
1.757408 4.922431 -0.21108399
2.044627 5.747962 -0.31672299
1.654718 4.668993 -0.30623901
1.933676 5.4965639 -0.44835499
1.75126 5.0528369 -0.466207
1.551538 4.544632 -0.33711201
1.557763 4.5977359 -0.25202
1.65934 4.9162922 -0.20955101
1.632696 4.8559289 -0.141003
1.7380461 5.1891961 -0.071884997
1.64925 4.94311 0.01249
1.591809 4.7894659 0.097273998
1.788958 5.403583 0.21293201
1.54469 4.6839652 0.27928901
1.554598 4.7324762 0.38329601
1.529847 4.6754079 0.483091
1.562937 4.7953448 0.60686803
1.591242 4.9015002 0.73870099
1.565594 4.841608 0.85031199
1.721112 5.3437071 1.074813
1.7414761 5.428525 1.233801
3.4706471 10.861983 2.7589419
4.1558309 13.062518 3.67208
2.337755 7.3775821 2.2765479
2.2860899 7.2437382 2.4360981
2.2377169 7.119215 2.59218
1.95584 6.2732949 2.633003
2.697216 8.6866722 3.8856981
