# .PCD v0.7 - Point Cloud Data file format
VERSION 0.7
FIELDS x y z
SIZE 4 4 4
TYPE F F F
COUNT 1 1 1
WIDTH 1555
HEIGHT 1
VIEWPOINT 0 0 0 1 0 0 0
POINTS 1555
DATA ascii
4.555975 1.510237 1.285784
4.5300059 1.507472 1.155125
4.7694869 1.593322 1.088275
5.2007141 1.744109 1.05018
4.6056299 1.5504971 0.81207299
4.7957988 1.620723 0.72564697
4.8204532 1.635306 0.61248302
4.828187 1.644187 0.50087798
4.1181722 1.407741 0.33488601
4.4762292 1.535956 0.26798201
4.3169122 1.486896 0.170801
4.4695301 1.545282 0.091146
4.8502169 1.683211 0.012306
4.4285998 1.542661 -0.061601002
4.335866 1.516017 -0.126421
4.243588 1.489287 -0.18162701
4.6060119 1.622493 -0.25352299
3.9127171 1.383395 -0.256567
4.0453601 1.440876 -0.33043599
4.3341222 1.5664769 -0.40176499
4.1405458 1.5183131 -0.309591
4.488225 1.657655 -0.248391
5.922471 2.187371 -0.327766
4.2582021 1.578324 -0.183402
4.6404791 1.726151 -0.13627
4.112422 1.535175 -0.057661001
4.3169951 1.617259 0.01105
4.4715471 1.681093 0.092070997
4.0007448 1.509401 0.15996
4.0392699 1.529299 0.24457601
4.1681161 1.5836281 0.343095
4.324111 1.648647 0.454456
4.08006 1.56103 0.52563399
4.030055 1.547276 0.618801
5.0179081 1.933238 0.89860398
4.5318751 1.752035 0.93021297
4.714592 1.828981 1.094409
4.4707732 1.740373 1.160769
4.3979282 1.717845 1.264825
4.3963218 1.723102 1.3890131
4.3926868 1.7275701 1.513819
4.5920382 1.8121279 1.714777
4.454391 1.763788 1.791837
4.4496012 1.767876 1.918496
4.4001088 1.7541291 2.0235801
4.4109192 1.764375 2.15347
4.78088 1.9188091 2.467448
4.6137509 1.857952 2.507232
4.9129381 1.985065 2.799751
4.687542 1.900335 2.7909501
4.861167 1.977295 3.0123019
5.1568332 2.104547 3.313807
4.680851 1.916636 3.1087141
5.0399919 2.0705249 3.446043
5.075057 2.0918281 3.560745
4.8279858 2.0031159 3.527565
4.888454 2.054877 3.710429
4.891283 2.08285 3.6399629
4.8695822 2.0869861 3.511467
7.4415121 3.1892531 5.3660908
5.0452142 2.169193 3.5623779
4.4754529 1.930382 3.0825701
4.6053548 1.992764 3.0841041
4.7031598 2.041569 3.050482
4.6540661 2.0266809 2.913734
5.0531392 2.207454 3.0426531
4.6653671 2.044508 2.6913681
4.4518709 1.9571199 2.451416
4.523766 1.994994 2.368094
6.0878782 2.693217 3.0175829
4.3170629 1.9158289 2.0176871
4.4538059 1.982704 1.953459
4.3112302 1.925233 1.765914
4.4802842 2.0069749 1.705261
4.4496698 1.999465 1.564514
4.4229069 1.993613 1.427111
4.1983361 1.898263 1.234291
4.139936 1.877648 1.099861
4.74086 2.156832 1.127194
4.7240372 2.1558101 0.99414498
4.638401 2.1232381 0.85245401
4.5204191 2.075582 0.71301901
3.7631741 1.733186 0.49851599
4.2489882 1.962917 0.45963499
4.715929 2.185276 0.39994499
3.9818709 1.850752 0.24864601
3.878247 1.8080651 0.160072
3.7821319 1.76861 0.080470003
4.1990418 1.969509 0.011117
4.1565919 1.955488 -0.060339998
3.7553301 1.772046 -0.114288
3.813951 1.805123 -0.17040899
3.5752671 1.697238 -0.20546301
3.5469551 1.688852 -0.242869
4.5311651 2.170393 -0.38659501
3.6360431 1.762453 -0.35226101
3.596813 1.764114 -0.28123
4.3473439 2.1322241 -0.33991301
3.7847781 1.867224 -0.219098
4.2189622 2.0875211 -0.190101
6.1578388 3.0468681 -0.277464
3.8261769 1.898705 -0.117562
3.7660041 1.874303 -0.055257
3.8160341 1.904732 0.010223
3.8327889 1.918664 0.082608998
3.6580169 1.8364871 0.153119
3.9539981 1.990832 0.250682
4.596951 2.321259 0.39626199
4.108109 2.0804031 0.45220801
3.879905 1.970499 0.52360302
3.921633 1.997429 0.630862
4.3637309 2.2289889 0.81883103
4.4083018 2.2582109 0.94826502
4.1711998 2.1428771 1.014877
4.1905308 2.1589589 1.140545
4.1895909 2.164578 1.263272
4.379137 2.2689581 1.450816
4.4631228 2.3190639 1.613071
4.3394132 2.261189 1.699683
4.8695168 2.544615 2.05492
4.3995838 2.305567 1.990281
4.5423322 2.3871031 2.1921129
4.1745882 2.2000389 2.13902
4.381588 2.3156459 2.373709
4.2440481 2.249269 2.421257
4.4510589 2.3656089 2.6633379
4.3578539 2.3225789 2.7247641
4.3223982 2.3101349 2.813174
4.1660562 2.232811 2.812211
4.0906339 2.1985099 2.8542359
4.2213702 2.275099 3.03286
4.1951251 2.267257 3.093271
7.439631 4.020751 5.4856038
4.934217 2.6815319 3.789923
4.8557081 2.697654 3.8032341
7.3155279 4.0865302 5.5539289
4.1333079 2.315213 3.0731361
7.4900188 4.1954269 5.5688682
4.388864 2.4650631 3.183594
4.4049368 2.4808359 3.1071429
4.3319979 2.4463911 2.95998
4.0036068 2.2670791 2.640929
4.1868572 2.3772819 2.6566451
4.3228192 2.461128 2.6283
4.0155029 2.292352 2.330781
4.2079139 2.4086809 2.322304
4.278254 2.455548 2.236042
4.1668911 2.3980789 2.053829
4.2161469 2.4329519 1.950483
4.6031981 2.663435 1.989062
4.083775 2.36924 1.639964
4.2874951 2.494092 1.590778
4.1277199 2.407572 1.405663
3.8647389 2.2602129 1.199358
4.0823522 2.3938489 1.145013
4.1722379 2.4530759 1.047451
4.8395271 2.8454089 1.214975
3.37503 1.989643 0.75007498
4.6627712 2.74879 1.036265
3.9813671 2.353327 0.77284598
3.9001629 2.3114469 0.649876
3.8698521 2.299571 0.54164201
4.1696782 2.4842949 0.476641
3.6617761 2.1874549 0.32821101
5.040719 3.0112021 0.45180801
3.604219 2.158766 0.237905
4.0161691 2.41185 0.17524999
3.4586761 2.0825341 0.077811003
3.485137 2.1039879 0.0097580003
4.0469751 2.4495909 -0.062139001
3.671205 2.2279811 -0.118195
3.865046 2.351769 -0.182716
3.9813211 2.4288609 -0.242117
3.857908 2.3597341 -0.27958301
3.661536 2.2513289 -0.33074301
3.4102011 2.11871 -0.350003
3.6599829 2.2975471 -0.303359
3.896024 2.4583681 -0.239162
3.700175 2.3408029 -0.176825
3.6636119 2.323637 -0.119405
3.5809741 2.277071 -0.055743001
3.7413659 2.385169 0.010635
3.6048 2.304009 0.082455002
3.6179409 2.3183329 0.16074499
3.6901071 2.3706281 0.248364
4.381424 2.81475 0.294893
3.682368 2.3717129 0.33703399
3.8567541 2.4903741 0.45083901
3.7646539 2.4371059 0.53961098
3.7173989 2.412657 0.635261
3.6301429 2.362025 0.72372901
3.844069 2.507581 0.87869102
3.8715 2.5319009 1.001128
3.899945 2.556977 1.128316
3.9786279 2.6151149 1.275434
3.7922671 2.4989359 1.335959
4.0527921 2.6773779 1.557796
3.937844 2.608017 1.64062
4.330647 2.8754129 1.944222
4.2677231 2.8407929 2.054256
3.9814229 2.656899 2.0447941
3.959918 2.6492021 2.159663
4.0716729 2.730829 2.348223
3.9652579 2.666142 2.408653
4.1210871 2.7778759 2.6259639
4.1220059 2.785475 2.745055
3.8981719 2.64082 2.7026589
3.885277 2.638684 2.7943151
6.2119699 4.2294102 4.6188259
5.9239821 4.053525 4.6562328
9.919095 6.8211021 8.1241398
6.2934399 4.3710799 5.361546
6.2834229 4.473269 4.5890169
6.3337102 4.5201659 4.4664311
4.0831032 2.921155 2.7701769
6.6572952 4.7627978 4.516634
4.1636529 2.9861021 2.707252
4.0435009 2.9070611 2.5103829
5.2021022 3.7400329 3.2296929
4.1829238 3.0146761 2.4696081
4.1291628 2.9832261 2.309118
3.989068 2.8890791 2.104115
3.9533529 2.8702209 1.95755
4.430964 3.2248449 2.049665
4.3124032 3.1462381 1.854229
3.9421661 2.8831451 1.566347
3.874676 2.8406999 1.413283
3.753957 2.7589159 1.248005
3.7428019 2.757421 1.124789
4.0678492 3.004189 1.094409
3.779563 2.798085 0.90031499
3.723402 2.7632101 0.77482402
3.6224201 2.6948011 0.64718002
3.5067289 2.6150789 0.52635098
3.198802 2.391237 0.39219999
3.588109 2.6887629 0.34501299
3.50441 2.6324151 0.24819399
4.043355 3.04461 0.18934301
3.3061271 2.4955161 0.079834998
3.2663491 2.4714539 0.0098179998
3.4297099 2.60133 -0.056543998
3.160696 2.40309 -0.109281
3.1064601 2.367553 -0.157738
4.0519609 3.0956049 -0.26472199
3.8606579 2.956574 -0.30062401
3.74071 2.8785291 -0.363195
3.8476861 2.98944 -0.42478001
3.0539629 2.3956101 -0.272477
3.0596199 2.411561 -0.20224801
3.1086161 2.4560399 -0.159998
3.131408 2.4799621 -0.109941
3.214798 2.5520949 -0.053916998
3.079859 2.4508109 0.0094339997
3.343756 2.6671679 0.082436003
4.0972352 3.2681839 0.101012
3.3412819 2.671551 0.160035
3.405283 2.7292161 0.24711999
3.0570619 2.4559751 0.30174199
3.1772411 2.558604 0.40060499
3.430135 2.7688329 0.53041202
3.2058549 2.5939569 0.59113097
3.558259 2.885946 0.76559401
3.622973 2.9454169 0.89392197
3.6822081 3.0006959 1.0279911
3.5762789 2.921293 1.117263
3.6935561 3.024183 1.278798
3.724947 3.0571139 1.417516
3.8496439 3.16695 1.598718
3.8342481 3.1617539 1.726261
3.7945211 3.1364009 1.841231
3.7891259 3.1393621 1.971684
4.362844 3.6232469 2.4227171
4.1313949 3.4391439 2.436691
4.0662432 3.3929181 2.5365641
7.6137352 6.3830228 5.2495918
4.0958018 3.4744389 3.396867
4.0150599 3.41398 3.4187069
3.92571 3.353739 3.4844921
3.8581791 3.327179 3.5648091
3.867321 3.366509 3.5105901
3.889416 3.4016571 3.4247301
3.94225 3.4559491 3.400748
4.025774 3.537442 3.389384
4.0437751 3.5615971 3.311878
6.5541792 5.8133321 4.8340402
3.9840059 3.550247 2.689985
7.388979 6.6153421 4.495616
3.5811379 3.2212059 1.9300261
3.7446439 3.3761499 1.88572
4.280086 3.8679299 2.003854
3.844171 3.482106 1.663461
3.6635981 3.3262899 1.455614
4.447741 4.0382371 1.767168
3.842025 3.4964449 1.391618
3.0647869 2.7956271 1.003679
2.9595871 2.7059669 0.86786997
3.154119 2.8905661 0.81908399
2.9338479 2.694973 0.665712
3.1197059 2.8723819 0.60787499
3.0111251 2.778883 0.49302101
3.112987 2.879586 0.41643801
2.943573 2.7292211 0.30887699
2.9012251 2.6962349 0.224279
3.1237259 2.9097791 0.15969899
2.9560549 2.760016 0.077946
3.0344341 2.839797 0.0099609997
3.0746391 2.8841259 -0.055374999
3.1264639 2.9395781 -0.118112
3.2125831 3.0275819 -0.178277
3.324245 3.1401081 -0.237399
3.4187469 3.236903 -0.29106
3.132421 2.9796269 -0.332661
3.799938 3.614584 -0.40355
3.114506 2.990272 -0.376405
2.8697381 2.780997 -0.28053001
3.3637569 3.2749259 -0.243725
2.944828 2.8737259 -0.166172
2.980648 2.9154429 -0.114756
2.898159 2.841357 -0.053312998
2.9970961 2.9451859 0.010072
2.981014 2.9362011 0.080643997
2.8103819 2.7745681 0.147736
3.080693 3.0485041 0.245424
2.9200871 2.896301 0.31647301
3.1153121 3.0971169 0.431391
2.8785379 2.868377 0.48895901
3.654963 3.642061 0.62084502
2.910763 2.907239 0.58971202
3.2907679 3.2944219 0.77811998
3.352803 3.3643279 0.90934098
3.194051 3.2124889 0.98039901
3.1685281 3.194226 1.088573
3.312417 3.3469739 1.261461
3.8400321 3.889112 1.607722
3.467545 3.5200391 1.5846699
4.0277929 4.0982728 1.995979
8.8769588 9.0532856 4.7421498
3.605201 3.6853721 2.0657859
3.426048 3.5103769 2.0954721
7.7868552 8.0156879 5.3526168
4.0730958 4.2025409 2.950161
3.9543929 4.0895538 3.0057731
3.8862519 4.0284438 3.0885489
3.858114 4.0085769 3.1935079
3.8118689 3.969753 3.274436
5.556901 5.8140192 5.0864811
5.1174049 5.3916678 5.0166831
5.736197 6.1859388 5.5914969
5.5765109 6.027751 5.3266959
4.2687268 4.646512 3.754046
6.0745931 6.6121979 5.3421779
3.7949679 4.140461 3.223875
3.7967801 4.1521158 3.1044919
3.8220961 4.1895571 2.9964299
3.860003 4.2409968 2.890744
3.927551 4.3252869 2.798342
4.5911231 5.0678649 3.0997419
4.6480632 5.1427188 2.9613171
3.2268281 3.5785739 1.93077
7.3418212 8.1802588 3.8180521
3.74962 4.1875958 1.802719
3.0128591 3.3726461 1.330314
3.8117709 4.2669621 1.683071
3.2024779 3.593307 1.289407
4.2789679 4.8011708 1.722832
3.2149899 3.6157861 1.170646
3.4511549 3.8904769 1.125502
2.900476 3.277364 0.837888
2.770546 3.1378829 0.69950098
3.034682 3.4450901 0.65810603
3.0960929 3.5230539 0.56434
2.911751 3.3210571 0.433736
2.763603 3.1594739 0.32299399
2.959939 3.391881 0.254922
2.79528 3.2107091 0.15925001
2.8775561 3.3129799 0.084574997
2.785171 3.2141449 0.010194
2.683116 3.103642 -0.053890999
2.8602209 3.316288 -0.120533
3.7618339 4.3616648 -0.158528
2.991982 3.477212 -0.185258
3.6678021 4.2626328 -0.22710399
2.9551351 3.4424629 -0.235533
2.850142 3.3279741 -0.27088201
2.79546 3.2795031 -0.331586
2.790087 3.304173 -0.377013
2.7406349 3.2763591 -0.299858
2.890049 3.471334 -0.234496
2.645591 3.185219 -0.16722099
3.5751231 4.3043499 -0.22597399
2.558218 3.087307 -0.110354
2.710825 3.279227 -0.055886999
2.7422359 3.3250771 0.010331
2.8052039 3.409493 0.085095003
4.1156969 5.0022888 0.124849
2.88413 3.5137269 0.170054
4.1832252 5.0964098 0.24665099
2.633924 3.216507 0.23541699
2.539583 3.1086631 0.30887699
2.9097929 3.570281 0.45230499
2.703923 3.325556 0.51571798
2.7537489 3.394891 0.62660497
2.6958699 3.3314331 0.71614701
2.92804 3.6269391 0.89241803
2.936542 3.646132 1.013185
3.2368801 4.0286078 1.250366
3.2714479 4.0812392 1.4011919
3.1545539 3.944792 1.485809
3.8927131 4.867866 1.833486
3.0155139 3.7799289 1.550772
3.8362 4.8086538 1.972821
3.775949 4.7444258 2.1062291
3.7169499 4.681447 2.2356801
3.6581249 4.618381 2.360739
3.6107261 4.5694361 2.487931
3.575398 4.5355511 2.6179359
3.5480161 4.511601 2.7490971
3.51158 4.4759631 2.8677869
3.4598539 4.4205971 2.966064
3.3919699 4.3442659 3.041204
3.3943429 4.3577328 3.170608
3.355819 4.3186302 3.253984
3.280026 4.2312279 3.2904091
3.294476 4.2600808 3.4059539
3.272027 4.2412391 3.4747601
3.219038 4.1926618 3.567282
3.2285769 4.2458172 3.732214
3.250319 4.3159051 3.6992829
3.2498059 4.3361678 3.591574
3.2171161 4.302959 3.4851
3.240927 4.345324 3.4284041
3.256808 4.377233 3.3532431
3.2647591 4.398581 3.2590971
3.28491 4.436491 3.168617
3.3136461 4.4862041 3.0774369
3.2969091 4.4744139 2.9366319
3.3493011 4.5566082 2.850682
3.377419 4.6060662 2.7357049
3.439256 4.7018442 2.6406429
3.4669859 4.7513428 2.5126801
3.506597 4.8173742 2.3875189
3.5177419 4.8445029 2.2391829
3.5515251 4.9030161 2.102947
3.626193 5.0183592 1.985647
3.1061161 4.3091521 1.562569
3.6856029 5.113081 1.854087
2.9075429 4.0435772 1.334173
3.7037899 5.1509342 1.699543
2.9934299 4.173244 1.242606
2.6844671 3.751703 0.99837798
2.8746829 4.0274329 0.94732398
2.5463481 3.576215 0.73361802
3.867291 5.4314122 1.11419
2.723326 3.834192 0.67413998
2.604727 3.6762681 0.54211998
2.4894929 3.522296 0.423572
2.4876959 3.5284431 0.33219999
2.6190481 3.7239389 0.25780499
2.6113391 3.7221611 0.170091
2.325727 3.323271 0.078176998
2.9273319 4.1932769 0.012258
2.8245029 4.0560098 -0.064924002
2.785311 4.0096688 -0.134372
2.571151 3.710562 -0.182313
3.1561761 4.554842 -0.223795
2.737529 3.9604931 -0.249946
2.483232 3.601542 -0.27045101
3.0152321 4.3731251 -0.32839099
2.6144171 3.8107221 -0.3556
2.3230169 3.4199679 -0.360425
2.3463421 3.489095 -0.29516599
2.42746 3.6279089 -0.226616
2.4910929 3.7323849 -0.18122301
2.5055671 3.7635331 -0.12444
2.366395 3.563467 -0.056189001
2.386749 3.603194 0.010359
3.442554 5.2102642 0.120359
2.497139 3.7889531 0.169755
2.259594 3.4372051 0.23292901
2.2399731 3.4160111 0.31432399
2.3146801 3.5388999 0.41526499
2.296375 3.519834 0.50568402
2.6471939 4.067894 0.69570798
2.7102971 4.175467 0.83185202
2.4324729 3.757004 0.856879
2.7264471 4.2218108 1.08764
2.2969601 3.5658481 1.026255
2.332449 3.63011 1.1558861
3.9199071 6.1320281 2.3340981
3.781539 5.9307332 2.443212
4.049489 6.3836331 3.029125
3.9398141 6.242733 3.3462181
5.3234358 8.4568777 4.7862968
5.6518269 9.0017233 5.3579149
4.9518261 7.9688001 5.5819831
4.2180152 6.805511 4.9209528
4.3196211 6.9875469 5.1955228
4.120007 6.6819959 5.0921431
4.0782752 6.6488152 5.263937
3.8359039 6.4197822 4.9567151
3.9503839 6.628839 5.0056138
4.4152961 7.4680109 5.1616859
3.7580581 6.3902011 4.090528
3.737421 6.3720241 3.9032071
3.639966 6.2224321 3.6339109
4.355515 7.4456458 4.3482699
3.5928171 6.1912198 3.0579591
3.148854 5.455307 2.3558371
3.1142161 5.4098101 2.1682439
3.137182 5.4643641 2.020767
3.124238 5.4564772 1.8495719
3.1694789 5.5504398 1.7122231
3.2096641 5.6359949 1.569248
2.4863241 4.3776579 1.0895441
3.259589 5.7391429 1.4284
2.2968631 4.0550432 0.89222997
2.166034 3.8344409 0.73592597
2.2670391 4.0241451 0.66207898
2.1990891 3.9141619 0.54020798
2.1448219 3.8279691 0.430902
2.201237 3.939373 0.347238
2.288564 4.1068568 0.266229
2.1154721 3.8066261 0.16291399
2.130548 3.844269 0.084710002
2.095031 3.790554 0.010381
2.287385 4.1499538 -0.062245
2.1205859 3.857933 -0.121166
2.0945311 3.821033 -0.17597701
2.0846739 3.813545 -0.225631
2.3470781 4.305449 -0.30315399
2.4653161 4.5474319 -0.398027
2.5325041 4.7236109 -0.46724901
2.2662239 4.2745032 -0.33963299
2.1460919 4.070734 -0.238903
2.047652 3.8949649 -0.17771199
2.1897581 4.1770368 -0.129805
1.99932 3.824574 -0.056689002
1.934029 3.71016 0.010029
2.089375 4.0195589 0.087311
2.2312529 4.304708 0.181381
2.384696 4.613842 0.29410201
2.103884 4.08216 0.35337499
2.085263 4.0575891 0.44800499
2.4821939 4.8437748 0.65489203
1.946703 3.809716 0.613267
2.1430669 4.2060442 0.78883398
2.157634 4.2468128 0.91197401
2.200062 4.3428149 1.0535851
3.1250589 6.1865168 1.676953
3.0495441 6.0543208 1.815986
2.924881 5.8236551 1.917019
2.8303361 5.651794 2.02718
2.7670701 5.541532 2.15151
2.7055221 5.4340572 2.2703609
2.6424429 5.322875 2.381196
2.599853 5.2523952 2.5036449
2.587049 5.241837 2.6497259
2.5660529 5.2145729 2.7836549
2.509886 5.115427 2.8722889
2.506089 5.1227288 3.013248
2.4846101 5.0938268 3.127198
2.475363 5.08987 3.2487659
2.453362 5.0595889 3.3455091
2.4285131 5.0231991 3.429168
2.3971081 4.9729762 3.491477
2.3868451 4.9664488 3.5743501
2.3254001 4.8675332 3.640564
2.2741921 4.8764148 3.6840291
2.2603209 4.8762398 3.5622931
2.268949 4.9097962 3.5085011
2.2732649 4.9341798 3.4358871
2.2711799 4.9447842 3.344342
2.2959559 5.0140772 3.2810831
2.3021381 5.0430479 3.1820581
2.32725 5.1137962 3.1001439
2.322216 5.1185002 2.9698009
2.3599069 5.2177019 2.886693
2.387002 5.2939801 2.7814951
2.443579 5.436306 2.701746
2.5873251 5.792078 2.541877
2.6671369 5.9894271 2.452172
2.371676 5.3426442 2.030432
2.454226 5.5459709 1.94503
2.506758 5.6825109 1.826995
2.5593059 5.8199568 1.703166
1.864812 4.2675338 1.007897
2.922647 6.6883411 1.5796371
1.8921 4.3437462 0.907085
1.7159131 3.9518039 0.71993798
1.866124 4.3114491 0.67343003
1.866273 4.3255901 0.56684798
1.765433 4.1049709 0.43881801
1.982345 4.6241269 0.38713199
2.0639851 4.8300738 0.29743701
1.877741 4.4083991 0.17925
1.896626 4.467144 0.093534999
1.790059 4.2298012 0.011009
1.8020951 4.2720618 -0.060904998
1.768702 4.2065601 -0.125596
1.831017 4.3689651 -0.191311
2.307986 5.5070519 -0.241147
1.74221 4.17065 -0.234652
1.713747 4.1159668 -0.27563399
1.918867 4.6389608 -0.38628799
2.133265 5.2259531 -0.49208799
1.631705 4.0509791 -0.30658001
1.637442 4.0926528 -0.228845
1.939983 4.865212 -0.211528
1.818516 4.576036 -0.135528
1.752601 4.4251642 -0.062519997
1.695103 4.2945542 0.011066
2.175837 5.531332 0.114559
2.5645239 6.5194349 0.135023
1.961861 5.0044289 0.20108099
1.72176 4.4070258 0.26792499
1.8705879 4.804451 0.39672199
1.730883 4.4609532 0.469897
1.981181 5.1236811 0.66098398
1.7184089 4.4595218 0.68506497
1.710604 4.4546862 0.79740399
1.690158 4.41677 0.90539199
1.702477 4.4801421 1.159593
1.6686881 4.406486 1.262237
2.3414149 6.226583 2.133456
2.345856 6.2826262 2.5082221
2.659893 7.278017 4.0942798
1.9566261 5.3730969 3.1552191
2.892751 7.9725618 4.8681712
1.8728991 5.1805711 3.277504
1.913082 5.3109941 3.469486
1.9299591 5.3774142 3.6133471
1.881617 5.2619481 3.6249609
1.785441 5.029788 3.601965
1.780148 5.089766 3.7729189
1.8188829 5.2790689 3.8230071
1.62006 4.7377181 3.318656
1.7881759 5.2492509 3.5972071
1.7677521 5.249135 3.2953999
1.793821 5.347055 3.2373159
3.9014051 11.765214 6.2482738
2.891525 8.8225451 3.9662321
1.731869 5.3471031 1.952338
3.108937 9.6369123 3.24752
3.2406759 10.085319 3.1161079
2.511214 7.846458 2.206974
2.3854389 7.4833741 1.900359
1.490607 4.6950178 1.066065
1.422838 4.499691 0.903512
1.545095 4.9061279 0.85954201
1.475334 4.7036638 0.70663297
1.5648431 5.0094209 0.631477
1.459872 4.6925168 0.48260301
1.477474 4.7686009 0.38414001
1.442717 4.6756382 0.27708399
1.599439 5.204988 0.20369799
1.463136 4.781208 0.096368
1.502162 4.9291749 0.012351
1.500089 4.9429431 -0.067852996
1.570828 5.1977668 -0.14944901
1.437416 4.776329 -0.20144001
1.380942 4.6080489 -0.24973901
1.385373 4.6424508 -0.29951301
1.71816 5.7576342 -0.371461
1.714325 5.7938361 -0.46492699
1.354349 4.6566529 -0.422782
1.328995 4.6499052 -0.33949301
1.30278 4.5985861 -0.24813101
1.391978 4.9352751 -0.20708901
1.4787329 5.2662568 -0.15054999
1.489732 5.3292189 -0.072686002
1.391174 4.9990201 0.012437
1.4601181 5.2704692 0.105405
1.677667 6.0557399 0.12111
1.408088 5.1056871 0.198128
1.435787 5.2298021 0.307105
1.438817 5.2647991 0.41996899
1.441556 5.2990012 0.53928697
1.4158911 5.22861 0.65178603
1.452502 5.3886251 0.80000001
1.534084 5.717689 0.98925602
1.635546 6.1242409 1.213583
1.269725 4.776701 1.069661
2.029573 7.671102 1.919878
1.999878 7.5941901 2.1037281
1.9842941 7.5706859 2.3022289
2.638617 10.212053 3.944844
2.8367319 11.031726 4.5641451
2.6165819 10.224779 4.5087609
1.6267101 6.4187169 3.1715691
1.5907919 6.3077259 3.2792079
1.642985 6.5467172 3.5663781
1.969262 7.8856282 4.4847488
1.585286 6.4113731 3.929426
1.847096 7.5075979 4.7518249
1.722831 7.0377212 4.5824299
1.26647 5.199656 3.4714949
1.166508 4.838068 3.3586271
1.174523 4.972589 3.575129
1.328997 5.8071499 3.9484661
1.633725 7.2943072 4.4473839
1.422961 6.4232082 3.63012
2.0277131 9.2036171 4.979568
1.381559 6.3056502 3.2539999
1.710147 7.8489442 3.8476119
1.586655 7.4910188 2.6597741
2.316251 11.06226 3.324657
2.196564 10.551768 2.8872571
1.341156 6.5183949 1.440245
2.1027701 10.280576 2.008975
1.231045 6.0544438 1.032439
1.139006 5.6352768 0.82412201
1.1686929 5.8169641 0.71390599
1.102546 5.5209031 0.552872
1.1010751 5.5470581 0.435159
1.030789 5.2247572 0.30156401
1.051991 5.3650098 0.20452
1.059487 5.436698 0.106754
0.96552497 4.9853482 0.012171
1.098371 5.706759 -0.076338001
1.142872 5.9753828 -0.16744199
1.205402 6.3422041 -0.26071799
1.1860991 6.2803721 -0.33181
1.202804 6.4096699 -0.40317699
1.202845 6.4930038 -0.50812101
1.174872 6.5107522 -0.57676601
1.1304359 6.435389 -0.45868
1.040344 6.0043321 -0.31636
1.129825 6.5660729 -0.26907101
1.067299 6.246069 -0.174403
1.045963 6.164351 -0.08213
0.99087799 5.881093 0.014295
1.059087 6.330832 0.123712
0.93150598 5.6081901 0.21267
0.939107 5.6948409 0.32683599
0.95716298 5.8466558 0.455874
0.94479102 5.813396 0.57837999
1.012022 6.2730579 0.76455802
0.97857302 6.1108851 0.88712299
0.96504498 6.071538 1.02733
0.95793498 6.072257 1.176916
1.648928 10.531912 2.3070569
1.46333 9.4179926 2.3060169
1.455135 9.4368 2.5578539
1.340886 8.763401 2.607857
1.125366 7.4709039 2.624337
1.447381 9.6849499 3.6624939
1.5109659 10.273627 4.4360828
1.19043 8.1599627 3.7380209
1.105224 7.7651901 4.1442671
0.912965 8.0085096 4.4475489
1.097851 10.153919 4.3630128
0.77122802 7.2113299 2.9060111
1.042647 9.8574057 3.707334
0.78292102 7.4850702 2.6141651
1.0023381 9.691494 3.124753
0.73990101 7.236093 2.139679
0.727382 7.196301 1.937604
0.64043498 6.4865651 1.410632
0.617495 6.3294501 1.217532
0.62617099 6.4963951 1.090621
0.62517798 6.565886 0.94544101
0.639377 6.7987471 0.821661
0.61394399 6.6106162 0.65197301
0.580441 6.3296518 0.48909399
0.56557602 6.2474022 0.35521701
0.55838299 6.248713 0.234688
0.57072598 6.4716768 0.12521499
0.60692197 6.9746232 0.016781
0.59535497 6.9348912 -0.091429003
0.53297299 6.2940831 -0.173853
0.55720198 6.672317 -0.27040201
0.53949499 6.5519729 -0.341297
0.52712101 6.6864281 -0.51609999
0.481875 6.9341712 -0.48795101
0.47230601 7.0326662 -0.365924
0.49584001 7.5135188 -0.304097
0.45777801 7.0614982 -0.194763
0.40511301 6.4823351 0.015568
0.41207099 6.7191262 0.12974299
0.39506301 6.566525 0.24608999
0.38597399 6.5421252 0.371104
0.38315499 6.6253119 0.51065201
0.37054899 6.5390038 0.64317697
0.38971299 7.0214701 0.84615099
0.49386799 9.2879086 1.554263
0.50484502 10.1619 2.461695
0.366768 7.7438598 2.280499
0.43481901 9.6557159 3.3573661
0.412871 9.4116096 3.523421
0.40196699 9.6769009 4.137516
0.27646601 7.05093 3.379782
0.258219 6.7869611 3.4237001
0.315359 8.5502739 4.5208058
0.17992 7.8496938 5.4939799
0.144997 7.936389 5.4348049
0.044165 10.223581 4.6343369
0.010015 12.024499 4.497283
-0.002507 7.5854158 2.6348369
-0.0032609999 9.8676529 3.4275839
-0.019401999 7.3102531 2.1504021
-0.037361 9.7868462 2.621768
-0.098723002 8.2586803 0.81108099
-0.101797 7.7613869 0.59727001
-0.109679 7.6809111 0.43498999
-0.16993199 7.9946761 -0.32294101
-0.342691 8.1207495 0.019482
-0.34973401 8.0649214 0.15558399
-0.36532101 8.2041264 0.30721101
-0.377386 8.2591372 0.46817699
-0.387638 8.2724419 0.63724101
-0.42391801 8.8273163 0.86786401
-0.43099099 8.7621298 1.055568
-0.54577601 9.92033 2.4038451
-0.53543103 9.5323381 2.557595
-0.439091 7.6584182 2.256511
-0.57557201 9.8387308 3.160789
-0.57871002 9.6992626 3.3750839
-0.48079199 7.6120081 3.2583129
-0.82375097 9.5210419 6.5432339
-0.869618 9.6592083 6.2910299
-0.78284901 8.4749384 5.2309341
-1.035431 10.176188 4.3696909
-1.070496 10.400914 4.1895962
-1.071505 10.066261 3.246604
-1.012767 9.4106483 2.784235
-1.030315 9.470232 2.551903
-1.230237 10.105501 0.19620401
-0.84849203 6.4683008 -0.50198299
-0.78872102 5.8034348 -0.51058698
-2.0136681 13.739019 -0.182399
-1.616071 10.764755 0.40720901
-2.0322759 13.021653 1.8891799
-1.4960999 8.6602564 4.4301939
-1.5514309 8.7383251 5.2803102
-1.53426 8.5837069 5.35922
-1.942084 9.8094931 6.3244271
-1.705405 8.5617743 5.3655038
-1.717492 8.5705194 5.2005448
-2.991416 12.962262 0.031886
-1.402781 5.860642 -0.46369901
-1.274434 5.2172298 -0.468205
-1.553167 6.2325821 -0.45090699
-1.588629 -5.6910949 1.582842
-2.125073 -7.6469512 2.334682
-1.7145129 -7.6186061 2.2971489
-1.7053829 -7.6191802 2.0915661
-1.699962 -7.6363411 1.8928339
-1.691269 -7.6388888 1.693224
-1.474613 -6.697031 1.312866
-1.073697 -4.9032192 0.83877403
-1.115696 -5.1233301 0.75161397
-1.112242 -5.136044 0.63231403
-1.155884 -5.3675408 0.53918999
-1.144082 -5.3427248 0.42042899
-1.023832 -4.808331 0.278384
-1.278958 -6.0065079 0.347754
-1.104058 -5.2146769 0.19939899
-1.293035 -6.1072531 0.233529
-1.046069 -4.9691448 0.097870998
-1.0425659 -4.9810472 0.012198
-1.2382129 -5.9157891 0.014487
-1.0713561 -5.148253 -0.069073997
-1.191667 -5.7597899 -0.16188499
-1.555706 -7.5633669 -0.31184399
-1.0193599 -4.984993 -0.26415199
-1.195347 -5.8802781 -0.370967
-1.216064 -6.0538158 -0.47513101
-1.108182 -5.8672209 -0.30998299
-1.426977 -7.5550652 -0.39915699
-0.98347598 -5.2401628 -0.215321
-1.138297 -6.0650759 -0.249217
-0.947061 -5.0784922 -0.142186
-0.98408902 -5.3111339 -0.070952997
-0.90162998 -4.8976851 0.011936
-1.097526 -5.9618011 0.01453
-0.94436699 -5.1633749 0.101166
-1.389389 -7.5965528 0.148839
-1.0465389 -5.7595978 0.218988
-1.096765 -6.0759139 0.34962001
-1.004673 -5.602809 0.437998
-0.87418997 -4.9077721 0.48954201
-1.08135 -6.0707831 0.60554999
-0.88184297 -4.9840798 0.60901803
-0.88083398 -5.0121732 0.729478
-0.99349803 -5.6918268 0.96552199
-1.331674 -7.6292629 1.294175
-0.95507699 -5.5092769 1.070488
-1.325331 -7.6450529 1.4854831
-1.313217 -7.6276002 1.675033
-1.3030699 -7.6213131 1.870728
-1.2947 -7.6251578 2.0719011
-1.287647 -7.6370749 2.2782409
-3.886261 -23.379137 8.2323055
-2.9155991 -23.341719 10.662896
-2.7819619 -23.369293 7.54772
-0.61947501 -5.5302501 0.92992002
-0.56600302 -5.1062131 0.736431
-0.82392699 -7.5124412 0.90934598
-0.81483501 -7.5095868 0.74178898
-0.80711699 -7.5194511 0.58192599
-0.79707199 -7.5077119 0.42752701
-0.56715202 -5.4015079 0.20317499
-0.78785598 -7.5034742 0.28223899
-0.51069897 -4.9186401 0.095307998
-0.78226 -7.534091 0.145988
-0.77216399 -7.5214462 0.018123001
-0.763915 -7.52668 -0.099376
-0.75568402 -7.532321 -0.208354
-0.74773997 -7.5408411 -0.30603299
-0.739317 -7.5446539 -0.39355701
-0.73267901 -7.5670981 -0.47000301
-0.74267799 -7.859652 -0.60747403
-0.64667797 -7.5927582 -0.53494
-0.62940699 -7.5977068 -0.395787
-0.623155 -7.629353 -0.30914101
-0.61476803 -7.6353898 -0.21083
-0.60619098 -7.6393261 -0.100663
-0.59936303 -7.6655822 0.01843
-0.59153801 -7.679822 0.148454
-0.58062702 -7.6536388 0.28713599
-0.57275599 -7.6673198 0.435386
-0.56531799 -7.6874561 0.59312701
-0.55627102 -7.6858282 0.756742
-0.54841298 -7.7008109 0.92893797
-0.53817302 -7.6824541 1.103937
-1.298555 -18.849337 3.1573119
-1.500911 -23.359488 6.2705588
-1.471869 -23.328276 6.8759251
-1.44712 -23.365738 7.508019
-1.423381 -23.420567 8.1502743
-1.342332 -23.427053 10.024401
-1.315661 -23.435202 10.639776
-1.288543 -23.436161 11.242181
-0.36919999 -9.5209751 6.6669621
-0.47340801 -26.33868 10.555445
-0.44283101 -26.328796 9.8486233
-0.29075399 -26.327703 6.3703542
-0.25992101 -26.28322 5.6884289
-0.14287899 -18.852045 3.1503899
-0.048351001 -7.5259161 1.078822
-0.039735001 -7.5414982 0.907435
-0.030968999 -7.5267301 0.73914999
-0.022328001 -7.5426698 0.580392
-0.013571 -7.5209389 0.425888
-0.0049080001 -7.5497179 0.282426
0.003816 -7.5445981 0.145409
0.012548 -7.5589681 0.018118
0.021358 -7.5893149 -0.099691004
0.030118 -7.5860672 -0.208794
0.039030999 -7.6166911 -0.307607
0.047534 -7.5706549 -0.39303899
0.056667998 -7.6222372 -0.471237
0.073982999 -7.5931921 -0.58430398
0.14488401 -7.6318402 -0.53584999
0.162567 -7.633986 -0.396409
0.25390801 -7.7290521 0.93049097
0.26421201 -7.7690511 1.114296
0.363996 -6.7784419 3.8964281
0.51210999 -6.6561141 3.9718649
0.75054401 -7.6646199 1.103937
0.76060998 -7.6757712 0.92810202
0.77231902 -7.7031398 0.76025999
0.78086001 -7.698626 0.595429
0.79104602 -7.7101102 0.43889099
0.80295199 -7.7380099 0.291024
0.81222498 -7.7400551 0.149996
0.82522899 -7.777319 0.018746
0.83628601 -7.7955952 -0.102988
0.845281 -7.7943301 -0.215782
0.85152602 -7.7680979 -0.315597
0.86434102 -7.8016958 -0.40750399
0.87732601 -7.8359861 -0.48746499
0.890549 -7.7910881 -0.60340798
0.92536002 -7.7764339 -0.68272197
0.96628398 -7.8120952 -0.55258697
0.98520797 -7.8165469 -0.40900701
0.99603498 -7.8294649 -0.31874499
1.0029809 -7.811893 -0.216773
1.014764 -7.831851 -0.103736
1.024943 -7.8392582 0.01895
1.035269 -7.847537 0.152558
1.046312 -7.8611269 0.29666901
1.0551161 -7.8577771 0.44895399
1.065722 -7.8676791 0.61092597
1.074857 -7.8667159 0.77970898
1.085163 -7.8742452 0.956415
1.1516 -7.185668 4.329782
1.08495 -6.7200918 4.1837001
1.4128571 -8.6873207 5.5664792
1.258528 -7.5725651 5.1805868
1.34167 -7.53332 5.0716281
1.371434 -7.6492338 5.040987
1.310505 -7.166256 4.334384
1.565284 -8.5039339 4.963254
1.031924 -5.5700741 3.1257491
1.09719 -5.884398 3.1627431
4.4872761 -23.463261 10.205113
4.5285468 -23.386042 8.909091
4.598084 -23.454441 7.6652951
4.6221089 -23.43355 7.0260592
4.664063 -23.361603 5.7638659
1.651041 -8.0278625 0.98616099
1.665292 -8.0500126 0.80726999
1.686432 -8.0582333 0.466198
1.75158 -8.2740612 0.163003
1.743552 -8.1894293 0.020068999
1.754122 -8.1925926 -0.110054
1.757192 -8.1608019 -0.22975899
1.7631 -8.1425133 -0.33645901
1.77709 -8.16152 -0.43363401
1.784247 -8.1490278 -0.51572597
1.795156 -8.1091242 -0.63908303
1.8383631 -8.1260471 -0.72632098
1.877279 -8.1233873 -0.585289
1.900439 -8.137785 -0.43384099
1.910625 -8.1389322 -0.33763
1.9208651 -8.1402693 -0.23019899
1.9377691 -8.1696081 -0.110291
1.949456 -8.1767998 0.020148
1.96042 -8.1808233 0.162136
1.972837 -8.1908693 0.315173
1.9849761 -8.1996431 0.47773099
1.9931819 -8.1920872 0.64875001
2.002969 -8.1911001 0.82808697
2.0111849 -8.1837091 1.0139951
2.0293491 -8.2165928 1.213196
2.042917 -8.2306643 1.4171309
2.0551751 -8.2393246 1.6257581
2.0727 -8.2688332 1.844884
2.081393 -8.2630243 2.061682
5.9328632 -23.439281 6.4770508
6.0496211 -23.784901 7.2193689
6.076107 -23.77376 7.8696008
6.116725 -23.817842 8.5417271
2.1566379 -8.2392702 3.86064
2.727396 -10.370771 5.1361971
1.361758 -5.035635 3.2061069
1.5325609 -5.6672478 3.6082449
2.776902 -10.175177 6.8417678
1.431635 -5.1984568 3.638885
2.402468 -8.4184895 5.9941039
1.689537 -5.76827 3.5761099
2.74066 -9.1988621 4.8384628
2.9263721 -9.7398148 4.6099782
2.6060021 -8.601244 3.6011779
2.6482849 -8.7045135 3.402914
2.550138 -8.211031 2.0802591
2.56197 -8.2155743 1.8624409
2.5732219 -8.2181597 1.648698
2.5717771 -8.180357 1.432954
2.5845881 -8.1879988 1.230791
2.597317 -8.1952543 1.034423
2.60186 -8.1767445 0.84264898
2.615839 -8.187892 0.66140801
2.61606 -8.1559935 0.48502401
2.626327 -8.1555595 0.320519
2.627588 -8.1272087 0.164621
2.64395 -8.1456251 0.020527
2.6540761 -8.1447353 -0.112523
2.654336 -8.1136236 -0.23495901
2.6666081 -8.1193533 -0.345135
2.680516 -8.1299763 -0.44441801
2.6899869 -8.1270418 -0.529239
2.706264 -8.1132669 -0.65810901
2.8012669 -8.2703476 -0.76123399
2.932162 -8.5267401 -0.63297802
2.8322451 -8.1746092 -0.44913501
3.1138279 -8.9205799 -0.26005
3.1316819 -8.9384489 -0.12441
3.144932 -8.9431143 0.022722
3.1646931 -8.966116 0.183255
3.1677561 -8.9418364 0.354873
3.1942959 -8.9837332 0.53992099
3.2057331 -8.9829292 0.73390901
3.212868 -8.9701414 0.93568999
3.2256269 -8.9730606 1.147315
3.2401509 -8.9807835 1.36857
3.2495949 -8.9744368 1.594973
3.270035 -8.9983664 1.832973
3.2832119 -9.0021381 2.07375
3.290731 -8.9904423 2.316364
3.3062911 -9.0008574 2.568722
3.3126521 -8.986084 2.8172531
3.3621271 -9.0878811 3.107651
3.3733499 -9.085947 3.3665531
3.384289 -9.0832338 3.625361
8.9675331 -23.899281 10.904782
9.0930634 -23.98068 12.928225
9.0482531 -23.697079 13.9963
9.7252102 -23.647478 14.676696
9.9486036 -23.954096 13.074968
9.9919329 -23.824854 11.03678
10.069856 -23.855949 9.6846781
3.792578 -8.8700733 2.5842481
3.776309 -8.8038712 2.317775
3.783632 -8.7928886 2.071635
3.8018799 -8.8072176 1.8365459
3.8058629 -8.7885256 1.600412
3.837275 -8.8330641 1.380489
3.7306859 -8.3489246 -0.25168601
3.7938709 -8.4640598 -0.37459201
3.897048 -8.6674032 -0.493359
3.873693 -8.5888767 -0.58249003
3.849086 -8.4819689 -0.71672398
4.0193539 -8.7494249 -0.83939803
4.0403371 -8.688982 -0.67268401
3.91979 -8.3790092 -0.480243
3.9629631 -8.445859 -0.376771
4.0864019 -8.6828308 -0.26412201
4.7227831 -9.8863068 0.62042898
6.7469859 -14.04006 1.529707
11.460664 -23.500038 5.6583929
11.490748 -23.492796 6.3275542
11.594727 -23.567411 7.7262092
11.634715 -23.579653 8.4327412
4.3950238 -8.8555117 3.697525
4.8736982 -9.7631292 4.6615801
4.482667 -8.9538546 4.5389662
4.5247631 -9.0118313 4.829926
4.2778749 -8.495574 4.7947998
4.5224509 -8.981286 5.0689301
4.2255468 -8.3675299 4.952939
3.818985 -7.5407109 4.6639838
4.226686 -8.3218193 5.3575268
4.2356482 -8.3155766 5.5523272
4.839891 -9.1071672 6.8356481
4.3287611 -8.1226768 5.9704919
3.7520161 -7.0208549 5.0346332
3.7775149 -7.048903 4.9151931
4.3618331 -8.1166697 5.4822779
4.8276982 -8.9586859 5.8414068
4.3564458 -8.061801 5.056273
4.85989 -8.3577099 -0.50191402
4.8618131 -8.3387604 -0.596744
4.849287 -8.2732 -0.73789901
5.0794811 -8.5746136 -0.86883998
4.9476299 -8.2645063 -0.67618501
5.0037012 -8.3144016 -0.50378001
5.3175521 -8.7897911 -0.28274801
8.7001009 -14.121288 1.628808
5.043829 -7.6782179 6.19981
5.0616069 -7.5518732 6.2246032
6.092576 -8.9549036 6.4440541
9.1760492 -13.386776 8.5753775
5.5406628 -8.0631199 4.9316401
10.047286 -14.056225 1.696732
10.081573 -14.069741 1.33187
6.4722142 -8.8796139 -0.443757
6.1809292 -8.4593954 -0.54390901
6.1459708 -8.3911152 -0.643022
6.170764 -8.384181 -0.80103999
6.3760991 -8.5796165 -0.93189299
6.317719 -8.4193296 -0.73892999
6.2841339 -8.3342857 -0.54188699
10.768514 -14.077117 0.663019
8.294591 -10.713952 1.942248
11.801335 -15.062805 5.1260591
6.8414531 -8.6287947 4.4123912
9.257534 -11.538243 7.8162251
6.8953791 -8.5130348 6.733191
5.344274 -6.3836002 5.5180192
9.6524134 -11.341511 7.8690152
6.0428991 -7.0671248 4.4536748
6.508471 -7.576005 4.2667642
12.471404 -14.181411 3.155829
12.552392 -14.10792 1.069327
12.544798 -14.066565 0.70507401
12.586869 -14.08085 0.364005
8.3607883 -9.3096943 -0.16436499
8.2728214 -9.1902943 -0.340332
8.4003229 -9.3102417 -0.50642401
8.1634741 -9.0267067 -0.63183802
7.6578779 -8.4479446 -0.70491099
7.6687288 -8.4206581 -0.87638003
7.869782 -8.5614071 -1.013792
7.7814498 -8.3870106 -0.80314499
8.4319048 -9.0459661 -0.64200002
8.6283007 -9.2352104 -0.51041901
8.7568607 -9.3510914 -0.35260299
12.901156 -13.680997 0.362425
13.32976 -14.102769 0.72593302
13.098603 -13.730258 2.2832811
13.334729 -13.945372 2.7658031
10.009599 -10.11036 7.5172362
5.7894459 -5.6872692 5.6785841
6.0685711 -5.8518982 5.3318248
7.1691699 -6.8811922 5.9122901
9.8974705 -9.455905 7.5530071
12.617625 -11.641904 2.868875
10.351691 -9.3313837 -0.383582
10.21459 -9.186367 -0.55480701
9.3917789 -8.407073 -0.77926499
9.3679113 -8.3466883 -0.96545202
9.7721128 -8.6258678 -1.136336
9.5742264 -8.3725462 -0.89284998
10.44141 -9.067009 -0.55847901
12.563916 -10.582298 3.5550301
12.380699 -10.403483 3.9126561
10.684333 -8.7482271 7.2962651
6.2802539 -5.0456581 5.4367909
10.443633 -7.941946 4.907146
12.68094 -9.1648846 -0.96727902
11.810634 -8.494297 -1.1194299
11.87329 -8.4560947 -1.270779
11.350658 -7.560113 5.4646249
15.991226 -9.2126608 -0.95810002
15.922821 -9.1486654 -1.1353
15.883143 -8.8826113 -1.277511
16.073252 -8.9400663 -0.95483398
16.107868 -8.9349003 -0.74389899
16.199614 -8.8878031 0.35612401
16.227001 -8.8783846 0.691953
7.203608 -2.799159 4.4360638
7.2455139 -2.8057539 4.6227641
7.0612078 -2.7249629 4.651814
6.7739081 -2.5780089 4.8913779
6.7773809 -2.5433459 5.0651479
6.761209 -2.501514 4.935955
6.976809 -2.5628719 4.9263291
7.019742 -2.560164 4.7256808
7.1064181 -2.5824211 4.6471009
7.2361569 -2.6200631 4.5787911
7.1979289 -2.5967751 4.3922558
10.280075 -3.7087109 6.273016
10.018338 -3.601131 5.8741851
9.5633659 -3.42506 5.3673191
9.7171745 -3.4674079 5.200819
10.877152 -3.867099 5.5292959
13.507452 -3.8340299 4.8772368
11.250868 -3.1653121 4.6831679
7.821826 -2.1908021 3.4700601
11.374547 -3.1716571 5.3527098
7.6604562 -2.1264429 3.8078699
11.027338 -3.047277 5.7670841
11.004912 -3.027348 6.0307012
9.8447933 -2.6959159 5.6321449
9.6502304 -2.6306109 5.7413449
9.67665 -2.6257451 5.965467
7.2180791 -1.949631 4.595263
9.8409662 -2.658083 6.2650781
7.1129432 -1.9123859 4.6583309
7.0823669 -1.895349 4.7558231
7.2053409 -1.910362 5.0306678
6.8946571 -1.793779 4.9848852
7.2130718 -1.840928 5.0969658
8.1340942 -2.0759921 5.747787
7.1745172 -1.813363 4.9047828
11.225389 -2.8233781 7.5084209
8.1585007 -2.0419459 5.3189969
9.7922707 -2.4387741 6.2022438
9.9540606 -2.4668119 6.1014748
8.9157057 -2.1985159 5.270906
9.6940184 -2.366586 5.2724829
11.115637 -2.699971 5.7661839
7.7066131 -1.862463 3.797503
7.9877191 -1.920597 3.723984
7.8221431 -1.871179 3.4358821
12.709289 -3.024684 5.2347631
12.574165 -2.9771221 4.832881
12.651953 -2.9800291 4.5149879
13.854008 -3.1784661 3.0761471
14.685877 -3.351371 2.8839049
12.482484 -2.2301121 3.0679481
12.446779 -2.2089579 3.3864069
11.294937 -1.9910181 3.3737609
11.804234 -2.0666511 3.8433361
13.492945 -2.330035 5.1211858
8.4155102 -1.433112 3.6468439
7.92346 -1.339856 3.6426499
7.798563 -1.309415 3.7875681
8.1430531 -1.35754 4.1614652
7.266252 -1.2027 3.8915279
5.8162479 -0.95575303 3.2523241
7.2953658 -1.198809 4.0794158
5.6784801 -0.92634702 3.3025301
5.487937 -0.88871598 3.307672
5.6147108 -0.90255898 3.4951439
5.590981 -0.892088 3.5807409
5.7274532 -0.90703797 3.7615571
5.6371422 -0.87932599 3.850338
4.909389 -0.74245799 3.474227
5.905849 -0.89315498 4.1793919
5.2887259 -0.77471799 3.6597371
5.35186 -0.77127099 3.5838399
5.6424918 -0.80647099 3.697341
5.1002488 -0.722929 3.2578919
5.6305909 -0.79142702 3.4946201
5.8041172 -0.80894899 3.48663
5.6392412 -0.77929699 3.267683
5.9004202 -0.808402 3.2861421
7.8448029 -1.065522 4.183042
7.6709781 -1.0328341 3.9017389
8.0420532 -1.073293 3.8860581
8.2708368 -1.094057 3.7817841
11.218361 -1.457444 4.5329018
8.4127302 -1.08302 3.17241
8.1607027 -1.040934 2.8576331
8.3758278 -1.058495 2.7075901
10.838445 -0.73440301 3.773427
12.536238 -0.83482701 4.6990619
11.597879 -0.75880003 4.6571312
11.181366 -0.71851599 4.7865071
11.186002 -0.705778 5.080637
9.8410463 -0.597969 4.9699011
5.633359 -0.329166 3.1136711
5.8142662 -0.33296499 3.342854
5.5198131 -0.30966601 3.289264
5.5268102 -0.303624 3.4019401
5.3936038 -0.29002699 3.41611
5.2739048 -0.27744299 3.425782
5.5532398 -0.27921301 3.7524431
6.8993292 -0.34689301 4.662025
6.5986729 -0.30104801 4.6219831
6.521277 -0.26717201 4.4687428
5.059123 -0.19549701 3.3556719
5.7193089 -0.214361 3.712579
5.603075 -0.203492 3.5459981
5.565784 -0.19566 3.4228849
5.7082472 -0.194034 3.398174
8.6067934 -0.27254599 4.7514281
10.3426 -0.315496 5.4672928
9.6898289 -0.284311 4.8866272
9.9258671 -0.26817599 4.5009832
10.648775 -0.28770801 4.828793
10.444106 -0.27002999 4.4631901
10.385859 -0.25646099 4.162816
11.016407 -0.246426 3.8275681
10.905311 -0.231277 3.498245
5.7127652 -0.114521 1.680813
11.433741 -0.215912 3.063473
5.5428109 0.16573 1.06165
5.7783771 0.17949601 1.251146
5.3925271 0.173775 1.305395
5.3618522 0.17896201 1.43716
5.5801139 0.19273201 1.642433
5.3956909 0.192641 1.731563
5.576169 0.205566 1.938229
5.1580601 0.19614799 1.93056
5.4224129 0.212512 2.1743939
5.3174081 0.214579 2.2734339
5.2271051 0.217012 2.371459
9.6020632 0.43215901 5.078608
6.4363699 0.297178 3.5552371
7.0223169 0.33240101 4.0353198
6.263648 0.30378601 3.7310369
5.4670219 0.27787301 3.4620781
5.4022598 0.28087699 3.5090449
5.3766022 0.292059 3.6338511
5.0833769 0.29982501 3.5630889
5.3211989 0.33865899 3.6506979
5.2623429 0.34718901 3.495445
5.7138162 0.38363701 3.7147551
5.957993 0.40697899 3.7769101
7.0227652 0.48791301 4.3266482
6.2991419 0.44498599 3.7571139
7.4645472 0.53602099 4.2956791
8.2872133 0.59509599 4.769105
5.4262829 0.395996 3.0020709
5.4245081 0.402197 2.8740311
5.3711371 0.40451699 2.715193
5.320015 0.40687799 2.5555711
5.5028548 0.42728701 2.5019219
5.2053561 0.410274 2.230613
4.981812 0.39847299 2.0025549
5.369863 0.435785 2.0149851
5.5253692 0.45486999 1.92576
4.9306169 0.41167 1.586808
5.0798349 0.430067 1.499638
5.2874408 0.453834 1.421634
5.8717589 0.51085299 1.426034
5.4540868 0.480894 1.18494
5.3237209 0.47563601 1.023291
10.841732 0.98131698 1.8191299
10.708175 0.98176098 1.541397
10.605551 0.98478401 1.2815911
10.598611 1.008961 0.81922299
13.427835 1.309779 0.50470299
10.810996 1.092562 -0.14273299
11.038851 1.154452 -0.576208
11.111702 1.1751291 -0.690781
11.846754 1.280681 -0.916888
9.9899359 1.197479 -0.52234101
9.7785006 1.195168 -0.27113801
11.329385 1.411442 0.027365001
11.389154 1.4323339 0.22123601
9.8209667 1.269884 0.761989
9.8516951 1.285485 0.97566199
10.170236 1.339057 1.234284
8.2771883 1.109378 1.39554
6.0666142 0.82026798 1.172027
5.235209 0.71404999 1.143481
5.1918821 0.71428001 1.2680039
4.9800172 0.69097197 1.3468519
4.9243541 0.68907499 1.462669
4.8652878 0.68657702 1.575814
4.8603029 0.69162798 1.705261
4.9370108 0.70839101 1.865402
4.9774628 0.720101 2.015202
4.9875631 0.72747302 2.1532209
4.9759049 0.73167199 2.2798049
5.209188 0.77216202 2.5223091
5.1496959 0.76945299 2.624716
5.075356 0.76436901 2.7119229
5.5323148 0.83976603 3.0875831
5.382175 0.82336801 3.1253071
6.9070029 1.064855 4.1579819
5.980536 0.929129 3.719775
5.468329 0.85605502 3.5005641
5.261446 0.829934 3.455169
5.4043798 0.86534297 3.693706
5.3323789 0.87924302 3.781518
5.2308102 0.88747001 3.6326189
5.229454 0.89974302 3.5169909
5.1921082 0.89952397 3.4181631
5.3518462 0.93359798 3.4358871
5.4063778 0.94958699 3.3736651
5.9010081 1.043527 3.565372
5.7805939 1.0291539 3.370234
5.3321028 0.95570201 2.989027
6.175828 1.106927 3.4619961
5.2233119 0.94246101 2.8044231
6.3274899 1.141692 3.3972621
5.3646531 0.97440398 2.748503
5.267179 0.96301597 2.5646429
5.408555 0.99535298 2.4928401
5.2074022 0.96459299 2.262434
5.1649251 0.96292698 2.105212
5.4460821 1.021888 2.0724361
4.7878051 0.90413201 1.692464
4.8186779 0.91575599 1.573065
5.107141 0.97671998 1.529551
4.9304872 0.94887698 1.345041
5.0039692 0.96904403 1.233199
5.2724791 1.027393 1.162518
4.9935069 0.97905803 0.974213
6.5608301 1.294268 1.117487
6.9849582 1.386361 1.020787
7.1570601 1.429168 0.87816697
5.9050469 1.186287 0.59147602
5.3927059 1.089874 0.42334399
5.4740601 1.11294 0.31632
6.3412089 1.296908 0.242127
5.832736 1.19998 0.114771
5.8079238 1.2019041 0.014216
5.61515 1.1688091 -0.075340003
5.9105611 1.237469 -0.16620401
6.0698261 1.278169 -0.25050801
6.0709791 1.285773 -0.322166
7.3097949 1.548142 -0.38790599
5.9186678 1.260705 -0.37411401
7.2780161 1.5679229 -0.572873
5.9074059 1.301398 -0.527349
5.9938049 1.349651 -0.431299
5.8162031 1.323863 -0.309672
5.617105 1.285405 -0.232713
5.5264869 1.27142 -0.15607999
5.736073 1.32666 -0.077335998
5.9551358 1.384609 0.014655
5.0158548 1.172367 0.099278003
5.542098 1.302153 0.21296901
4.9341278 1.165351 0.28709099
5.034761 1.195299 0.39818001
7.152782 1.70691 0.72214502
5.7357612 1.375796 0.70972502
5.9682431 1.438898 0.88002801
6.896872 1.662784 1.016956
5.4428239 1.318911 0.93585402
5.1253729 1.248286 1.00994
5.4663329 1.3380589 1.217937
5.1702161 1.271937 1.288228
5.014863 1.239839 1.383855
4.834919 1.201308 1.4654911
4.9759178 1.242484 1.644832
5.0209341 1.259917 1.79812
4.9115629 1.238534 1.894478
4.794209 1.21487 1.9817261
5.0243802 1.279404 2.2148991
5.3047948 1.357367 2.482105
4.8923349 1.257889 2.4194989
5.3205938 1.3745871 2.7701089
5.1622 1.340059 2.817971
5.5924482 1.458688 3.1890371
5.5194468 1.446491 3.2751501
5.3246508 1.4020571 3.27597
5.286808 1.398656 3.3610981
5.1262131 1.362538 3.35464
5.1234732 1.368188 3.4399309
5.3750672 1.44875 3.756918
5.688797 1.561697 4.1277952
5.4959049 1.5362279 3.9071839
5.0854082 1.43423 3.502075
6.0087881 1.6946501 4.1379619
5.9982152 1.699186 4.0440011
5.1439729 1.463647 3.3824351
6.1608992 1.7529989 4.0511179
5.241785 1.4980659 3.350625
4.91575 1.411061 3.0428121
5.2291999 1.507609 3.1238129
5.0704408 1.468223 2.9126949
5.2569642 1.528849 2.8927181
5.088027 1.486135 2.6719799
4.7329721 1.388393 2.362478
4.9860339 1.468915 2.3561831
4.7485728 1.404958 2.1155069
4.8779149 1.449386 2.039006
4.7640772 1.421581 1.859447
4.7804809 1.432529 1.73348
4.6950388 1.412867 1.572454
4.5825081 1.384806 1.408203
4.5929379 1.393786 1.285784
5.0671129 1.5441051 1.281643
4.754293 1.454812 1.0760061
4.5749722 1.405758 0.91629797
4.4871559 1.384477 0.78471297
4.5092931 1.397041 0.67669398
5.2454219 1.631789 0.66098398
5.1088209 1.5958 0.52560502
5.5740099 1.748211 0.44950601
4.5567398 1.434978 0.27052599
4.9917541 1.5783401 0.195848
4.5398302 1.4412529 0.091801003
4.9334302 1.5725141 0.012411
4.278841 1.369339 -0.059013002
4.2959819 1.380332 -0.124192
4.620575 1.490545 -0.196073
4.5669861 1.479113 -0.24922
4.9471178 1.608582 -0.32160401
5.706461 1.855486 -0.370967
5.4972181 1.801571 -0.445133
4.318747 1.4376121 -0.39681399
4.3763428 1.479398 -0.32429701
5.6284809 1.902676 -0.417083
4.8334031 1.646425 -0.26508501
4.3320241 1.481252 -0.18489499
5.4448109 1.861748 -0.23239
4.430521 1.520677 -0.128925
4.4555712 1.535066 -0.061903
4.537324 1.569127 0.011507
4.3929892 1.524931 0.089624003
3.963371 1.380955 0.15700699
5.3279028 1.856398 0.211062
3.9770441 1.390898 0.238583
4.1318712 1.450438 0.33695701
4.8443871 1.706875 0.50439698
4.1026201 1.450876 0.52360302
4.9114981 1.743358 0.74707299
4.684629 1.668955 0.83102798
5.0754008 1.814814 1.03194
5.0503922 1.812495 1.161249
4.7103052 1.696618 1.211329
4.4410582 1.605893 1.265083
4.6731458 1.695953 1.462386
4.2714219 1.555782 1.4579329
4.4032531 1.6095901 1.62848
4.369379 1.60296 1.740692
