# .PCD v0.7 - Point Cloud Data file format
VERSION 0.7
FIELDS x y z
SIZE 4 4 4
TYPE F F F
COUNT 1 1 1
WIDTH 1556
HEIGHT 1
VIEWPOINT 0 0 0 1 0 0 0
POINTS 1556
DATA ascii
7.4786992 -1.654585 4.0470958
7.7694778 -1.709455 4.389575
8.9307241 -1.9541 5.247509
8.6619854 -1.88476 5.2741742
9.7057676 -2.1000919 6.1032801
5.150001 -1.108085 3.331656
8.2252941 -1.769771 5.321135
8.211236 -1.756772 5.4469662
8.0714417 -1.707296 5.5676899
5.197844 -1.0742821 3.7138679
5.3244262 -1.074707 3.7190559
6.2403288 -1.2445101 4.2175169
8.1948271 -1.624418 5.4192109
5.2066469 -1.025813 3.3562441
5.4286389 -1.0630029 3.3998449
8.8153048 -1.715546 5.3432012
8.6793547 -1.678645 5.0742679
7.6266022 -1.46585 4.285223
8.6850405 -1.669284 4.8799362
7.584331 -1.448608 4.0797982
7.453547 -1.414659 3.824317
7.5128369 -1.416888 3.6618619
7.8465362 -1.470401 3.618705
7.5154858 -1.399332 3.2657771
11.196779 -2.0444679 3.953567
11.222635 -2.035744 3.657964
11.998228 -2.162065 3.586261
11.960474 -2.1409249 3.254957
15.650868 -2.7640591 3.4395399
8.2073278 -1.021005 2.4328899
8.089879 -0.99685597 2.61414
8.0649595 -0.98429197 2.8221951
10.847206 -1.29831 4.3774281
10.507403 -1.245281 4.520153
8.081563 -0.93876898 3.896858
8.1295385 -0.934789 4.1250048
8.1102762 -0.92304599 4.3129158
5.5069561 -0.613814 3.1805651
7.7764521 -0.86677498 4.491322
5.4891949 -0.60538203 3.2856851
5.045145 -0.550488 3.1191871
5.1735778 -0.55843198 3.2910321
4.7908692 -0.51149499 3.1253791
4.8162432 -0.502909 3.2680039
4.9423351 -0.49289501 3.475374
4.8850098 -0.46429601 3.3597491
5.0802922 -0.47096199 3.3816371
4.8506718 -0.44400299 3.1596651
5.0099578 -0.45272499 3.1814561
5.4631901 -0.487286 3.3710461
5.837646 -0.51386303 3.48663
6.0006738 -0.52120101 3.4573519
10.949848 -0.89988297 5.2623339
10.839381 -0.878151 4.9295301
11.2578 -0.89889199 4.824614
8.0990543 -0.637227 3.2552681
12.196788 -0.94540298 4.5754032
5.5219669 -0.1069 1.6246541
10.963082 -0.199487 3.5165689
10.95995 -0.18670499 3.8075521
10.292301 -0.151416 4.124505
10.083427 -0.136637 4.308013
9.5206003 -0.10689 4.5603728
9.4961729 -0.095592 4.787148
10.210844 -0.090933003 5.395349
9.5651779 -0.074065 5.2780218
8.3283186 -0.054820001 4.7805548
5.787086 -0.031366002 3.4431691
5.7012229 -0.024282999 3.504045
5.3599572 -0.016608 3.3899181
5.4447832 -0.010542 3.5319021
5.693707 0.0021929999 3.8425059
5.094605 0.025633 3.5648091
5.6691761 0.054855 3.8817611
5.455935 0.065467998 3.6164351
5.323523 0.070059001 3.453536
5.513236 0.078956001 3.487201
5.622221 0.087053001 3.4558721
9.3393364 0.187999 4.9356542
8.0410891 0.171215 4.0543342
9.5123568 0.20254201 4.7961502
10.012007 0.22480799 4.7966642
9.7364178 0.229927 4.4146962
10.947258 0.27125299 4.6780801
5.1556482 0.133736 2.06653
5.408011 0.14656299 2.023392
5.2850089 0.149378 1.836511
5.4729381 0.161047 1.755994
5.3900089 0.164869 1.586274
5.451664 0.179432 1.3197401
5.2903838 0.180271 1.145597
10.381739 0.813425 1.492727
5.1504169 0.415575 0.98925602
5.3634791 0.439042 1.164634
5.2189398 0.43330899 1.267063
4.9695759 0.418363 1.335984
5.0661559 0.43241599 1.495687
4.6551862 0.402789 1.4985501
5.1596298 0.45247 1.799104
5.016511 0.44578701 1.883618
4.7908359 0.431346 1.927422
4.9251761 0.44920501 2.112757
4.894722 0.45215699 2.2281971
4.9819059 0.46605101 2.3966041
5.2396679 0.49630001 2.653075
5.0167422 0.48106101 2.6628699
8.0408697 0.771047 4.2680669
5.1956549 0.50431198 2.880327
5.0829511 0.49932799 2.9316549
6.2015629 0.60921597 3.576829
5.0241861 0.49945199 3.003953
7.4849849 0.75285399 4.623538
5.7209048 0.58212799 3.6368661
6.8181682 0.69377899 4.3344131
5.6531882 0.58187699 3.6864569
5.3903818 0.56747597 3.6579051
5.222137 0.57430702 3.6760299
5.3947968 0.61866802 3.717926
5.469842 0.64015102 3.650135
5.6579242 0.66882098 3.695708
5.1484742 0.61465901 3.279273
5.1088042 0.61594701 3.162647
7.436523 0.89658999 4.603641
5.150146 0.62699699 3.0867851
5.0925059 0.62597901 2.945096
5.9937649 0.736763 3.4663129
4.983964 0.61851799 2.771143
4.90416 0.61439502 2.6114819
5.984128 0.74969399 3.186568
4.730741 0.59825498 2.403702
5.7743392 0.73022902 2.9339571
5.5305829 0.70592701 2.6704769
5.0306492 0.64805001 2.2992091
5.0903821 0.66176099 2.192899
4.9037261 0.64328402 1.9817261
4.9388781 0.65372699 1.8633
4.6001501 0.61433399 1.612074
4.5995979 0.61969501 1.488472
4.8424311 0.658135 1.437552
5.1294661 0.703219 1.38696
5.6958938 0.78760898 1.391229
5.3511338 0.74626797 1.169287
7.5969 1.068465 1.468748
7.7586942 1.1004061 1.309503
10.19696 1.458299 1.476552
10.167735 1.466181 1.236076
11.048147 1.606228 1.096362
9.7299719 1.426121 0.75669497
10.916693 1.651903 0.026464
9.393569 1.43258 -0.124817
9.3931046 1.443683 -0.261563
9.2263794 1.429022 -0.37705401
9.061944 1.414327 -0.476147
9.2632484 1.456776 -0.57971299
9.2413139 1.475318 -0.72009999
9.2826939 1.526185 -0.82011801
9.1157045 1.542245 -0.649014
7.228498 1.240237 -0.380752
7.432734 1.284162 -0.30462101
7.1508498 1.24401 -0.19977
6.9111691 1.210591 -0.092165001
6.2111282 1.095401 0.015117
6.2274199 1.105739 0.1219
6.4462371 1.152312 0.244968
9.6245966 1.720467 0.36575201
10.463264 1.895479 0.81822503
6.8143082 1.2426209 0.68021703
8.0263939 1.46365 0.80120999
8.1012468 1.487018 0.99105901
6.585103 1.216637 0.95991498
5.5689869 1.0355901 0.946567
7.7285089 1.437167 1.313624
5.0422831 0.94370198 0.98211098
4.9839468 0.93878102 1.097581
4.7346401 0.89751297 1.165942
4.667223 0.89076102 1.272846
4.8783789 0.93692601 1.4612581
4.5250502 0.87451601 1.478089
4.5510139 0.88501 1.610433
4.732975 0.92609203 1.803748
4.9418478 0.97292203 2.018177
4.9776521 0.98596799 2.167757
4.7653871 0.94966698 2.2026
4.7919531 0.96074802 2.340879
4.6987958 0.94774002 2.416306
5.598639 1.1292371 2.879041
5.0933452 1.033468 2.746027
5.0262551 1.025934 2.8305659
5.2655621 1.0811419 3.0854809
5.7996912 1.197831 3.5234449
5.656332 1.175064 3.550647
5.3972349 1.127769 3.487201
5.3431668 1.1229481 3.541698
5.0657558 1.07692 3.49512
5.1080379 1.110715 3.657685
5.1026058 1.134356 3.578949
6.2866359 1.397576 4.4094229
5.396729 1.212893 3.666157
5.315804 1.201183 3.535167
5.807826 1.319443 3.7667539
6.0058112 1.371758 3.7862749
5.7174368 1.31287 3.4902101
5.303575 1.224313 3.124311
5.206903 1.208367 2.9494121
5.4478412 1.270941 2.955786
5.2092962 1.22167 2.6971879
5.0624042 1.193417 2.4912069
4.9435148 1.171443 2.3029251
4.8235469 1.148932 2.118257
5.0752149 1.215098 2.091078
4.6724801 1.1244071 1.797442
5.0177388 1.213657 1.793198
4.4839001 1.090041 1.479921
4.626152 1.130306 1.400866
5.05621 1.241606 1.3947231
5.1305919 1.2661819 1.278586
4.8389702 1.2001669 1.078968
5.5969939 1.395074 1.104334
5.277514 1.321945 0.90915298
5.3967652 1.3584681 0.79772902
5.6326799 1.4248101 0.69909298
4.7127428 1.197925 0.47751999
4.7413139 1.211042 0.37654501
4.820775 1.237304 0.28183299
5.2707329 1.3593071 0.203623
4.7530918 1.231697 0.094633996
5.2857499 1.376271 0.013092
5.0476742 1.3205349 -0.068535998
5.1674442 1.358281 -0.147055
5.0573449 1.335613 -0.211245
5.0627618 1.343326 -0.27192801
4.9503422 1.319652 -0.31672901
4.9931331 1.3434711 -0.39787301
4.9317641 1.3515379 -0.445797
4.8560772 1.3550529 -0.353919
4.9467578 1.39274 -0.26679599
4.8987298 1.3853509 -0.205596
4.5713582 1.298498 -0.130795
4.9615698 1.415566 -0.067773998
4.9334221 1.4137239 0.012301
4.6176519 1.329041 0.092610002
5.6582088 1.6285321 0.113479
4.6223779 1.336208 0.179997
4.5044808 1.307789 0.265607
5.031949 1.467267 0.40332001
5.4660382 1.600723 0.559322
5.4882908 1.614152 0.68834102
5.9143629 1.746928 0.88400102
5.0693541 1.503731 0.88360602
5.1695352 1.539973 1.032693
4.660316 1.394174 1.052739
4.645905 1.395734 1.173703
4.601685 1.388224 1.287596
4.645824 1.4074301 1.4279571
4.557755 1.386541 1.527867
4.3481631 1.328301 1.5792609
4.6447001 1.424791 1.817059
4.5571461 1.403736 1.9106849
4.5332541 1.402145 2.0271161
4.5438929 1.411222 2.1567731
4.6932559 1.463599 2.354702
4.8743691 1.5262949 2.5747521
4.9485912 1.555851 2.7408881
5.0096531 1.5814559 2.898685
4.8199282 1.527724 2.9022839
4.628572 1.472999 2.88993
4.3968921 1.404897 2.836957
4.5831089 1.470268 3.044085
5.0394082 1.616649 3.347157
6.1177859 1.962594 4.0634122
5.1538582 1.6599801 3.512311
5.9659858 1.921555 4.0657692
5.0299411 1.632978 3.5689609
4.976059 1.641104 3.6662841
4.7742062 1.599179 3.4473159
4.766974 1.609094 3.3346779
4.675281 1.584196 3.2021129
5.758287 1.951167 3.943866
4.4415598 1.510756 2.967114
4.4956632 1.534996 2.9196889
4.654264 1.595188 2.9272561
4.7295399 1.627131 2.8709209
4.723103 1.6310641 2.7571321
4.8110728 1.667702 2.690433
4.4066072 1.533244 2.3519371
4.379869 1.529647 2.222086
4.4711938 1.567373 2.1476901
4.3460279 1.529176 1.968188
4.1733079 1.4738539 1.773437
4.3469682 1.540867 1.724928
4.4445891 1.581293 1.638652
4.404923 1.5729491 1.500077
4.3222561 1.549093 1.350633
4.3773842 1.5746 1.246194
4.4585619 1.6096539 1.146894
4.7645559 1.726385 1.096735
4.2966762 1.562511 0.87530702
8.2490644 2.99982 1.680476
4.3501158 1.58767 0.773835
4.708796 1.72478 0.71883601
4.3965559 1.616214 0.56362301
4.2828689 1.580072 0.44829801
4.4581838 1.650638 0.36580399
4.376184 1.6260689 0.26436299
4.6844139 1.7467951 0.187025
4.3177171 1.61578 0.088853002
4.109735 1.543394 0.010522
4.1497021 1.563907 -0.058251999
4.0578442 1.534682 -0.119405
3.945925 1.497597 -0.170449
4.3975201 1.6748379 -0.244295
4.198246 1.604537 -0.27785501
3.8318779 1.474728 -0.31593499
3.8626249 1.507221 -0.361467
3.511919 1.38922 -0.26512399
4.2158418 1.67902 -0.235585
5.5546322 2.2122121 -0.31039801
3.881175 1.550961 -0.168795
3.9859059 1.5981849 -0.118195
4.4713011 1.7988501 -0.063308001
4.0291138 1.626394 0.010414
4.2803969 1.733621 0.089006998
3.6901641 1.499561 0.14900699
4.7381482 1.925428 0.191324
3.7359431 1.523224 0.22846299
4.1757741 1.708221 0.347161
4.121891 1.691772 0.43754801
3.822747 1.5741839 0.49744099
3.8918719 1.607947 0.60361803
4.5083532 1.868785 0.81553501
4.5352311 1.886103 0.94036698
4.3197069 1.802369 1.012973
4.4138179 1.8476599 1.157712
4.2196298 1.772079 1.22601
4.3612061 1.837494 1.392117
4.272305 1.805887 1.487556
4.1448421 1.757683 1.563839
4.4110909 1.876633 1.792888
4.2268891 1.804072 1.841503
4.3341951 1.855822 2.0141511
4.1507978 1.782998 2.0477779
4.4377809 1.912387 2.3145289
4.4703622 1.932582 2.4550171
4.3389359 1.8817461 2.498894
4.3531232 1.893913 2.6194451
4.4322052 1.934441 2.7758379
4.403059 1.927816 2.8597629
4.9219918 2.161835 3.304023
4.6180429 2.0347321 3.191612
4.516561 1.996291 3.2032011
4.84411 2.154521 3.5779109
4.5691319 2.057699 3.5063319
4.7621369 2.171278 3.5834689
4.2941751 1.969975 3.131371
4.2328839 1.947808 3.0225241
4.3739471 2.0188749 3.046757
4.4786558 2.073523 3.033313
4.2963219 1.995165 2.818347
4.4560461 2.0756299 2.8216369
4.3343081 2.025059 2.6397359
4.2688732 2.0005269 2.490952
4.1287699 1.940726 2.299722
4.151433 1.957265 2.1983271
4.1094589 1.9433089 2.0605769
4.101212 1.945246 1.939117
4.3026519 2.046911 1.909197
4.189467 1.999032 1.736138
4.3771338 2.0948279 1.685573
4.1059709 1.970915 1.460682
4.0903101 1.969242 1.335394
4.0021381 1.932526 1.19056
4.4866738 2.1729209 1.2061549
4.4730992 2.17276 1.076218
5.9658899 2.897867 1.43538
4.3582649 2.123245 0.92814499
4.3414631 2.1212981 0.80745798
3.830209 1.877003 0.611422
3.769068 1.852477 0.50532502
3.9249959 1.934774 0.42972901
3.7852049 1.87133 0.32491201
3.481334 1.72614 0.220039
3.3419859 1.661884 0.139624
3.4017141 1.696519 0.073264003
3.6337931 1.817533 0.0097390004
3.5223379 1.7668999 -0.051763002
3.4888921 1.755201 -0.107492
3.341707 1.686018 -0.151161
4.1526022 2.0951459 -0.187841
3.3148069 1.677276 -0.192864
4.0419259 2.0451951 -0.23517001
4.0337181 2.0469339 -0.279645
3.2672229 1.667521 -0.28225499
3.8391981 1.981981 -0.376665
3.224016 1.683404 -0.25532001
3.2077651 1.684414 -0.188095
3.5213649 1.854305 -0.160724
3.4544499 1.824193 -0.10752
3.4824979 1.844183 -0.051763002
3.735003 1.983454 0.010136
3.5361021 1.883101 0.077214003
3.4862621 1.861757 0.147848
3.7062759 1.984782 0.238074
3.7103851 1.9925359 0.32406801
4.2401128 2.2833531 0.472927
3.4515951 1.863898 0.471995
3.964905 2.147047 0.64632797
4.0625811 2.2060421 0.77251601
4.0661778 2.2141099 0.886401
4.1990561 2.2927959 1.035394
3.993247 2.18644 1.101508
3.9778881 2.1839831 1.21566
4.0947919 2.2605741 1.500077
4.8727632 2.6974521 1.93462
4.21173 2.3379159 1.801646
4.4235969 2.4622591 2.0285921
4.1514759 2.3171129 2.031044
4.1026921 2.29614 2.131176
3.9537301 2.2188151 2.1715441
3.9509699 2.2233059 2.2853169
4.256784 2.401911 2.5825169
4.2765732 2.419641 2.711237
4.1707501 2.366168 2.7524409
4.0815449 2.321841 2.7938039
4.1789498 2.3836811 2.9568651
4.0716958 2.3287771 2.966579
4.1257119 2.366045 3.085108
3.871208 2.23206 3.0157161
3.8484001 2.2668519 3.0580659
4.0486832 2.3975241 3.118664
3.839174 2.2794859 2.8962679
3.8075299 2.266685 2.8024819
3.963511 2.365793 2.836957
3.9857709 2.385365 2.7636371
3.904274 2.342756 2.613549
3.8479979 2.3150809 2.4778919
4.0966191 2.4711461 2.527858
3.8418181 2.3235459 2.2632611
3.9846711 2.416271 2.2320211
4.0896859 2.486454 2.1695709
4.0305099 2.456903 2.0165091
3.953872 2.416492 1.856753
3.9603729 2.426789 1.7371891
3.9325969 2.4160669 1.603214
3.884352 2.392647 1.463125
3.8543 2.380317 1.332572
3.833626 2.3737149 1.2078969
3.779573 2.3463249 1.076345
3.134074 1.950653 0.79891402
4.2675509 2.656131 1.087851
3.3046291 2.062145 0.74575001
3.4943249 2.1861629 0.68878698
3.5915909 2.252826 0.60773301
3.6475949 2.2938721 0.518466
4.005537 2.525471 0.465011
3.700696 2.339283 0.33688
3.882596 2.460592 0.26029301
3.544168 2.251889 0.15708201
3.3190579 2.1142831 0.075846002
3.370302 2.1524351 0.0095849996
3.4753051 2.225184 -0.054205999
3.557503 2.283654 -0.116351
3.549937 2.2846241 -0.170489
3.3893161 2.1868269 -0.20940299
3.41839 2.2112219 -0.251692
3.3520019 2.179343 -0.30765
3.2183061 2.1137769 -0.335673
3.34903 2.2219889 -0.282141
3.787936 2.5258961 -0.23636299
3.330143 2.2262211 -0.161773
3.364712 2.2549911 -0.111482
3.775569 2.5367129 -0.059749
3.23963 2.182096 0.009362
3.2547269 2.197773 0.075691998
3.406903 2.306299 0.15390401
3.390414 2.300885 0.232025
4.168623 2.8290119 0.28528199
3.3031991 2.247314 0.30741999
3.579793 2.441582 0.42552701
4.019187 2.748116 0.58584303
3.769696 2.5839679 0.65512598
3.384908 2.3259971 0.686315
3.325875 2.2911251 0.77320302
3.5587299 2.457643 0.93598002
3.4818201 2.4105091 1.024609
3.6503501 2.533402 1.1903009
3.5737081 2.486362 1.280646
3.719239 2.594034 1.454268
3.7516241 2.6230991 1.590089
3.7498069 2.628315 1.712667
4.500689 3.154623 2.0556209
3.7815869 2.65715 1.851917
4.135725 2.9131629 2.161078
3.8115339 2.691431 2.1150739
3.731395 2.6413479 2.189687
3.669594 2.6039989 2.2682121
3.868212 2.751698 2.5082369
3.942858 2.8117061 2.6721039
6.5811729 4.6931238 4.4601102
3.993367 2.854723 2.8176551
3.7532859 2.6896939 2.7472751
3.745364 2.6906021 2.8343389
6.1975288 4.4521942 4.6900382
3.6828909 2.652209 2.8703661
3.66027 2.642385 2.9283769
4.3262062 3.123131 3.4611549
3.5669291 2.6513841 2.9457431
3.5961859 2.686115 2.838829
3.5878601 2.686399 2.7547491
3.615365 2.7135479 2.689496
3.818615 2.873034 2.7429819
6.3135371 4.7501531 4.53513
3.864265 2.9144199 2.670655
3.685143 2.7860429 2.440964
3.6829431 2.7911129 2.3294301
3.7681761 2.8625989 2.2665789
3.694803 2.8136289 2.105165
4.238174 3.2351999 2.277755
4.1415629 3.1690681 2.089591
4.5171008 3.4647441 2.1291859
3.6881771 2.8357511 1.616011
3.8502591 2.96749 1.5590169
3.4185779 2.641113 1.270769
3.5222011 2.7277141 1.193406
3.517911 2.7309289 1.077521
3.5343299 2.7502561 0.96918797
3.403614 2.654896 0.82641703
3.3325751 2.605711 0.70691699
3.2371609 2.537168 0.589571
3.13379 2.4620349 0.47952101
3.27368 2.578089 0.409206
3.350296 2.644732 0.32844099
4.3841062 3.460824 0.42978901
3.084764 2.4409449 0.222753
3.888768 3.0844929 0.18568
6.2618008 4.9667349 0.29898599
3.2790949 2.6071279 0.080739997
3.9325669 3.126687 0.096830003
3.1984639 2.5490849 0.0098029999
3.1358631 2.505151 -0.052722
2.84255 2.2762489 -0.100229
2.929836 2.351732 -0.15172499
2.8804221 2.3175709 -0.19193099
3.2575719 2.6272669 -0.25872701
3.1822259 2.5787151 -0.31516799
3.156002 2.5818479 -0.355474
3.0327799 2.5046461 -0.27611801
2.8312719 2.349313 -0.190998
2.8361909 2.358959 -0.148981
2.759444 2.300549 -0.098880999
3.026119 2.5288451 -0.051803
2.903846 2.432394 0.009079
3.019171 2.534972 0.075980999
3.469593 2.920032 0.169642
3.1830101 2.685159 0.23581301
3.2227981 2.725142 0.32475799
2.903178 2.4606619 0.37372899
3.1279609 2.6574271 0.493857
3.2195661 2.7417021 0.60617203
3.4508829 2.9456029 0.75817698
3.405304 2.913537 0.85800701
3.441714 2.9516239 0.98124498
3.8474591 3.3073499 1.227555
3.8820679 3.3448751 1.372728
4.7243409 4.0705972 1.670562
3.3630991 2.9045291 1.307174
3.537065 3.061959 1.5003819
3.550283 3.0806179 1.632746
4.0968871 3.5632551 2.0307491
3.574039 3.115814 1.8998981
3.6056931 3.1507831 2.0455799
3.8997669 3.4237649 2.4855909
3.839819 3.379034 2.5783529
3.7576661 3.314487 2.647454
3.8069451 3.4213619 3.454284
3.670229 3.329448 3.4673469
3.7048681 3.3923709 3.4394071
3.8052051 3.50053 3.42694
3.8381679 3.539088 3.3865991
3.7107639 3.4536369 2.9097509
3.60127 3.35955 2.7175169
3.6979721 3.457798 2.6750171
3.733952 3.4995849 2.5797031
3.76913 3.540781 2.4769521
7.1276588 6.7114282 4.4378161
3.5164349 3.3188069 2.0656149
3.6346431 3.4383571 2.004787
4.0080161 3.800391 2.0657799
3.40169 3.2329919 1.630121
3.531424 3.3641019 1.564209
3.426249 3.2715039 1.393528
3.2107711 3.0729001 1.19056
3.337292 3.2014191 1.11891
2.879416 2.768609 0.86448598
3.2262039 3.109277 0.85781902
2.7034931 2.6115699 0.628133
2.582195 2.5001969 0.51521802
3.1384461 3.0458601 0.52623099
2.6494639 2.577282 0.36297801
2.6299469 2.564244 0.282639
3.0168109 2.9482911 0.238866
3.006824 2.9453621 0.157456
3.010649 2.9559741 0.081317998
2.825304 2.780443 0.0095009999
2.8666871 2.8277259 -0.052893002
2.7886341 2.7571361 -0.107932
3.7212591 3.6792271 -0.14402901
3.117074 3.08903 -0.177228
3.002013 2.9819181 -0.219668
2.9728129 2.9597859 -0.25934401
2.947329 2.94807 -0.32076901
2.917134 2.945107 -0.36138001
3.4306059 3.4958291 -0.343835
2.935719 3.0054669 -0.21811301
2.9512191 3.0283599 -0.170772
2.7336681 2.8116441 -0.107932
2.7437279 2.8285611 -0.051763002
2.8575029 2.952704 0.0098489998
2.4931209 2.5821819 0.069178
2.8382521 2.9464791 0.153045
2.586683 2.6915619 0.21138901
2.6456189 2.7593 0.29414701
2.9856319 3.1211679 0.42415899
2.8316331 2.9670651 0.493498
2.958324 3.107038 0.61497003
3.9665029 4.1658969 0.82454699
2.5582509 2.6931059 0.62071598
3.043618 3.2115149 0.84710097
2.750423 2.90891 0.86638898
2.819854 2.9892859 0.99427301
3.1716981 3.370029 1.239725
3.7857931 4.0318918 1.626912
4.0329461 4.3051271 1.891893
3.8339319 4.1022139 1.95037
3.06792 3.2902479 1.6825401
3.312974 3.5613511 1.948995
3.0909491 3.3304231 1.941081
3.107022 3.355545 2.072962
7.5175891 8.1378546 5.306396
7.4278049 8.059412 5.5249128
3.707494 4.0415511 3.026227
3.6197851 3.9551461 3.0775161
3.578259 3.9189091 3.157346
3.5157969 3.8594871 3.208725
3.5475321 3.9034159 3.335932
3.5654421 3.932296 3.4431961
6.1865878 6.8550491 6.2316961
4.965497 5.6321688 4.976604
5.0360522 5.7255802 4.9462948
3.5291741 4.0217872 3.3840389
3.5354469 4.038393 3.2987871
3.4779291 3.9820099 3.145586
3.531383 4.0526962 3.0854809
3.5959389 4.1364799 3.0242951
3.653677 4.2127619 2.9464431
4.3745909 5.0677271 3.2065599
3.0805211 3.577002 2.1398461
3.1402659 3.654959 2.0585439
6.711647 7.830061 4.1323161
3.579689 4.2057648 1.771263
2.86324 3.371933 1.301247
3.571754 4.2063241 1.623243
2.8895659 3.410964 1.197547
2.8584001 3.3821261 1.071407
2.891804 3.4297171 0.97087997
2.69712 3.2063749 0.80216098
2.540592 3.0274179 0.660438
2.5716469 3.0716579 0.57424599
3.415518 4.0796051 0.76268202
2.5343771 3.0342989 0.47569901
2.5044129 3.0055079 0.384186
2.7388279 3.294594 0.329669
2.814539 3.3936851 0.24966399
4.5232739 5.4540272 0.40123799
2.8437099 3.43697 0.166876
2.669327 3.2338519 0.080816999
2.57007 3.120976 0.009691
2.596699 3.1607821 -0.053732999
2.7994699 3.4156871 -0.121551
3.5091591 4.2815919 -0.152365
2.5697551 3.1428411 -0.16395199
2.566005 3.1457 -0.210751
2.542639 3.1244619 -0.24903899
2.5283401 3.121665 -0.30910701
2.598367 3.2387769 -0.36198801
2.6531351 3.3386941 -0.29936701
2.9908929 3.7817309 -0.25030899
2.6619229 3.373817 -0.173556
3.3631461 4.2625718 -0.219276
2.5942471 3.295902 -0.115443
2.5016291 3.185847 -0.053208001
3.5915771 4.573904 -0.076389998
2.5487051 3.253566 0.0099060005
2.559232 3.274838 0.080104001
2.5178671 3.2296259 0.153194
2.658958 3.418777 0.245254
2.486985 3.2053421 0.31217599
2.5322859 3.2715621 0.40627399
2.655344 3.4387839 0.52276701
3.2894471 4.259975 0.647605
2.480952 3.22067 0.58275998
2.4346509 3.168164 0.66768998
2.736227 3.5691669 0.86101598
2.7015381 3.532413 0.96241999
3.027374 3.967999 1.207566
2.7853031 3.6594369 1.231962
2.737138 3.6048379 1.331443
3.777343 4.9747992 1.837437
3.6728151 4.8488369 1.950833
3.6322441 4.8068681 2.0927761
3.5756431 4.7434101 2.221668
3.505825 4.6620641 2.337306
3.3982451 4.5299511 2.4191821
3.344661 4.4693298 2.5304101
3.404985 4.5609889 2.726202
3.3516481 4.500443 2.8286259
3.3160951 4.4635181 2.9380341
3.241643 4.3739262 3.004004
3.2420571 4.3851252 3.130285
3.1947701 4.3316989 3.2023411
3.174736 4.315022 3.2925041
3.1164279 4.2460961 3.331121
3.083684 4.2117472 3.386055
3.0653701 4.2072072 3.513021
2.980932 4.1315498 3.5648091
2.9763651 4.1658978 3.505506
2.9969079 4.2153382 3.428045
3.017755 4.2551212 3.383878
3.0458331 4.3053021 3.335397
3.054471 4.3281832 3.255851
3.0686569 4.359026 3.171663
3.0986781 4.4125538 3.0949399
3.1079929 4.4367852 2.989027
3.11765 4.4615908 2.8759
3.12146 4.4781308 2.751653
3.155117 4.5376449 2.64715
3.2178171 4.6393089 2.55931
3.240339 4.6834059 2.4329319
3.2806239 4.7534261 2.3142459
3.327502 4.8333511 2.194694
3.3550651 4.8855472 2.058651
2.8634579 4.1800818 1.624981
3.3978341 4.960165 1.928234
2.8123381 4.115705 1.466337
2.612474 3.8327799 1.242571
3.230319 4.7510748 1.390054
2.7100821 3.9958999 1.0449131
2.510658 3.711144 0.85781902
2.5324121 3.752686 0.75652897
2.772094 4.1181731 0.71160001
2.1961019 3.2706971 0.47402599
2.503803 3.7383399 0.44184801
2.4558909 3.6760349 0.340179
2.309315 3.4653571 0.23581301
2.4528561 3.690038 0.165755
2.5818689 3.8939409 0.090047002
2.4492819 3.70331 0.010642
2.2410431 3.3970239 -0.053458001
2.2600639 3.4345419 -0.11316
2.2221911 3.3855469 -0.16354901
2.213249 3.3804791 -0.209766
2.1518631 3.295078 -0.243301
2.5537331 3.930366 -0.36066401
2.213753 3.442045 -0.35677701
2.699291 4.1969819 -0.43502799
2.173327 3.413969 -0.28410101
2.2933609 3.621083 -0.22251999
2.7518201 4.3449621 -0.267003
2.243942 3.552176 -0.169682
2.2956779 3.6434431 -0.118525
2.921288 4.6363401 -0.15082499
2.2192161 3.5311921 -0.054784
2.2641599 3.6120141 0.010218
2.83883 4.5287862 0.012811
2.632688 4.2108049 0.095712997
2.326627 3.7309179 0.16448399
2.225281 3.5776529 0.238583
2.338486 3.7694271 0.34132999
2.2135439 3.577302 0.41311499
2.2103729 3.58147 0.50639999
2.4912579 4.0471172 0.681234
2.294414 3.737057 0.73279399
2.793963 4.550703 0.89234102
2.471725 4.0363641 0.90614498
2.3556581 3.8568931 0.97807199
2.4797261 4.070652 1.153244
2.554523 4.2043161 1.317871
2.5332439 4.1802311 1.437835
3.7697859 6.2207088 2.139679
2.5184629 4.1667681 1.56146
3.770359 6.2544198 2.536727
3.844636 6.394423 2.7905719
3.7166741 6.2471991 3.4817281
5.0650058 8.5135527 4.7448268
3.671804 6.1881289 3.6271591
5.075273 8.5534096 5.0135641
3.6177111 6.1131392 3.7532461
5.0163431 8.4765205 5.2042761
4.820209 8.1667585 5.2326088
3.9385159 6.762414 5.0763612
3.65853 6.383635 5.1482768
3.7720411 6.6531992 5.2365079
3.7776539 6.699358 5.0975928
3.928417 6.985682 5.1988068
3.8389161 6.8451281 4.963542
4.2032609 7.556428 4.963254
4.1062479 7.4225979 4.4820309
3.5098929 6.3620682 3.66272
5.108655 9.28549 5.0761528
3.288928 6.0110068 2.927139
3.4044139 6.2392769 2.8479879
3.6015251 6.6188011 2.8182459
3.6542571 6.7343602 2.6614151
3.0571489 5.6496091 2.060163
1.967241 3.6455719 1.2185611
3.0014319 5.5620732 1.859167
3.031544 5.6335468 1.713775
1.990463 3.7092171 1.018495
3.047049 5.6781592 1.559136
2.2628429 4.22858 1.037933
1.915713 3.589931 0.77903199
2.1179521 3.9800389 0.75339699
1.998454 3.7660241 0.611139
1.932695 3.652359 0.49720201
1.8935831 3.5885241 0.39845499
1.815369 3.450007 0.29997799
1.891736 3.60531 0.230555
1.957814 3.741802 0.157979
1.998861 3.8310969 0.083283998
2.042774 3.9263771 0.010609
2.6418519 5.0778542 0.01372
2.2512381 4.3393688 -0.064214997
2.679476 5.1648159 -0.07643
2.0696189 4.000668 -0.123972
2.0448301 3.9640279 -0.180134
1.9267679 3.7458329 -0.218683
1.876235 3.658047 -0.254161
1.984005 3.890399 -0.336036
1.8777 3.7246449 -0.36363801
1.8281339 3.668653 -0.287743
1.82783 3.6895089 -0.21375801
1.875401 3.796613 -0.171014
1.873571 3.804034 -0.116709
2.473803 5.0227242 -0.154099
1.974591 4.020936 -0.058843002
2.648509 5.39326 -0.078924999
1.878615 3.836755 0.010239
1.813715 3.7151461 0.079680003
1.850455 3.8016 0.15816601
2.24106 4.6176891 0.29065299
1.9291019 3.986702 0.34079301
1.823617 3.779901 0.412137
1.9276429 4.00741 0.53507102
1.912544 3.98789 0.63398403
2.2682559 4.7295942 0.75189799
1.911263 3.997122 0.740376
1.991558 4.1775112 0.88602501
2.072252 4.359827 1.044701
2.787864 5.8830261 1.575128
2.718081 5.752862 1.70446
2.6565261 5.6395178 1.833768
2.622997 5.5851698 1.978929
2.579226 5.5085778 2.1127911
2.5387571 5.4385748 2.2447879
2.505079 5.3827429 2.3789639
2.478246 5.3412838 2.51543
2.445694 5.2871919 2.6406429
2.416815 5.240736 2.7642159
2.4017999 5.2241149 2.898396
2.3901899 5.2148032 3.0310011
2.5275719 5.5315008 3.355711
2.782069 6.1072001 3.8521221
2.658057 5.8529921 3.8246069
3.4398379 7.57446 4.949492
2.6326001 5.9616551 4.5600662
2.6338251 6.0401921 4.5116792
2.621634 6.0505581 4.3705502
2.1897421 5.0861139 3.502167
2.1765299 5.0716472 3.3919909
2.1845319 5.1066408 3.3046041
2.1788621 5.1097808 3.18853
2.1905749 5.1538439 3.089998
2.1957271 5.1826658 2.9740059
2.1750071 5.1504178 2.8182731
2.2270899 5.2908778 2.7495289
2.228441 5.3113222 2.6109171
2.2639771 5.4136481 2.506788
2.313935 5.5512009 2.4098361
2.4328949 5.8557181 2.3716011
2.6658311 6.437479 2.420243
2.350553 5.7136288 1.8174
1.8092149 4.412334 1.277504
1.819738 4.452714 1.163826
1.851229 4.544827 1.0620461
2.3404901 5.7459788 1.342734
1.784794 4.396348 0.90840101
1.601885 3.958981 0.71367502
1.7089339 4.2376871 0.654984
1.847573 4.5968699 0.59611601
1.666048 4.1591702 0.439991
1.7341599 4.3438048 0.359896
2.641278 6.6383958 0.40457299
1.5772949 3.9776931 0.160072
2.0336859 5.1286421 0.20638999
1.6076519 4.0680432 0.084305003
1.771423 4.4977188 0.011587
1.688602 4.302072 -0.060708001
1.533442 3.9201601 -0.115856
1.598266 4.0998998 -0.17771199
1.6364191 4.2122111 -0.23459999
1.620877 4.1866131 -0.277547
1.612692 4.1943669 -0.34577999
1.975521 5.1380291 -0.42357501
1.698171 4.4786949 -0.41757101
1.937639 5.1102581 -0.476455
1.5650001 4.1860189 -0.313723
1.543448 4.1577921 -0.23024499
1.472883 3.9818611 -0.17145801
1.521102 4.126935 -0.121056
1.571557 4.2791471 -0.05988
1.658819 4.5330029 0.01157
1.72894 4.7416878 0.097273998
1.595952 4.3928008 0.174839
1.602672 4.4273028 0.26662499
1.7465841 4.8424282 0.39610901
1.4991159 4.171484 0.43529999
1.528193 4.2679558 0.54546398
1.542976 4.3250728 0.65824699
1.534408 4.316884 0.76559401
1.558025 4.3995042 0.89354599
1.578132 4.4893961 1.1513619
2.3910511 6.801949 1.744445
1.52428 4.3521972 1.2353261
1.552483 4.4492712 1.386191
2.120501 6.0999432 2.071157
1.9045939 5.4994259 2.0215731
2.818068 8.2924452 4.194921
1.739521 5.1382818 2.7345481
1.840238 5.4566278 3.04268
1.816872 5.4080958 3.1479721
1.785497 5.3352098 3.229351
1.771271 5.3132129 3.3322151
1.736392 5.2288108 3.3862309
1.717844 5.1931019 3.4594059
1.705014 5.1744809 3.5340791
1.668076 5.1021972 3.622663
1.6906511 5.2537651 3.8617809
1.620201 5.1162062 3.6744249
1.618959 5.153851 3.5805249
1.66704 5.3285379 3.621696
1.637187 5.2545109 3.4807861
1.638642 5.2807841 3.3982749
1.613785 5.2220869 3.2519391
1.645434 5.3464909 3.210932
3.8606269 12.754786 6.3828812
1.836812 6.1456151 2.5701439
2.8394761 9.581399 3.471225
1.939353 6.5720568 2.197588
2.830065 9.5904903 3.206903
1.303043 4.4346948 1.359664
4.0665941 13.899695 3.879606
1.246155 4.2963648 0.96813101
1.320545 4.5726972 0.91122198
1.321354 4.5955029 0.799052
1.5814871 5.5243511 0.82369602
1.4782619 5.1865468 0.64891899
1.35106 4.7612128 0.48602301
1.265345 4.4789362 0.358132
1.312932 4.6681108 0.27459699
1.344528 4.8018279 0.18653899
1.365674 4.8992748 0.098025002
1.2939219 4.6627841 0.011598
1.4143389 5.1197772 -0.069770999
1.719466 6.224308 -0.084822997
1.243376 4.5213761 -0.129062
1.277424 4.6663661 -0.19538701
1.3374979 4.9081759 -0.26409999
1.235671 4.5553722 -0.29179999
1.1971591 4.4542928 -0.35490999
1.466161 5.5580711 -0.50111997
1.269276 4.903934 -0.35559899
1.262008 4.9229708 -0.26383999
1.509499 5.888411 -0.31558201
1.235965 4.8447528 -0.201924
1.248588 4.9180589 -0.13965499
1.256706 4.9742651 -0.067392997
1.259325 5.009109 0.01238
1.268802 5.0717282 0.100761
1.802384 7.2045889 0.14313599
1.2171251 4.8892579 0.188483
1.157065 4.6711178 0.27250499
1.19971 4.8675122 0.38575101
1.163174 4.7429619 0.47957301
1.221042 5.0040269 0.61976999
1.2386971 5.1021199 0.75260699
1.134781 4.6978741 0.80762303
1.087842 4.526566 0.89129001
1.397992 5.8470211 1.301064
1.5076489 6.3381758 1.576303
2.496855 10.496806 2.610554
1.780478 7.5235872 2.0711241
2.214746 9.4073429 2.8429329
1.743394 7.444006 2.451978
1.880546 8.1144218 3.115309
2.2924759 9.9444094 4.08917
1.559818 6.80231 2.981353
1.508319 6.684535 3.454309
1.6668071 7.4270592 4.0218692
1.516905 6.7960758 3.842207
1.182725 5.3573828 3.26421
1.130145 5.1475849 3.239095
1.412407 6.4332328 4.0480828
1.137554 5.2102008 3.3728139
1.56896 7.1861138 4.651917
1.107348 5.1002879 3.38551
1.252597 5.7692862 3.8295829
1.868194 9.1137915 6.3697948
1.047851 5.1728892 3.498208
0.99810398 4.9568691 3.2799339
1.303524 6.6327109 3.8800001
1.248662 6.4324908 3.462199
1.419814 7.452888 3.439111
1.347142 7.1163979 3.094101
1.8600841 9.8888597 4.0318909
1.058089 5.6613321 2.154058
1.410058 7.79493 1.916585
1.120141 6.2335382 1.3706549
1.369285 7.671227 1.491876
0.98698503 5.5667882 0.944754
0.99075502 5.6260371 0.81887197
0.94593102 5.408298 0.66062599
1.028085 5.9184752 0.58991301
0.90292698 5.2339869 0.40869099
0.88018501 5.1378002 0.295176
1.071932 6.3010011 0.239099
0.93559098 5.5384898 0.108257
0.83818501 4.9971781 0.012145
0.94894099 5.6980252 -0.075878002
0.92019099 5.5653028 -0.15525401
1.066462 6.4499521 -0.179933
0.88856798 5.4130831 -0.221535
0.88727701 5.4447489 -0.28639299
0.90228999 5.577704 -0.349309
1.006426 6.3143959 -0.49200901
0.98037398 6.3403192 -0.55930901
0.84010601 5.6054459 -0.39789599
0.79229999 5.3715711 -0.281883
0.77172798 5.274497 -0.21528099
0.93936998 6.4727139 -0.180016
0.79905999 5.551302 -0.073671997
0.79480201 5.5675378 0.01348
0.86008197 6.0752811 0.118258
0.74533999 5.3091869 0.20055801
0.72350699 5.1974778 0.29715401
0.75234902 5.4510589 0.423421
0.78269303 5.7199268 0.56694603
0.78634697 5.7967129 0.70387101
0.76897597 5.7185512 0.82710201
0.83322501 6.251267 1.053866
0.95896399 7.2589502 1.401807
1.3860379 10.58648 2.310653
1.21719 9.3814135 2.2888501
1.1778671 9.1609192 2.4742739
1.297958 10.188502 3.021287
1.283942 10.172879 3.2884419
1.285653 10.28258 3.5995209
1.2507139 10.098431 3.8057711
0.68458003 5.580605 2.2528751
0.67264998 6.265286 4.2525449
0.65780503 7.9513021 3.4083829
0.57889098 7.201025 2.7019429
0.79239702 10.002572 3.4853339
0.75178099 9.6320038 3.098489
0.721277 9.3816605 2.7678671
0.49300399 6.7189732 1.4580131
0.44639701 6.1823301 1.186694
0.440027 6.194283 1.0377131
0.441084 6.3129239 0.90713
0.45892 6.6799588 0.80565298
0.40804699 6.0421071 0.59470201
0.393053 5.9224262 0.456718
0.360596 5.6315198 0.2111
0.433891 6.902091 0.13328899
0.420223 6.811029 0.016356001
0.402729 6.6532469 -0.087554999
0.377754 6.3633828 -0.175449
0.37821001 6.4986968 -0.26289701
0.361422 6.3371539 -0.329528
0.27142999 6.4805832 -0.33673501
0.273554 6.7179518 -0.271532
0.25891101 6.5454011 -0.180291
0.26694301 6.9532771 -0.091403
0.230103 6.3806672 0.123057
0.217243 6.224854 0.233006
0.209317 6.204525 0.351542
0.212504 6.5242438 0.50229001
0.20973299 6.6775699 0.65607798
0.210407 6.9566178 0.83743
0.184936 6.359282 0.91195399
0.178863 6.4066339 1.071007
0.16512799 6.1716628 1.181993
0.24600901 10.070345 2.437238
0.16857 7.241632 1.94045
0.16948301 7.662406 2.2545359
0.14928401 7.1230001 2.28493
0.165749 8.3716011 2.9084921
0.18674199 10.018367 3.7476189
0.161244 9.8798046 4.2211928
0.15274 10.074059 4.5670409
0.089065999 8.4635439 4.6702652
-0.017573999 7.8894262 5.5203519
-0.10018 9.6876898 6.2845001
-0.12311 9.7242727 5.977088
-0.202125 10.303858 4.936192
-0.208516 10.036619 4.5505261
-0.24406099 9.6028891 3.336694
-0.24421 9.189558 2.9482369
-0.28873199 9.9923563 2.6779189
-0.34936199 10.41761 1.741829
-0.31087101 8.9599676 1.285136
-0.342114 9.5410061 1.148749
-0.25100401 6.7807159 0.66633898
-0.297243 8.0298481 0.78909099
-0.287714 7.5362158 0.58031499
-0.27546901 7.002357 0.396828
-0.28962001 7.1511321 0.26773399
-0.31625599 7.5910039 0.146431
-0.303718 7.0924802 0.017015001
-0.319554 7.265348 -0.095527001
-0.31183699 6.9073458 -0.19030499
-0.510557 8.009201 -0.32411101
-0.46347201 7.140264 -0.196936
-0.50516403 7.5130138 0.018049
-0.56598002 8.1356316 0.30508
-0.56749099 8.0230703 0.45545599
-0.59139198 8.2253904 0.634556
-0.67392802 9.2239246 0.90822703
-1.132531 15.021389 2.1593471
-0.79310298 9.9065514 2.4045501
-0.76296699 9.3830957 2.5218861
-0.72963297 8.8459044 2.610961
-0.866436 10.357384 3.3333349
-0.829548 9.7796345 3.409209
-0.87990499 10.09455 4.0601592
-0.79827398 9.0366812 3.875484
-1.0201451 11.106346 5.6221418
-0.82373297 8.3297997 5.2938738
-1.090953 9.5552626 6.3743401
-0.97352499 8.3544683 5.319531
-1.258606 9.4593306 2.8070929
-1.245685 9.2796326 2.508172
-1.4096971 9.8089256 0.76252598
-1.493947 10.226222 0.38661101
-1.5124429 10.269295 0.200058
-1.405405 9.4662142 0.022938
-0.97838902 6.2400932 -0.48602501
-0.90709299 5.6146259 -0.495823
-1.140656 6.8576751 -0.48802099
-2.359123 13.691036 -0.182491
-1.92356 8.5337563 5.3765001
-3.312259 12.87162 0.031856999
-1.727477 6.5552611 -0.41909701
-1.48019 5.5644732 -0.44306201
-1.372382 5.064446 -0.45743501
-1.67769 6.0792308 -0.44271401
-1.684957 -5.444766 1.67658
-2.3642149 -7.639719 2.3524611
-1.703276 -5.5265708 1.549203
-1.736551 -5.657733 1.431913
-2.352571 -7.6647458 1.939867
-1.832517 -5.9950528 1.356694
-2.335073 -7.6391592 1.72876
-1.858842 -6.1064162 1.2220449
-1.740317 -5.7408299 1.002442
-1.6017669 -5.3058429 0.79446602
-1.566385 -5.2104001 0.65465301
-1.546405 -5.165556 0.52951401
-1.562089 -5.239954 0.42073601
-1.463522 -4.9301209 0.29121801
-1.471043 -4.9765038 0.19412801
-1.480158 -5.0287151 0.101031
-1.535373 -5.2386198 0.013085
-1.355801 -4.6457901 -0.063570999
-1.432321 -4.9291711 -0.141278
-1.497799 -5.1992712 -0.280898
-1.458479 -5.084868 -0.327034
-1.4544981 -5.1155181 -0.409228
-1.360236 -4.8694062 -0.44075999
-1.406023 -5.124536 -0.373036
-1.393374 -5.124804 -0.275713
-1.37436 -5.0780139 -0.212456
-1.3061661 -4.8482332 -0.13819601
-1.437433 -5.3601279 -0.072897002
-1.364825 -5.1129599 0.012684
-1.288062 -4.8478689 0.096675999
-1.301736 -4.9222178 0.190465
-1.298444 -4.9327979 0.28884399
-1.371352 -5.234345 0.416363
-1.362538 -5.2252989 0.53029603
-1.37447 -5.2960849 0.65835601
-1.6308579 -6.2839961 0.78116298
-1.325901 -5.133337 0.75998598
-1.3783391 -5.3619089 0.92514098
-1.501706 -5.8699112 1.1599931
-1.958377 -7.6549578 1.512748
-1.488114 -5.8449092 1.305295
-1.955215 -7.679553 1.715011
-1.367162 -5.395885 1.346783
-1.9424829 -7.6665468 1.913528
-1.3471 -5.3425121 1.475974
-1.92647 -7.6776252 2.328474
-1.5117739 -7.6066461 2.2813449
-1.5046901 -7.6170392 2.079922
-1.500717 -7.6433182 1.884603
-1.4904751 -7.6377769 1.684129
-1.132293 -5.8382039 1.138557
-1.483669 -7.6499271 1.491876
-1.129576 -5.860374 0.99733198
-0.94920099 -4.9553361 0.72323501
-1.115688 -5.8244891 0.850088
-1.217721 -6.397162 0.783553
-1.4562891 -7.650456 0.93706203
-1.248189 -6.598681 0.65949798
-1.028845 -5.4736829 0.428561
-1.0578099 -5.663835 0.326271
-1.44058 -7.7629428 0.29536
-0.91767102 -4.977169 0.097543001
-0.94326401 -5.149303 0.012548
-1.417869 -7.7401838 0.018860999
-0.98110402 -5.3909788 -0.071976997
-1.413829 -7.7687149 -0.103723
-1.399636 -7.7415142 -0.216525
-1.0248179 -5.7059741 -0.234125
-1.036284 -5.8083348 -0.30630201
-1.368498 -7.6703849 -0.404497
-1.358519 -7.665689 -0.48129499
-1.238134 -7.488657 -0.532839
-1.226045 -7.52349 -0.395735
-1.219921 -7.5407329 -0.30849499
-1.208258 -7.5237131 -0.209729
-1.200541 -7.5312548 -0.100177
-1.193666 -7.5441279 0.018307
-0.787027 -5.0116372 0.097774997
-0.84085798 -5.3950472 0.20425899
-1.165048 -7.5322199 0.43159801
-1.156444 -7.5342321 0.58652902
-1.151324 -7.5590429 0.75087798
-1.13913 -7.5374241 0.91723102
-0.91156399 -6.0792022 0.881163
-1.133363 -7.5583768 1.095565
-0.80826199 -5.433043 0.91788799
-3.438355 -23.29694 4.508534
-3.4209859 -23.366198 5.1107659
-3.389168 -23.336773 5.7055449
-3.338943 -23.369505 6.9442191
-3.2097189 -23.430573 10.102971
-3.1896999 -23.486012 10.743816
-3.003248 -23.538652 14.584305
-0.60431302 -5.6734338 3.394594
-2.3542061 -23.383108 11.256436
-2.3249519 -23.363081 10.642666
-2.297214 -23.358307 10.026758
-2.178246 -23.25061 7.4893899
-2.156992 -23.313465 6.8872142
-0.66099203 -7.7275062 1.1117409
-0.65058601 -7.7107878 0.93108898
-0.64099097 -7.7031951 0.75908703
-0.63196301 -7.7022719 0.59466201
-0.62052202 -7.6716151 0.43583801
-0.60975599 -7.648366 0.28702399
-0.59918803 -7.627079 0.147452
-0.59087801 -7.6341448 0.018353
-0.57928097 -7.5982928 -0.100098
-0.570481 -7.5987301 -0.209729
-0.56036001 -7.5811219 -0.30700201
-0.54972202 -7.5558271 -0.393298
-0.53975803 -7.5392728 -0.46728799
-0.44715899 -7.4532232 -0.52415502
-0.428233 -7.4246449 -0.38609201
-0.42061901 -7.4420471 -0.30103001
-0.41253999 -7.4517632 -0.20541
-0.404098 -7.4554119 -0.098075002
-0.396532 -7.4754691 0.017943
-0.38776901 -7.473557 0.144234
-0.37955499 -7.4821391 0.280258
-0.37127599 -7.48979 0.42464399
-0.36343101 -7.5069909 0.57832003
-0.35406399 -7.492557 0.73660898
-0.345963 -7.5048409 0.90397102
-0.338462 -7.5313382 1.080667
-0.19891299 -6.6520362 3.1875529
-0.150443 -5.951983 3.417527
-0.156433 -7.1736741 4.538065
-0.013088 -6.0793509 3.6170149
0.247357 -26.29463 9.1339912
0.32887101 -18.793489 3.140995
0.144953 -7.7702098 1.114012
0.15312301 -7.7287259 0.93013299
0.162065 -7.7291141 0.75918502
0.171002 -7.7292552 0.59489202
0.17907099 -7.6915898 0.43566799
0.187419 -7.6693439 0.28698701
0.196418 -7.6740608 0.147953
0.204841 -7.657239 0.01836
0.21272101 -7.622375 -0.100164
0.221707 -7.6278892 -0.210032
0.22981501 -7.6043272 -0.307244
0.238098 -7.5880418 -0.39412799
0.24683499 -7.586494 -0.469262
0.26262999 -7.5361338 -0.58023798
0.33111 -7.5062099 -0.52744699
0.34834301 -7.5028028 -0.38992801
0.35473099 -7.4544811 -0.301393
0.37448099 -7.504014 -0.098692998
0.38649699 -7.5691171 0.018166
0.39325199 -7.5303378 0.14533199
0.40179899 -7.5270109 0.281977
0.41202801 -7.5546522 0.42843199
0.42230701 -7.5818009 0.58430398
0.43010101 -7.5643368 0.74403697
0.44015101 -7.5864301 0.91436398
0.44940299 -7.593956 1.090457
1.776512 -26.39888 8.4855728
0.398269 -4.9030318 3.023365
0.553213 -6.4417009 4.363306
0.79864001 -8.1889839 5.4533811
0.88570899 -8.8697538 5.6375699
0.71850902 -7.0310531 4.2050228
0.56524903 -5.4077501 3.000139
0.929138 -8.7909403 4.6707678
0.966088 -7.8389602 1.132174
0.97438401 -7.8316941 0.94960499
0.98316997 -7.8285508 0.774822
0.98952597 -7.806273 0.605479
0.99280298 -7.7602172 0.44301799
1.001895 -7.760118 0.29270601
1.009317 -7.747077 0.150574
1.0184439 -7.747323 0.018728999
1.026775 -7.7415318 -0.102581
1.0336961 -7.7251968 -0.214517
1.0426919 -7.7245908 -0.31479001
1.048893 -7.7034502 -0.403615
1.0566601 -7.693953 -0.480122
1.066952 -7.638041 -0.59343398
1.146126 -7.6858902 -0.54551399
1.166968 -7.7036209 -0.404497
1.180706 -7.7340159 -0.31595999
1.1907589 -7.739974 -0.215535
1.202813 -7.7586408 -0.103132
1.218042 -7.7974148 0.018916
1.228384 -7.8044529 0.15226901
1.236913 -7.8000112 0.29543501
1.244162 -7.7876072 0.44657999
1.254164 -7.792387 0.60732001
1.264172 -7.7971869 0.775702
1.275095 -7.8075018 0.95187497
3.9872899 -23.394859 6.3575029
4.1177421 -23.503702 8.9245052
4.1460652 -23.50535 9.563838
4.175962 -23.515991 10.203148
4.2160912 -23.583662 10.85983
1.58031 -8.7233419 4.468905
1.5166709 -8.317255 4.467082
1.376441 -7.4990792 4.2069578
1.4838769 -8.032135 4.688458
1.898616 -9.6512251 6.882524
1.923351 -9.543787 6.6658282
1.765354 -8.3123388 4.4899731
1.681461 -7.872489 4.0579352
5.0775352 -23.375578 10.218862
5.1972408 -23.662937 9.0611258
5.251029 -23.646748 7.768517
5.2089348 -23.329788 7.031703
5.2282882 -23.289743 6.3942471
1.853156 -8.2106028 2.0365191
1.863723 -8.2132263 1.822675
1.870605 -8.1995869 1.6101511
1.880546 -8.1994648 1.405759
1.885272 -8.1767015 1.2028379
1.894786 -8.1747541 1.0096951
1.903814 -8.1707783 0.82388401
1.910423 -8.1564922 0.64460701
1.921996 -8.1633568 0.474904
1.9287961 -8.1500149 0.31330401
1.936674 -8.141264 0.16128799
1.946434 -8.1405087 0.020062
1.950768 -8.1171598 -0.10966
1.957003 -8.1018372 -0.22940101
1.971633 -8.1212835 -0.33750799
1.978543 -8.1088686 -0.433323
1.991323 -8.1204424 -0.51689798
2.0060661 -8.0996046 -0.642075
2.0435059 -8.0902576 -0.72745001
2.081908 -8.0846987 -0.58605999
2.1039391 -8.092721 -0.4341
2.113147 -8.0897474 -0.33767
2.1251941 -8.0975971 -0.230419
2.140029 -8.1158714 -0.110251
2.1500959 -8.116003 0.020124
2.165261 -8.1352148 0.162251
2.1761229 -8.1381865 0.31513599
2.1889939 -8.1485844 0.477788
2.1993489 -8.1494884 0.649517
2.216145 -8.1741714 0.83170301
2.22054 -8.1530714 1.0167429
2.2397871 -8.1863737 1.216601
2.252398 -8.1952581 1.4202631
2.2630379 -8.1969013 1.628014
2.2784181 -8.2155437 1.845096
6.556109 -23.430166 6.5176759
6.7518821 -23.811615 8.5971804
2.470861 -8.6757259 3.3738379
6.7360668 -23.548433 9.8141584
2.647465 -9.1353903 4.5556211
1.6532609 -5.5603762 3.5653081
2.6014161 -8.7492828 5.610033
2.3599141 -7.8049059 5.5028
2.346416 -7.6327901 5.587429
2.404855 -7.6961541 5.5206771
2.472615 -7.8492608 5.4544859
2.503361 -7.9149718 5.3849258
2.5505199 -8.0318203 5.3296871
2.574954 -8.0763931 5.2099891
2.621258 -8.1889544 5.1156678
2.647948 -8.2395649 4.9677348
2.710252 -8.4000912 4.8702741
2.758137 -8.5148592 4.7291641
2.8084891 -8.6362429 4.577837
2.855855 -8.747551 4.4074531
2.8945479 -8.8315039 4.2128081
2.9331281 -8.9143858 4.0090532
2.971693 -8.996603 3.7964489
3.001919 -9.05301 3.56721
3.022301 -9.0793343 3.3238969
2.956356 -8.8471403 2.9916029
2.994566 -8.9271927 2.7698419
3.0202751 -8.9694357 2.535342
3.0379801 -8.9877014 2.295434
3.0455599 -8.9759579 2.0513289
3.050956 -8.9578199 1.811725
3.057353 -8.9427671 1.5793149
3.0697441 -8.9452658 1.3556581
3.077641 -8.9346275 1.137041
3.069644 -8.8781204 0.92249602
3.0656431 -8.833519 0.719486
3.0668719 -8.8041925 0.52793503
3.0784891 -8.8048124 0.34893
3.0846219 -8.789731 0.179536
3.0966599 -8.791544 0.022341
3.1022141 -8.7749748 -0.122256
3.084034 -8.6915703 -0.25383201
3.0595281 -8.5910292 -0.36829701
3.1222661 -8.7352762 -0.48159099
3.099932 -8.6412668 -0.56755698
3.004122 -8.313755 -0.68020499
3.1352861 -8.5528975 -0.79414999
3.021832 -8.1270475 -0.608679
3.0488851 -8.1421747 -0.45136499
2.927752 -7.7912889 -0.33613601
3.363708 -8.8890333 -0.124844
3.387028 -8.9195404 0.022869
3.3931539 -8.9046469 0.18366
3.3924029 -8.8718872 0.355322
3.3917069 -8.839467 0.53613299
3.3898051 -8.8040724 0.72593099
3.3940499 -8.7848434 0.924842
3.4025271 -8.7766361 1.132621
3.428344 -8.812993 1.355516
3.447314 -8.8315725 1.58426
3.4733651 -8.8680792 1.823383
9.4621801 -23.588507 9.5056686
9.5002279 -23.604286 10.195402
9.6611252 -23.924215 11.022244
9.7425804 -23.729967 14.154278
10.609605 -23.855534 13.160943
3.6552839 -8.1679659 4.056335
3.736697 -8.3240461 3.897876
3.805572 -8.4513292 3.713877
3.8632691 -8.553051 3.5101089
3.9799271 -8.7842226 3.3498189
3.9862919 -8.7712994 3.0899379
6.4980969 -13.954151 1.852142
4.5090261 -9.6536169 1.0463229
4.5908589 -9.7698374 0.61127001
4.1092191 -8.6408501 -0.12568399
4.0530262 -8.4973269 -0.25911501
4.0632248 -8.4934406 -0.38024199
4.019032 -8.3761902 -0.48231599
3.9797139 -8.2697029 -0.56737202
4.2974401 -8.8773708 -0.75892001
4.2690978 -8.7158194 -0.84608603
4.124608 -8.323204 -0.65209597
4.204586 -8.4355116 -0.48931599
4.1986971 -8.3993769 -0.379233
7.1587701 -13.995798 1.543781
12.200157 -23.449434 6.3955159
12.422235 -23.809338 7.194078
12.505492 -23.83412 8.6321611
5.236156 -9.868187 4.7723641
4.8002801 -8.8722439 6.00177
4.285337 -7.876863 5.6712451
4.507895 -8.1282721 6.5035701
4.3113732 -7.6481419 5.8191118
4.9632559 -8.7570953 6.3661189
4.319068 -7.579515 5.1903191
5.07059 -8.8744612 5.8667951
4.8795538 -8.4264574 4.4138699
8.4125605 -13.99919 1.603886
8.4391947 -14.006765 1.2582951
5.1484179 -8.3903313 -0.397553
5.133934 -8.3450422 -0.508654
5.0804582 -8.2367125 -0.59828597
5.0884099 -8.2070217 -0.74303901
5.1802812 -8.2694044 -0.85068899
5.1790462 -8.1829443 -0.67982602
5.2981138 -8.3283157 -0.512438
5.5750809 -8.7190561 -0.284839
7.629096 -11.544686 3.3480279
5.8332658 -8.6953316 4.1955471
5.4172478 -7.9949079 4.8681722
9.0966787 -13.391697 8.5538874
4.7654018 -6.9287372 5.3184619
5.1467352 -7.3547602 6.281127
4.8052902 -6.7496948 5.3745861
5.6349821 -7.7998352 5.0842142
9.3067484 -12.819557 7.5876622
6.8418889 -8.9363127 -0.30976599
6.619051 -8.6039219 -0.56355798
6.457684 -8.3740644 -0.653759
6.4831161 -8.3669167 -0.814466
6.5906482 -8.4247828 -0.93250102
6.588325 -8.3419113 -0.74621201
7.214016 -9.0476694 -0.31848699
11.237073 -13.99325 0.34589201
11.227434 -13.948146 0.66982198
11.304911 -14.011164 1.019462
11.348494 -14.031869 1.388643
5.3391671 -6.0948892 5.5477948
6.6355801 -7.4002709 5.0104132
9.7378607 -10.809658 6.5950012
9.2200584 -10.163702 5.1323962
12.742039 -13.755571 2.6877611
13.074603 -13.951813 0.71527898
8.5783129 -9.0904121 -0.16418201
8.492012 -8.9573364 -0.49847499
7.9417148 -8.33815 -0.71188402
7.9195819 -8.2764969 -0.88144302
8.0612116 -8.3468189 -1.011621
8.1522884 -8.363328 -0.81988102
8.7253284 -8.8687267 -0.34242299
12.976052 -13.128396 0.044243999
12.958492 -13.019932 1.04021
12.919428 -12.950655 1.407593
13.564405 -13.534439 2.3056209
8.395813 -8.1855221 4.3855338
10.331593 -10.002913 6.5186229
10.044019 -9.6794262 7.0315032
