# .PCD v0.7 - Point Cloud Data file format
VERSION 0.7
FIELDS x y z
SIZE 4 4 4
TYPE F F F
COUNT 1 1 1
WIDTH 1551
HEIGHT 1
VIEWPOINT 0 0 0 1 0 0 0
POINTS 1551
DATA ascii
5.8968372 0.62239897 2.5331089
5.50208 0.58719802 2.2171681
5.6050658 0.60477501 2.1085179
5.6024609 0.61108899 1.957588
5.611752 0.61870003 1.8106591
5.5376568 0.61704397 1.639047
5.5192809 0.62149799 1.487877
5.3607368 0.60995299 1.305395
5.5646782 0.63970798 1.212226
6.112164 0.70985198 1.178044
5.6072621 0.65781701 0.94343603
8.5688543 1.01535 1.236892
7.6104121 0.910761 0.92224801
10.966076 1.325268 1.0847321
7.5693078 0.92368698 0.58675897
10.389664 1.280125 0.59278297
7.7350879 0.98044503 0.018688001
7.7531352 0.99188602 -0.102673
7.7318649 0.998308 -0.214572
8.0027742 1.0427409 -0.32592699
8.0814714 1.0625449 -0.423161
10.06246 1.334914 -0.62753397
9.7830362 1.320984 -0.75961101
8.5392942 1.193505 -0.75168103
7.9269481 1.145515 -0.56225002
7.5862751 1.1142991 -0.39806801
7.708601 1.141417 -0.31470901
7.0541558 1.052889 -0.196303
6.5358758 0.98330599 -0.086819001
6.9544802 1.054549 0.016860001
7.1970859 1.099903 0.140322
6.2014899 0.95512497 0.234726
7.758532 1.204162 0.444601
6.488709 1.014812 0.50535899
7.597249 1.197228 0.75527602
9.1908226 1.448354 0.91369998
7.7434468 1.229488 0.94339299
6.4072108 1.024967 0.93011701
5.7276478 0.92308199 0.969477
5.5550518 0.90188903 1.077445
5.8182168 0.95156401 1.275893
5.4961939 0.90545499 1.347724
5.5859771 0.92684799 1.516858
6.0019488 1.003028 1.7900259
5.5589948 0.935646 1.80791
5.6719179 0.96142298 1.998276
5.595993 0.95523697 2.1232309
6.1403852 1.055511 2.4964991
5.9623208 1.032029 2.584965
6.2925501 1.0967129 2.8953769
5.969449 1.047551 2.90288
6.447341 1.13913 3.300364
6.4956918 1.155449 3.4860239
6.2820029 1.1249731 3.521419
6.4671378 1.165875 3.7719741
6.0002661 1.0889111 3.628264
6.3225121 1.154974 3.9501669
6.414536 1.17948 4.1248822
6.5559292 1.2291059 4.5014768
6.7200308 1.292219 4.7882419
6.4108181 1.2636631 4.4738278
6.940743 1.384876 4.690979
6.3631902 1.27732 4.2099838
6.2762089 1.26744 4.0495138
6.4963508 1.319757 4.074264
6.466506 1.321511 3.9268689
5.7418818 1.18037 3.364758
6.614336 1.359722 3.876018
5.8004322 1.199434 3.2682669
5.5366411 1.15159 2.9880209
6.52174 1.356485 3.5196609
6.0850649 1.273039 3.1338151
5.794879 1.219353 2.8363559
5.8221822 1.232157 2.6976171
5.4587822 1.16188 2.384218
5.5968261 1.198055 2.293417
6.4282708 1.376034 2.634119
5.5800128 1.201231 2.1347909
5.3742208 1.163467 1.91001
5.3927908 1.174042 1.7700419
5.532052 1.211087 1.665856
5.4950342 1.2096781 1.507284
5.3114638 1.175732 1.3162121
5.6115918 1.249002 1.2441649
5.5465708 1.241298 1.088163
6.9850731 1.571744 1.196436
6.100883 1.380231 0.89662999
6.39147 1.453783 0.78868997
6.2963982 1.439846 0.63428301
5.9954152 1.378343 0.47336599
5.8482161 1.351661 0.33989599
5.3272681 1.2377729 0.204595
5.8114719 1.357397 0.115021
5.294014 1.243016 0.013034
5.383605 1.270646 -0.072659999
5.4700332 1.2977591 -0.154732
5.8918428 1.405059 -0.244617
5.230588 1.2537839 -0.279239
5.5046759 1.326251 -0.35004899
5.891098 1.43383 -0.46653801
5.3428612 1.326719 -0.479929
5.6183639 1.4228669 -0.40685901
4.9556379 1.267287 -0.265551
4.8503432 1.2463599 -0.20224699
4.7706752 1.231793 -0.13561
5.2023039 1.349692 -0.070597999
5.0879521 1.3263299 0.012603
5.2344241 1.371011 0.104288
5.16926 1.360357 0.19995999
5.0616708 1.338328 0.29647601
5.948719 1.572867 0.34843299
5.49366 1.459381 0.43738401
5.5597138 1.483839 0.56508899
5.0316839 1.349171 0.626818
5.4462018 1.467105 0.80851299
5.7876639 1.566296 1.001947
5.3027158 1.441664 1.05206
5.2233348 1.426605 1.1718251
5.204916 1.428068 1.305865
5.371284 1.4803621 1.492534
5.2941108 1.465712 1.615906
5.1274009 1.425982 1.706826
5.2240701 1.459407 1.884089
4.965313 1.3933409 1.928808
5.1944628 1.464165 2.162492
5.3655591 1.519124 2.3822539
5.52005 1.569793 2.6014211
5.3332891 1.523391 2.6566539
5.5130949 1.5816801 2.8911941
5.5351348 1.5949661 3.0436139
5.4104271 1.56585 3.107873
5.2250619 1.518784 3.123316
5.5082598 1.608054 3.4140241
5.5535402 1.6282769 3.5569301
5.79111 1.705241 3.818068
5.4312491 1.606146 3.6739399
5.6794062 1.693892 3.999697
5.2799058 1.601516 3.860635
5.3947792 1.663785 3.8653779
5.3638601 1.667917 3.7230611
5.4712281 1.708277 3.7180209
5.470984 1.71518 3.6261761
5.4845271 1.726436 3.533891
5.5213938 1.7450939 3.445214
5.6807771 1.80273 3.421011
5.0980139 1.624328 2.952311
5.1277099 1.640354 2.8446
5.2124929 1.674163 2.7597561
5.5596018 1.7927769 2.79791
5.3446679 1.7303261 2.5465109
5.0995822 1.657537 2.290719
5.069726 1.654348 2.1368279
5.088625 1.667058 2.0027239
5.0529618 1.661887 1.847667
4.9523768 1.635184 1.672622
5.0540009 1.675253 1.566238
5.1096511 1.700299 1.442593
5.0426779 1.684523 1.286346
5.051208 1.693898 1.153
5.1763639 1.742571 1.0456671
5.0972118 1.72252 0.89909899
5.2635751 1.785557 0.796736
4.7518401 1.6181279 0.60400099
4.824409 1.649097 0.50068301
4.5173588 1.550004 0.36749199
4.9124651 1.691964 0.29421499
4.6212001 1.597654 0.18291301
4.3723488 1.5173171 0.089199997
4.465817 1.5555691 0.011335
4.3475361 1.520034 -0.060497999
4.158679 1.4594361 -0.121304
4.2805109 1.507779 -0.183281
4.3376851 1.533586 -0.238851
4.358861 1.546779 -0.28593799
4.7797709 1.708658 -0.39058501
4.6179528 1.675072 -0.42825401
4.5844121 1.687062 -0.342924
4.9854188 1.847806 -0.27602401
4.3350492 1.612482 -0.186792
5.9252229 2.20397 -0.25531
4.2526512 1.58746 -0.124935
5.1809211 1.940842 -0.072673
4.2112322 1.583165 0.010784
4.2703581 1.611065 0.087966003
4.3083472 1.6311181 0.172334
5.099617 1.937466 0.30891401
4.7699938 1.8185869 0.39280999
4.4653549 1.7083859 0.469506
4.9754791 1.910183 0.64127302
5.1533442 1.98535 0.791628
5.0773191 1.962839 0.90964699
5.2990251 2.0556281 1.088163
4.7343431 1.842913 1.099485
4.8580651 1.897576 1.261889
4.9067712 1.92311 1.411801
5.1219649 2.014312 1.61901
4.925694 1.9437391 1.698275
5.276773 2.089361 1.97137
4.8884549 1.942171 1.967343
4.8390331 1.929051 2.087359
5.0401688 2.016016 2.3190041
5.1569428 2.0696709 2.5188501
5.1099639 2.0577159 2.6385109
4.8591642 1.96328 2.6418209
5.0712528 2.0558219 2.8913169
5.210093 2.1191599 3.1035249
5.2692161 2.1503389 3.2666869
5.0279541 2.058702 3.2325089
5.3272071 2.1884551 3.5396509
7.6568189 3.155869 5.2377501
5.3563991 2.215004 3.7599249
7.9815769 3.322299 5.8345232
5.5958271 2.4135611 3.9531181
5.5149398 2.3862691 3.8004291
5.425983 2.355269 3.635473
5.0073142 2.1804471 3.249382
5.0014248 2.184793 3.1327741
4.867754 2.133142 2.932503
4.807086 2.11321 2.774524
4.8744788 2.149601 2.6854839
5.0864439 2.2501309 2.6639969
5.1815081 2.2993801 2.5696311
4.7113929 2.097316 2.2031131
4.804965 2.1456571 2.1085601
4.9466882 2.2158339 2.027246
5.1845222 2.329608 1.974323
5.1687722 2.329746 1.818294
4.6977191 2.1239901 1.51657
4.7477188 2.1532459 1.396534
4.7358351 2.1544881 1.258832
4.7090321 2.148895 1.120214
4.7912121 2.1931281 1.008812
3.9789259 1.826902 0.73164099
5.0491762 2.318301 0.92843699
4.80934 2.2149451 0.75899202
4.2848401 1.979426 0.56792301
4.7298231 2.1916561 0.511922
4.8490362 2.253736 0.41145301
4.8719678 2.2712841 0.304391
4.2491159 1.986921 0.175474
4.2770462 2.006043 0.091049001
4.074616 1.916871 0.010793
4.1407752 1.953868 -0.060143001
4.524909 2.1415601 -0.137784
4.3182549 2.0498929 -0.193046
4.1936598 1.9967149 -0.24113201
4.1142292 1.964764 -0.28186601
4.1053672 1.972249 -0.35045999
4.0425711 1.96525 -0.391864
4.1595988 2.0460811 -0.325418
4.5219669 2.23739 -0.261922
4.27563 2.1216879 -0.192764
4.1855369 2.083039 -0.128677
4.5556211 2.2738309 -0.066881001
4.0686922 2.036695 0.010906
4.2719851 2.1446719 0.092129
4.441349 2.236156 0.18601599
4.1691651 2.1051841 0.26447701
4.634305 2.346817 0.39971399
5.5700612 2.820684 0.480425
4.791625 2.433476 0.52775502
4.2633638 2.171422 0.575688
4.0515642 2.0694821 0.65214598
4.8492489 2.48403 0.91047102
4.3218331 2.220197 0.93021297
4.4276481 2.281064 1.0779099
4.618938 2.3864031 1.2578911
5.435823 2.8084509 1.480356
4.6877379 2.4293561 1.414389
4.581461 2.3810289 1.518827
4.6181412 2.406914 1.670179
4.9510889 2.587754 1.940526
5.0828738 2.66415 2.1463511
4.6686902 2.45398 2.113395
4.5531979 2.400023 2.198792
4.9255481 2.6036019 2.525455
4.6767421 2.479044 2.5352681
4.66468 2.4795899 2.6629779
4.660357 2.484235 2.7904079
4.4545922 2.3812029 2.787086
4.3524141 2.3330829 2.8345809
4.6636539 2.5069039 3.150188
6.705215 3.6143639 4.6816602
9.2240229 4.9997849 6.80585
6.977529 3.8030801 5.3629508
7.4887748 4.1269779 5.9830089
6.927597 3.8597741 5.4297199
6.8109651 3.815552 5.174386
7.5119791 4.219728 5.589004
7.7687898 4.3758578 5.639173
6.5939851 3.7242379 4.6544318
5.1837692 2.935699 3.544409
4.4111271 2.504899 2.9117429
4.4265709 2.5272861 2.6932361
4.498631 2.575366 2.613013
4.6093922 2.6458819 2.5456359
4.5776238 2.634716 2.394166
4.434804 2.5593801 2.1873989
4.452641 2.5765679 2.0613229
4.3731532 2.5373521 1.890975
5.1644378 3.004494 2.0753851
4.5231519 2.645489 1.541404
4.7510862 2.7862179 1.475456
4.3593249 2.5632789 1.2235579
4.355371 2.5677619 1.094197
5.3282642 3.1496949 1.185002
6.1331692 3.6254971 1.364012
4.3349199 2.569294 0.842071
4.278635 2.542649 0.71344399
4.2551851 2.5354109 0.59599698
3.9010119 2.3305199 0.446246
3.820832 2.2886419 0.342711
4.1699729 2.504364 0.27544501
3.925127 2.3635199 0.171399
4.4439349 2.6829641 0.100048
4.093451 2.4778521 0.011469
4.0261211 2.443486 -0.061864
3.903403 2.3752201 -0.125761
3.756496 2.291806 -0.17771199
3.665797 2.2423141 -0.22308999
3.877243 2.3778501 -0.281187
3.9975269 2.464407 -0.36135399
3.969182 2.472455 -0.407671
4.000061 2.5175519 -0.33179
3.651782 2.310214 -0.224334
5.4308338 3.435689 -0.33362401
3.568346 2.2632339 -0.170651
3.7604401 2.3911951 -0.122652
3.8565619 2.458617 -0.060077
3.6989901 2.3642049 0.010522
4.0306048 2.5827601 0.092262998
3.933054 2.526695 0.174876
4.3118482 2.777118 0.290427
3.752491 2.4230299 0.34370801
4.0376658 2.613817 0.472341
3.848448 2.497669 0.55203497
4.2945781 2.7943101 0.73444498
4.2420349 2.7671361 0.84635597
4.2866969 2.8033669 0.98060697
4.3671732 2.8632491 1.130156
4.6214948 3.0376661 1.338082
4.2450132 2.7972071 1.36186
4.4841909 2.9622879 1.5809129
4.3958511 2.9112821 1.690946
4.8264751 3.2045491 2.0123849
4.468462 2.9743299 2.007628
4.3254499 2.886405 2.0836401
6.5677042 4.382678 3.16377
4.7411699 3.1717861 2.4368601
4.6860619 3.1428061 2.557658
4.638092 3.118463 2.6769569
4.5878749 3.0924449 2.7890141
4.5882111 3.10043 2.9258871
6.6315532 4.5036898 4.6013398
4.6906848 3.20155 3.4904311
4.5770268 3.1317761 3.5075121
4.511436 3.0946081 3.5487721
4.4079528 3.0387101 3.613153
4.4439778 3.09413 3.7889709
4.4108682 3.1016209 3.6919391
4.4451251 3.141181 3.6075959
4.4477339 3.15078 3.5357111
4.4914131 3.1895649 3.483994
4.580009 3.2605031 3.455349
4.6651592 3.3292949 3.409934
8.6262226 6.1864352 5.857276
8.8150606 6.3373852 5.736383
4.5407362 3.2724769 2.821424
4.5639892 3.2972989 2.6968279
4.6199598 3.345912 2.5857329
4.613071 3.3491111 2.4352889
4.8566899 3.5346041 2.4068601
4.3863912 3.2001309 2.0307491
4.550487 3.3279669 1.958245
4.2652278 3.1269569 1.696137
4.227006 3.106493 1.543097
4.2827182 3.1551161 1.424998
4.3643322 3.2230711 1.312685
3.5679281 2.641336 0.96072698
3.579164 2.656106 0.853306
3.6086371 2.684485 0.75158399
3.4217269 2.5516219 0.611848
3.637315 2.7189789 0.54641998
3.6022251 2.6992781 0.44204399
3.6631391 2.751574 0.35253099
3.5404611 2.6658721 0.25096399
3.4982791 2.640485 0.16395999
3.315213 2.5083671 0.080123998
3.5622859 2.701822 0.010716
3.6201389 2.752332 -0.059735999
3.5848701 2.732105 -0.124055
4.2503252 3.2392621 -0.147083
4.2375612 3.237324 -0.215361
3.8271861 2.9308619 -0.25025699
4.1098118 3.1548891 -0.320308
4.069767 3.139205 -0.395495
4.032095 3.140161 -0.445537
3.6597199 2.8775899 -0.32681799
4.4133072 3.4701259 -0.39411399
3.714288 2.9344981 -0.245747
3.7551451 2.97387 -0.19345
3.5575941 2.824152 -0.125018
3.452847 2.7475541 -0.057962999
3.30375 2.6351869 0.010129
3.628056 2.9007771 0.089527003
3.697681 2.9634941 0.177268
3.413038 2.7418859 0.24791101
3.4541659 2.781544 0.34125301
3.358604 2.71103 0.42386499
3.6862841 2.982609 0.57055199
3.5934241 2.9144001 0.66321403
3.688868 2.99892 0.79443699
4.5812378 3.7243841 0.986619
3.7566299 3.0612631 0.92776901
4.1109691 3.3579791 1.148769
4.0166159 3.2886951 1.2560101
4.6122198 3.7852321 1.598368
4.6734509 3.844579 1.780149
4.6169581 3.8161409 2.0806351
4.1407042 3.430598 2.011131
4.112556 3.415355 2.142035
4.6806092 3.9240141 3.0788989
4.5122108 3.7917719 3.114157
4.4364438 3.736917 3.2006309
4.3822522 3.6999819 3.2920761
4.4109569 3.733016 3.438056
6.6364951 5.6297469 5.3487482
5.227519 4.4449649 4.3397579
6.621254 5.8319802 5.5803761
6.1809988 5.4569869 5.0675659
6.2337399 5.5164509 4.952559
4.3860202 3.890435 3.3652561
4.3748822 3.8896589 3.2301011
4.3578901 3.883626 3.0842581
4.4646001 3.9880519 3.0176809
4.581799 4.1023221 2.945646
8.6404448 7.7725101 4.9648619
3.8483169 3.4779639 1.9400181
8.2974834 7.51651 3.888927
8.3736973 7.6032801 3.627425
4.239274 3.858238 1.686175
4.1917839 3.8239419 1.519963
3.6417241 3.3299119 1.193927
3.9931769 3.6598001 1.172248
3.5759349 3.285054 0.929649
3.5270269 3.247689 0.80119503
3.3955719 3.1339419 0.66236198
3.7373049 3.457406 0.612602
3.332087 3.0897281 0.446246
3.339761 3.104068 0.35084301
3.5415499 3.299304 0.274088
3.3948281 3.1699929 0.17375501
3.39288 3.175571 0.089566
3.3146889 3.109621 0.010894
3.245966 3.052247 -0.058527
3.4676991 3.2683561 -0.131153
3.5052421 3.311439 -0.194741
4.2773252 4.040834 -0.237636
3.503159 3.317183 -0.25046399
4.1826172 3.9605701 -0.299043
3.424216 3.249994 -0.29186201
3.8388231 3.6604991 -0.40815401
3.309669 3.185442 -0.400462
3.354296 3.258568 -0.328289
3.434767 3.3523021 -0.24916799
3.5126879 3.4363289 -0.19845399
4.234797 4.1427398 -0.23925
3.090539 3.0303919 -0.11913
3.2369609 3.1813591 -0.059618
3.311183 3.261878 0.011141
3.382906 3.340296 0.091628
4.8527451 4.7916212 0.131439
3.43766 3.4022579 0.180932
3.0797529 3.0551269 0.24564999
3.3916211 3.372339 0.368029
3.380039 3.3686421 0.46862701
3.1903591 3.1869979 0.542597
3.3828139 3.3871219 0.68620098
3.2978089 3.30969 0.78075701
3.2544439 3.273767 0.88376802
3.9657071 3.9985471 1.218783
3.784601 3.8248179 1.301867
3.5959749 3.64256 1.3711751
3.718719 3.77565 1.558901
4.6164279 4.6980119 2.1123841
4.5523829 4.6436038 2.258806
4.4050002 4.5037131 2.3561871
4.2676959 4.3734899 2.448518
4.1972232 4.3112712 2.57043
4.2485261 4.374114 2.7640879
4.1686621 4.3018818 2.8691859
4.1044741 4.245492 2.9767189
4.0567112 4.2058468 3.087528
4.0105419 4.1676641 3.191452
3.9269941 4.0903339 3.25474
3.9293771 4.1023502 3.379766
3.862375 4.04178 3.4359751
3.8379829 4.0256 3.517668
3.808625 4.0041151 3.5846901
3.7754531 3.9877369 3.706013
3.6995561 3.9441161 3.783812
3.7060609 3.9880109 3.727531
3.723712 4.0257192 3.634666
3.7517309 4.0654669 3.5884991
3.766711 4.091217 3.517134
3.773767 4.1084528 3.4286439
3.7874019 4.1329169 3.3352821
3.8389621 4.1989551 3.265692
3.8299551 4.1988931 3.1358941
3.913275 4.3002539 3.0721109
3.92134 4.319191 2.9407091
3.94577 4.3562479 2.8151889
4.0095649 4.4370198 2.710829
4.0375819 4.478478 2.5759301
4.078393 4.5343161 2.4436829
4.1367931 4.6099958 2.316602
4.1774349 4.6661859 2.175463
4.248683 4.7568688 2.0455041
4.2876811 4.8117619 1.895853
3.6376171 4.0918059 1.466658
4.335875 4.8772478 1.74819
3.3678451 3.7972169 1.228026
3.3439701 3.7791259 1.092082
4.4314241 5.0080919 1.447225
3.194088 3.6182051 0.92400801
3.0358651 3.4470291 0.76757199
3.389746 3.857856 0.73614699
3.362648 3.836 0.61379701
3.0347109 3.470017 0.452696
2.977289 3.412343 0.348465
3.0704241 3.527354 0.26481599
3.0645061 3.5288191 0.174839
2.8125391 3.246289 0.082782999
3.2997291 3.817559 0.012095
3.224498 3.739285 -0.064857997
3.99634 4.6343508 -0.080383003
3.0868671 3.5881059 -0.130273
3.08461 3.5939109 -0.19127101
3.071007 3.586477 -0.245124
2.9944501 3.5053101 -0.28501299
2.9153731 3.428828 -0.34631699
2.997112 3.558331 -0.405586
2.8956809 3.4704919 -0.317294
3.3272231 4.0065832 -0.27037299
3.0024199 3.624011 -0.19006
3.0173509 3.65065 -0.130355
2.8848519 3.498615 -0.059565
2.910253 3.5377769 0.01098
3.4092209 4.1541681 0.103575
2.943054 3.5946391 0.173792
2.7694931 3.3906741 0.24791101
2.735364 3.3568461 0.33319801
3.0170851 3.7113631 0.46970201
2.8692551 3.5378971 0.54809302
3.0776401 3.8038721 0.70138299
2.919071 3.6164629 0.77663702
3.0159171 3.745332 0.920623
2.8671119 3.5690219 0.99076301
2.827646 3.528275 1.093982
2.8392889 3.551167 1.217989
4.2447591 5.309021 1.820902
4.8618379 6.0808182 2.0856149
4.7056079 5.899456 2.219825
4.7604799 5.9825139 2.451978
4.788044 6.0459342 2.884455
8.1618328 10.355448 5.63271
4.6922879 5.96766 3.441175
6.386241 8.1220322 4.6834669
6.4168239 8.1804972 4.9798222
6.3400741 8.1020174 5.1859641
6.2519832 8.0085993 5.3682532
5.6369019 7.2380428 5.0620699
5.2741189 6.7884679 4.934381
7.1172938 9.1608706 6.6588249
5.0502229 6.5315752 5.0743728
4.8924508 6.3427391 5.0661688
4.728456 6.1449008 5.0295591
4.6788478 6.1097531 5.1934528
4.5551772 6.0059161 5.274404
4.523982 6.0227318 5.1574149
4.6417718 6.209559 5.1384759
4.6822152 6.278861 5.0807142
4.8583069 6.5308199 5.1479511
5.0019212 6.7402349 5.1586752
5.7633848 7.8231859 5.3616009
5.7695141 7.8505888 5.1477489
5.913238 8.0658026 5.041472
4.4332771 6.0618558 3.5970659
5.9979939 8.2013779 4.8666439
4.4549298 6.1063399 3.4263129
4.535202 6.2315812 3.292491
4.2951312 5.9306278 2.7387259
3.9693091 5.5211639 2.0002689
3.9191639 5.4648161 1.801495
3.950748 5.5223918 1.642855
3.006814 4.2132888 1.120214
3.01491 4.235044 0.99527401
2.6446841 3.724138 0.76328599
2.8175371 3.9773231 0.69868702
2.679786 3.7922161 0.558725
2.7282209 3.8702891 0.465011
2.7797999 3.9532061 0.371865
3.010005 4.2911849 0.29681501
2.614718 3.7368751 0.170614
2.618577 3.7516739 0.088178001
2.631264 3.7792001 0.011038
2.681411 3.86078 -0.061744999
2.713706 3.9170001 -0.131153
2.675024 3.870764 -0.19001999
2.8487871 4.1324558 -0.26057401
3.050498 4.4360929 -0.33283401
2.912015 4.2558551 -0.396799
3.088691 4.5594158 -0.48010299
2.969856 4.4281912 -0.37429699
2.627481 3.9374549 -0.245747
2.720633 4.087326 -0.198292
2.7646191 4.163888 -0.137564
3.316437 4.9949989 -0.165021
2.5259299 3.8140121 -0.060090002
2.381705 3.6053319 0.010357
2.6768899 4.0624399 0.093767002
2.7108641 4.1244211 0.184633
2.989378 4.5596948 0.30874401
2.7006459 4.1297631 0.37968999
2.606051 3.9952371 0.468431
3.000212 4.611208 0.66193998
2.6006279 4.0072541 0.68478203
2.6129019 4.036428 0.80350298
2.691505 4.1684632 0.94995701
2.675142 4.153718 1.0692379
2.6765251 4.166491 1.1981601
3.663084 5.7022462 1.639798
3.587513 5.598762 1.781312
3.5147369 5.4992399 1.9198411
3.45105 5.4134631 2.0589409
3.405127 5.3551412 2.2043381
3.3420219 5.2694082 2.3337669
3.262872 5.1578689 2.4455431
3.2338791 5.1252079 2.5888939
3.2038021 5.0906358 2.726517
3.155565 5.0269532 2.8428359
3.1479411 5.027771 2.9902229
3.125201 5.0043678 3.1174271
3.115386 5.0015941 3.251358
3.0920789 4.9770508 3.3632641
3.0881021 4.9835749 3.4881639
3.024714 4.8939681 3.5359859
2.532418 4.1839399 3.422056
3.492245 5.8307381 4.653481
2.842622 4.771244 3.681073
2.845222 4.7882509 3.6129889
2.849458 4.8080912 3.5347731
2.8610981 4.8405638 3.4558721
2.8760509 4.8787942 3.36954
2.9028721 4.9373941 3.287596
2.9199009 4.979609 3.1851721
2.9124191 4.9801002 3.048286
2.9355359 5.0330558 2.937108
2.991158 5.142139 2.8493149
3.021986 5.2090521 2.72982
3.0736389 5.312315 2.6218929
3.1441131 5.4487128 2.5206759
3.2506649 5.6485162 2.437459
3.3272901 5.7972522 2.321806
3.418715 5.9887362 2.0284901
2.3947761 4.206408 1.296652
3.2618649 5.744957 1.5984091
2.3592851 4.1665549 1.03624
2.3915679 4.2350521 0.931153
3.171154 5.6308331 1.079908
2.2012119 3.919205 0.64434201
2.338578 4.1751518 0.57580799
2.4320049 4.353806 0.489737
2.3887329 4.288034 0.37769601
2.7224879 4.9005618 0.317451
2.4151139 4.3592019 0.186427
2.4470589 4.429008 0.097524002
2.450079 4.446672 0.012169
2.3927031 4.3545008 -0.065265
2.4008679 4.3814301 -0.137509
2.3832321 4.3612609 -0.20071299
2.2383201 4.107409 -0.242843
2.2451539 4.131381 -0.29069
2.7503951 5.0892429 -0.445133
2.6591549 4.9755969 -0.49182799
2.663269 5.0395122 -0.40013701
2.1081729 4.0116949 -0.235274
2.563906 4.878922 -0.286134
2.3351259 4.4561338 -0.20317499
2.3693881 4.5343242 -0.14081
2.37081 4.549932 -0.067392997
2.203886 4.2415981 0.011457
2.4524391 4.7334142 0.102746
2.8171771 5.4373899 0.118027
2.677773 5.183063 0.21823999
2.3122411 4.4883242 0.28590399
2.2715571 4.421979 0.38252899
2.1991689 4.2933278 0.47370899
2.621134 5.1317949 0.69335902
2.238101 4.394485 0.70691699
2.1972771 4.3267522 0.81092
2.1865489 4.3180461 0.92663997
2.1576719 4.2733469 1.036029
3.259675 6.4745879 1.753852
2.1720681 4.326695 1.296911
3.164408 6.3217149 2.0795691
3.0098529 6.0304689 2.161552
2.793299 5.6128969 2.1777599
2.6669919 5.390481 2.4098361
2.790657 5.6735601 2.8660641
3.924753 8.0027342 4.2692208
2.6433511 5.4217329 3.1870351
2.555476 5.25701 3.22527
2.8728051 5.9098048 3.625772
2.485172 5.1275272 3.2706699
3.7209499 7.6772432 4.8970442
2.4166551 5.0009742 3.3046041
2.4964659 5.1814928 3.5349391
2.43398 5.0668449 3.5550849
2.3809021 4.9711609 3.575438
2.457113 5.1610332 3.85761
2.392478 5.0860772 3.9328711
2.383791 5.129385 3.8727219
2.1247971 4.6000428 3.358434
2.3763051 5.1760998 3.6021221
2.2634771 4.9455042 3.3427711
2.3206179 5.0859571 3.3260789
2.3618009 5.1921802 3.2741549
2.3670299 5.21978 3.1624651
2.2756441 5.0337949 2.91888
3.2215221 7.1261072 4.1321211
3.645056 8.113183 4.26015
2.6946721 6.0542002 2.6553199
2.289227 5.1756339 1.965791
5.6632662 12.803884 4.8631272
2.0358219 4.6759782 1.103716
1.942574 4.4760218 0.93416202
2.01529 4.6583829 0.84816903
2.0045841 4.6484489 0.72564697
2.020046 4.6993322 0.61546898
2.0605581 4.808969 0.51377898
1.928749 4.5158372 0.37784901
1.992579 4.6803498 0.28805199
2.0650549 4.8662658 0.197754
2.0347431 4.8103909 0.100665
2.0955689 4.9702778 0.012929
2.0857451 4.9630761 -0.070716001
2.323061 5.5458298 -0.165489
1.912155 4.5798011 -0.200431
1.865916 4.4836988 -0.252123
2.0110879 4.848433 -0.32450399
1.90922 4.633235 -0.385598
1.909346 4.6954098 -0.44188899
1.835772 4.5753179 -0.34607601
2.2700119 5.6575818 -0.42793801
1.823092 4.5744662 -0.255649
1.813947 4.5669398 -0.19845399
2.3340089 5.8762898 -0.25535101
1.988974 5.0246091 -0.148734
2.069205 5.2451148 -0.074065998
1.914728 4.8701072 0.012543
2.553947 6.5182171 0.134927
1.926064 4.9325891 0.198091
1.965308 5.0504031 0.30687901
2.0032899 5.1657829 0.42633599
1.944811 5.032321 0.52980697
1.98358 5.150425 0.66408998
2.0305741 5.2907929 0.81234503
2.040756 5.335844 0.95464402
2.2550819 5.9168248 1.212267
1.809361 4.763999 1.102869
2.4166451 6.3629632 1.473031
2.8185041 7.4994149 2.356694
2.7785599 7.4193058 2.5408471
2.682466 7.1881089 2.665024
2.611644 7.0232048 2.8024819
2.483469 6.7263079 3.063066
2.367044 6.4339519 3.1075859
3.1950531 8.6845961 4.1946421
3.4983571 9.5432358 4.868372
2.3553641 6.4483938 3.4606099
2.2993519 6.3177938 3.552362
2.3747549 6.5486469 3.8436561
2.3945839 6.6273189 4.0447779
2.2749369 6.3191528 3.9958961
2.499845 6.9947948 4.697886
1.766257 4.9970121 3.576792
1.695979 4.87008 3.6083801
1.699345 4.9537039 3.5857279
1.885291 5.5376291 3.877198
2.3481441 6.9500008 4.6396232
2.4740009 7.378993 4.6304331
2.1707301 6.4994731 3.9332671
1.933401 5.811347 3.379384
2.2360561 6.7210569 3.9083941
2.1419699 6.4885392 3.444406
2.4493229 7.4486179 3.7556009
2.918963 8.9116802 4.2507911
2.5548041 7.8306489 3.518774
3.3172989 10.207916 4.300807
1.7932611 5.54005 2.1778791
3.5035839 10.866969 3.9660361
2.9792509 9.2775192 3.1250579
2.483674 7.7964411 2.1919661
3.209909 10.116734 2.5679891
1.979072 6.2626858 1.42142
2.3871779 7.5847931 1.522338
1.745019 5.5670161 0.97491699
1.796746 5.7554331 0.86427802
1.784791 5.7405849 0.72334403
1.685238 5.4426589 0.55951798
1.936331 6.253592 0.64288402
1.617386 5.2450652 0.42234701
1.588847 5.1738639 0.306483
1.586899 5.1889739 0.202988
1.920352 6.2793269 0.24564099
1.699649 5.5808401 0.112439
1.614247 5.3225808 0.013331
1.855976 6.1452942 -0.084324002
1.855489 6.1695819 -0.17731901
1.886793 6.3001742 -0.2656
1.6781321 5.6271958 -0.30485001
1.9007421 6.373661 -0.34528899
1.6737781 5.636507 -0.36350101
1.851575 6.2887068 -0.50443798
1.825526 6.30826 -0.57251102
1.800231 6.330821 -0.46204099
1.764208 6.2593708 -0.337616
1.7570651 6.2618542 -0.26265499
1.6612689 5.9469848 -0.169946
1.691007 6.0807052 -0.082905002
1.534943 5.544436 0.013789
1.620394 5.8796692 0.117545
1.500641 5.4699202 0.212184
1.643134 6.016675 0.35318199
1.75503 6.455924 0.51479501
1.588336 5.8696432 0.59714502
1.528687 5.6753292 0.70721602
1.649574 6.1525931 0.91308898
1.6009229 5.9989638 1.037549
1.7165819 6.4624629 1.280148
2.0359881 7.7010031 1.723895
2.6870141 10.308215 3.133605
2.756294 10.624619 3.5202329
1.926017 7.459816 2.6761799
2.3458509 9.1297188 3.5255229
2.359179 9.2261105 3.8157899
2.020864 7.9414802 3.5007031
1.776612 7.0157261 3.2805741
1.65418 6.5643339 3.242414
2.158412 8.5652924 4.2307749
1.862227 7.426332 3.859427
2.3698871 10.708533 6.2954168
2.309727 10.494549 5.9292598
1.903074 8.7436676 4.510767
1.782288 8.2347422 4.035522
2.155709 10.073298 4.4007258
1.498654 7.0833759 2.7078979
2.012521 9.622592 3.152849
1.892886 9.1033459 2.735131
1.9124269 9.2513056 2.530684
1.363572 6.6744299 1.4743
2.0884371 10.283497 2.008975
1.2592911 6.2379179 1.0634249
1.243706 6.1978312 0.90613699
1.268348 6.3589721 0.78020799
1.2167521 6.137454 0.61444402
1.24212 6.3037968 0.49438801
1.144353 5.8434629 0.33718199
1.261345 6.4807758 0.246987
1.2924221 6.6818929 0.13116901
1.295652 6.7405872 0.016452
1.18303 6.1934819 -0.082826003
1.2177939 6.415977 -0.179741
1.199071 6.3576398 -0.26128301
1.337656 7.1379628 -0.37701899
1.332624 7.157093 -0.45007199
1.238018 6.73593 -0.52699399
1.052793 5.8818598 -0.52092201
1.2669801 7.273304 -0.518273
1.138164 6.6248899 -0.34897
1.1080461 6.4947882 -0.26608399
1.11033 6.5540981 -0.18296
1.160749 6.9004512 -0.091914997
1.3408819 7.971312 -0.106179
1.1127959 6.6626911 0.016191
1.0660779 6.4289989 0.1256
1.1252691 6.8351469 0.25913599
1.079253 6.6520972 0.51855499
1.023657 6.3561292 0.632231
1.042842 6.5235209 0.79490203
1.179377 7.4330902 1.078822
0.999753 6.3486481 1.073974
1.5435539 9.8765574 1.913828
1.517054 9.8571806 2.4130161
1.069541 7.0030112 1.897754
1.17362 7.7447071 2.304204
1.426517 9.4880028 3.077112
1.052047 7.0530152 2.4770091
1.508448 10.193841 3.8541141
1.456969 10.006428 4.3197989
1.476817 10.225971 4.6834669
1.3939511 9.7321262 4.7089729
0.98117602 6.9073758 3.5168769
0.73553503 6.6045709 3.5112519
1.375716 12.484841 6.3315492
1.0446219 9.6866121 4.416347
1.0002871 9.5887384 3.6057439
0.754614 7.3161111 2.554774
0.97151899 9.4190474 3.2891159
1.064519 10.43941 3.3654001
1.013133 10.051067 2.9716189
1.0178061 10.216416 2.7503719
0.88983798 9.0382566 2.197371
0.88661402 9.1139889 1.981738
0.87821198 9.2505598 1.552779
0.85877502 9.1587982 1.3186229
0.82027203 8.8589334 1.070501
0.66499197 7.3681831 0.56926697
0.61126697 6.953301 0.26111799
0.621984 7.1707392 0.138723
0.59257197 7.1196771 -0.196633
0.60587198 7.3831439 -0.29917401
0.47580901 6.148387 -0.47451699
0.400336 5.505527 -0.48123199
0.459957 7.5339508 0.018092001
0.445739 7.4432812 0.143714
0.43542999 7.7218699 0.59512198
0.445106 8.0598888 0.79270703
0.497632 9.2050657 1.109207
0.55276102 11.18901 2.4244511
0.47398701 10.066513 2.6996551
0.43185401 9.404232 2.769278
0.52102399 11.952447 4.1556921
0.41545501 9.7921257 3.665647
0.46703601 11.318787 4.5392251
0.31550199 7.868227 3.3639901
0.39605299 10.172251 4.6145191
0.309733 9.6941929 5.7706571
0.11849 8.1686287 5.4147081
0.066283002 12.73347 6.4188738
0.021291001 7.38834 3.349108
0.017022001 9.9059362 4.2318001
-0.017207 9.7287769 3.3793499
-0.050700001 9.6467228 2.5842481
-0.083847001 11.062573 2.3942039
-0.105366 10.637963 1.77776
-0.112675 9.2128553 1.108609
-0.119462 8.9202871 0.876073
-0.119952 8.2417612 0.63424897
-0.139475 8.8736858 0.50255102
-0.14966699 8.8665342 0.331734
-0.15701801 5.7418742 -0.44198701
-0.16518 5.1617699 -0.45022699
-0.22289599 6.0809412 -0.427167
-0.450701 9.5620489 0.54206902
-0.48914799 10.127222 0.78017199
-0.57921201 11.182553 1.605108
-0.55108398 9.5653114 2.5666521
-0.544177 9.2580967 2.728076
-0.61181998 10.011453 3.4840219
-0.59093702 8.6755638 4.3833799
-0.63649499 8.4724836 5.373518
-1.149352 12.094789 7.228405
-0.84380603 8.562355 4.5460339
-0.89050001 6.8943658 -0.36089501
-0.79893899 6.1293492 -0.38213599
-0.69217902 5.2157178 -0.40485501
-0.64854598 4.7185731 -0.415227
-0.78988302 5.5553169 -0.393904
-2.325788 14.754137 2.141042
-1.635505 8.2448006 5.4524078
-2.040998 10.10438 6.1331768
-1.480745 6.2400818 -0.33295
-1.323903 5.5503988 -0.35276401
-1.147355 4.761229 -0.37685201
-1.071908 4.359117 -0.391343
-1.266878 5.0507221 -0.36554301
-1.53383 6.055347 -0.324292
-1.4730231 -5.3262129 1.480373
-1.4782619 -5.3692708 1.6382
-1.183249 -5.316164 1.602078
-1.249904 -5.6464038 1.549203
-1.208706 -5.4903159 1.360188
-1.263002 -5.7686472 1.2780091
-1.313473 -6.0325351 1.181993
-1.3331259 -6.1569748 1.052712
-0.83240199 -3.865979 0.56686801
-1.409979 -6.5484552 0.96019799
-0.85742903 -4.0046978 0.492782
-1.13026 -5.308908 0.533032
-0.80655903 -3.8100519 0.29967099
-1.167508 -5.5151138 0.43377799
-0.826271 -3.9255569 0.227163
-1.0880539 -5.1692691 0.299133
-0.82104802 -3.923203 0.149942
-1.196375 -5.7497611 0.11319
-0.77973002 -3.769182 0.0092259999
-1.124319 -5.4349079 0.013303
-0.77289701 -3.758013 -0.050397001
-0.79556203 -3.8909979 -0.109308
-0.76146799 -3.746279 -0.15438899
-0.76801598 -3.800962 -0.201315
-0.75336599 -3.7507851 -0.236513
-0.73189402 -3.687963 -0.28931299
-0.71235698 -3.678447 -0.32664001
-0.71165001 -3.7679479 -0.26918599
-0.71269703 -3.8218811 -0.20183399
-0.92637497 -4.9997578 -0.20535401
-0.900011 -4.8889661 -0.136821
-1.0337549 -5.615478 -0.157153
-1.022347 -5.589787 -0.074643999
-0.730654 -4.0211458 0.0097960001
-0.97897202 -5.3877649 0.013125
-0.72036701 -3.990752 0.078157999
-0.699871 -3.9029729 0.148334
-0.69141299 -3.8815849 0.223262
-0.68651903 -3.8800859 0.30320001
-0.69490701 -3.9540901 0.394252
-0.88164002 -5.0166159 0.50019401
-1.0045331 -5.754848 0.70291603
-0.95027 -5.4813752 0.79744601
-1.055691 -6.1315112 1.039691
-1.319949 -7.6663318 1.299944
-1.063225 -6.218184 1.207754
-1.310864 -7.6664801 1.489056
-1.305635 -7.6893821 1.6879359
-0.95521897 -5.6652651 1.390054
-0.97504997 -5.8237391 1.581807
-1.294697 -7.7329111 2.100364
-1.279196 -7.6949072 2.2946091
-2.884377 -23.531883 10.746706
-2.860395 -23.561932 10.139506
-2.8213799 -23.46715 9.4708519
-2.7705979 -23.503193 8.2204933
-2.738117 -23.460754 7.5752048
-0.89145797 -7.7156019 2.2847321
-0.87574899 -7.65733 2.0646551
-0.63255101 -5.588048 1.360658
-0.70444697 -6.2881799 1.369386
-0.86222398 -7.6965618 1.676091
-0.59908098 -5.4041448 1.040966
-0.703942 -6.3500662 1.223173
-0.85219699 -7.6874361 1.480782
-0.59986502 -5.4689121 0.91937202
-0.84086603 -7.6660848 1.288736
-0.61896902 -5.7038689 0.82241899
-0.83298099 -7.6760139 1.106775
-0.65128797 -6.0671301 0.73421502
-0.56763899 -5.3460879 0.52794999
-0.54521501 -5.192019 0.40170899
-0.51240402 -4.9345188 0.280929
-0.49787199 -4.8490982 0.182353
-0.57799202 -5.629447 0.211698
-0.58661503 -5.7792258 0.111957
-0.50446802 -5.02774 0.012111
-0.56453401 -5.6925831 -0.075143002
-0.51664102 -5.271739 -0.14579
-0.52891397 -5.461978 -0.221616
-0.54191798 -5.6644731 -0.295414
-0.522762 -5.5317459 -0.34350899
-0.72822398 -7.7058902 -0.47851801
-0.70583099 -7.6578069 -0.59174597
-0.43154299 -4.9313779 -0.43155399
-0.44626701 -5.3862429 -0.37940899
-0.417541 -5.1852102 -0.270062
-0.60196197 -7.5849481 -0.307284
-0.59291101 -7.5819721 -0.209317
-0.37279701 -4.8392429 -0.063754998
-0.577335 -7.609107 0.018291
-0.40559399 -5.4288592 0.104924
-0.42609099 -5.7932892 0.217305
-0.39883599 -5.5097342 0.31281501
-0.36607701 -5.1397481 0.396492
-0.542952 -7.6230969 0.58806401
-0.36378601 -5.192234 0.51113999
-0.33707401 -4.8920321 0.59002399
-0.397596 -5.8694162 0.84327799
-0.357696 -5.3724451 0.89975798
-1.453367 -23.463144 6.2974701
-1.325398 -23.605461 9.4734564
-1.272211 -23.632795 10.728128
-0.140139 -5.6247182 3.347554
-0.230997 -26.422579 6.3931651
-0.077991001 -18.913511 2.7111731
-0.02318 -7.8106279 0.93980902
-0.014137 -7.7954888 0.76553798
-0.0051270002 -7.7780061 0.59849799
0.00385 -7.7515812 0.43894699
0.012731 -7.7115951 0.28848201
0.021619 -7.702539 0.148454
0.030515 -7.703917 0.018466
0.039328001 -7.6882362 -0.100991
0.048050001 -7.6619482 -0.210885
0.056913 -7.6645408 -0.309544
0.065494001 -7.6334391 -0.39630499
0.074372001 -7.6390529 -0.47228599
0.090889998 -7.546144 -0.58069801
0.125815 -7.549314 -0.65823102
0.160364 -7.5337491 -0.52898699
0.17747 -7.5207748 -0.39054999
0.186373 -7.5295539 -0.30417699
0.194658 -7.5136328 -0.20686799
0.20369899 -7.5265951 -0.098903
0.21342 -7.5629678 0.018135
0.222414 -7.5713272 0.145988
0.23134001 -7.577167 0.28358501
0.239838 -7.5690689 0.42882699
0.249101 -7.5844779 0.58392102
0.25822499 -7.5950561 0.74628502
0.26774999 -7.6163249 0.91699201
0.68630701 -18.900227 2.7110319
0.376221 -5.9761362 4.0410929
0.460017 -5.7229419 3.2955611
0.578058 -6.7059078 3.051024
0.79336798 -7.8271489 0.94661897
0.79955798 -7.798409 0.76983798
0.80553699 -7.768259 0.60095298
0.81333399 -7.7559781 0.441605
0.82092899 -7.7421532 0.29124799
0.82679498 -7.712368 0.14949501
0.83542597 -7.7088408 0.018585
0.84252 -7.6913252 -0.101635
0.85160798 -7.692071 -0.21300299
0.85700899 -7.659924 -0.311279
0.86472499 -7.6489091 -0.39962301
0.872177 -7.6356769 -0.475124
0.88611901 -7.6019049 -0.588907
0.91857803 -7.5755682 -0.66526598
0.95174003 -7.5565572 -0.53465998
0.97066998 -7.5657139 -0.39599401
0.98198301 -7.5844598 -0.30885801
0.99001199 -7.5777078 -0.210335
1.00103 -7.5936432 -0.10061
1.010546 -7.5980711 0.018371999
1.019814 -7.6004629 0.147799
1.03249 -7.628057 0.287958
1.042255 -7.6338358 0.43629
1.053883 -7.6529398 0.59443098
1.06446 -7.6642122 0.75986898
1.070891 -7.6456809 0.92893797
1.373981 -8.3322811 5.3409119
1.150233 -6.9254732 4.5539222
1.060689 -6.2962909 4.3090439
1.505179 -8.9347992 6.1147819
1.753383 -10.122172 7.188096
1.115031 -6.1817722 4.1633749
1.600342 -8.8723516 5.9754601
1.16888 -6.4377251 4.2442689
1.2766401 -6.9853039 4.4910269
1.542134 -8.3831348 5.2387881
1.331643 -7.1004319 3.9861751
4.5898509 -23.716038 10.319432
4.615272 -23.700565 9.6750498
4.6368351 -23.665533 9.0194387
4.6651378 -23.664856 8.3783207
4.7116919 -23.613342 7.0830641
4.7293429 -23.559731 6.437201
1.64779 -7.8777971 0.790362
1.653795 -7.8611779 0.61813802
1.65811 -7.8366742 0.45359001
1.663051 -7.8154292 0.29891199
1.672951 -7.817513 0.154081
1.678712 -7.800385 0.019125
1.687371 -7.7968121 -0.104787
1.695894 -7.7925758 -0.219496
1.703512 -7.784286 -0.32181099
1.709878 -7.7703791 -0.41305101
1.712943 -7.7416201 -0.49017999
1.731414 -7.7402682 -0.61031199
1.763497 -7.7160211 -0.690018
1.809476 -7.752027 -0.558819
1.840204 -7.8021269 -0.41616201
1.847663 -7.7934442 -0.323466
1.865818 -7.8297091 -0.221532
1.880082 -7.8492818 -0.106022
1.896329 -7.8769259 0.01942
1.9105 -7.895638 0.15656701
1.925247 -7.9165611 0.30478099
1.935968 -7.9207778 0.46173099
1.951542 -7.9446359 0.629493
1.961395 -7.9451122 0.803653
6.00138 -23.605291 5.892971
6.1889238 -23.994505 7.9471698
6.2348771 -24.057592 8.632617
6.267004 -24.066919 9.3014393
6.23315 -23.823751 9.8673458
1.825024 -6.8778582 3.4082921
1.565273 -5.8715491 3.063144
2.0598121 -7.7266312 4.0309272
2.192477 -8.1862288 4.4778271
2.617425 -9.6388359 5.9424582
2.6389921 -9.6740065 6.162972
2.3548939 -8.3281746 6.055819
2.835206 -9.5604572 5.7239208
2.8541939 -9.5837574 5.5176468
2.454952 -8.1058846 3.8391709
7.263247 -23.7836 9.9644241
7.390872 -23.613447 5.9865661
2.6222761 -8.3441715 1.8929
2.6297591 -8.3342295 1.673143
2.6294279 -8.2997208 1.454875
2.6413441 -8.3039675 1.249095
2.6492109 -8.295434 1.047803
2.6505749 -8.2667036 0.85251999
2.6589401 -8.2599287 0.66769999
2.6659701 -8.2490063 0.490904
2.6748371 -8.2438498 0.32422
2.677089 -8.2183619 0.166587
2.6889479 -8.2224646 0.020734999
2.696358 -8.2129641 -0.113548
2.705076 -8.2074366 -0.237847
2.711184 -8.1940851 -0.34856501
2.7204731 -8.1903868 -0.44804701
2.726845 -8.1779013 -0.53294098
2.7390749 -8.151701 -0.66171497
2.7815399 -8.1528931 -0.75098598
2.8298371 -8.1705446 -0.60699803
2.8456581 -8.1551428 -0.44841
2.8585849 -8.1618338 -0.349251
2.87955 -8.1913166 -0.238975
2.8895459 -8.1894283 -0.114073
2.9102719 -8.2178707 0.020896001
2.916909 -8.206399 0.167859
2.9426899 -8.2486935 0.32762101
2.950913 -8.2416143 0.49570999
2.9635389 -8.2467737 0.67429799
2.976366 -8.25247 0.86151099
2.990274 -8.2610874 1.057121
3.0027339 -8.2655888 1.260589
3.0180171 -8.2778168 1.4723459
3.039113 -8.3058224 1.693262
3.4916501 -9.4410934 2.6965499
3.295743 -8.8484373 3.02825
3.4370921 -9.0991039 4.1551938
3.4110351 -8.9986591 4.3622632
3.3943851 -8.9235716 4.5728998
3.3433039 -8.7588186 4.7259302
3.2634659 -8.5201006 4.8207302
3.2056351 -8.3402185 4.9301801
3.1748891 -8.2318144 5.064311
3.143981 -8.1236706 5.1826491
3.10817 -8.0036554 5.2770119
3.0753591 -7.8921332 5.3569479
3.0615349 -7.8298678 5.453496
4.0967541 -9.9645128 6.6216612
4.096961 -9.9323711 6.3924122
4.0731702 -9.8424196 6.1142111
10.235104 -24.176556 10.519739
10.122437 -23.833687 9.6846781
3.957463 -9.170332 2.416544
3.9657099 -9.1603374 2.1602621
3.96527 -9.1303339 1.905743
3.9879341 -9.1535606 1.668483
4.0061932 -9.1665344 1.433983
4.0088611 -9.1437969 1.2013119
3.9324751 -8.9414606 0.959243
3.904212 -8.8494406 0.74426699
3.9415579 -8.9061756 0.55151099
3.959059 -8.9178648 0.365004
3.991749 -8.9635239 0.18911301
4.0060968 -8.9678488 0.023542
4.0173469 -8.9652052 -0.12904701
3.839632 -8.5157909 -0.37725601
3.498033 -7.7343111 -0.440685
3.7948949 -8.3648968 -0.56786603
3.7870469 -8.2965899 -0.70176297
3.951304 -8.5515308 -0.82124698
3.9356661 -8.4152946 -0.65216601
3.9616411 -8.4200439 -0.48309401
4.0361538 -8.5017595 -0.123622
6.8072972 -14.169451 0.890163
6.8374119 -14.190052 1.212032
4.3191371 -8.8848238 1.416105
4.3345852 -8.8904629 1.652825
4.3424859 -8.8806067 1.89258
4.3384199 -8.846344 2.1323409
4.3781552 -8.9013367 2.4000821
4.3873038 -8.8940868 2.6567011
4.373147 -8.8395586 2.901068
4.3703041 -8.8080883 3.15346
11.994945 -23.965429 10.738443
12.148064 -24.061941 12.910473
4.658587 -8.5277109 4.8983302
4.3021822 -7.8536592 4.2890921
5.010745 -9.1220474 4.7177339
13.462845 -24.175941 8.8746405
4.9423561 -8.4552851 -0.50844598
4.9503908 -8.4465237 -0.605259
4.8944082 -8.3068209 -0.74188799
5.0944171 -8.555315 -0.86805898
5.012259 -8.3292608 -0.68241698
8.702323 -14.162375 0.62182301
5.6704011 -8.9013052 3.9472959
5.4964919 -8.6062746 4.091774
5.7075219 -8.9139376 4.5217252
5.0409899 -7.714623 5.6639652
5.030467 -7.6790929 5.805943
4.445673 -6.6678309 5.6074939
5.1235209 -7.5511661 5.9193368
5.4265871 -7.9580908 5.9200139
5.1819139 -7.5428462 5.049509
5.8522658 -8.4138098 4.378334
6.2149758 -8.8912973 4.0572939
6.6063972 -9.043788 -0.30825299
6.6670032 -9.0825357 -0.58491802
6.689157 -9.0906096 -0.69775403
6.1969442 -8.3809748 -0.802037
6.2477932 -8.3683615 -0.91044098
6.339272 -8.4093609 -0.73927999
6.7704659 -8.9167471 -0.45214999
6.9774761 -9.1673288 -0.31708401
10.89038 -14.205563 0.34498599
10.901825 -14.186453 0.66929901
6.9653368 -8.7661924 4.1876092
6.463284 -8.0957613 4.4254761
9.9213095 -12.397743 7.1977749
7.0894208 -8.7132444 6.9038911
6.7931838 -8.1161232 7.2465949
5.7039928 -6.7194042 5.2440071
7.8667269 -9.2454309 6.9679708
6.6382928 -7.7469869 5.1427522
10.848433 -12.571627 7.0937262
6.8231091 -7.8884301 4.1791811
12.811571 -14.469811 2.7703431
12.767813 -14.253236 0.71583998
12.737454 -14.186226 0.36745501
8.5102816 -9.4122667 -0.349246
8.5724754 -9.4590197 -0.515544
7.8259101 -8.5552778 -0.89218402
7.7825408 -8.4291162 -1.000157
8.7712584 -9.3685284 -0.66626298
8.8534822 -9.4125824 -0.35565701
13.443931 -14.226736 0.046916999
7.575079 -7.688623 4.6109018
6.8838758 -6.7326179 6.7374778
6.2527781 -6.002975 5.4820251
6.3443012 -6.0626349 5.2209978
10.410579 -9.8107796 6.484355
10.955533 -10.300366 6.423914
9.0167809 -8.4186783 4.2849731
12.888466 -11.811789 2.5059941
10.159558 -9.0752468 -0.70722097
9.5845718 -8.4227953 -1.112366
10.667796 -9.287426 -0.99291903
6.7083278 -5.3908162 5.5824728
6.7771749 -5.2548709 5.2707291
13.111908 -9.386384 -1.240802
7.2497549 -4.6028962 6.0088081
16.332432 -9.2875128 -1.4457231
16.436344 -9.1461353 -1.320438
16.481918 -9.1215553 -0.97795701
16.539715 -9.1285486 -0.762945
16.518084 -9.0916824 -0.51894498
7.7768269 -3.866607 6.0770311
7.8652778 -3.865129 6.000319
7.8401341 -3.0485251 4.4446578
7.6627879 -2.969327 4.5345092
7.2259922 -2.7711821 4.756537
7.3159971 -2.7959709 4.9533858
7.2882342 -2.775666 5.0589461
7.8414512 -2.965548 5.6577539
7.7062192 -2.87359 5.7548342
7.802619 -2.868367 5.6918569
8.1073112 -2.9590361 5.720221
7.350553 -2.673177 5.0736399
7.3420892 -2.6604619 4.9389539
7.6246119 -2.7528241 4.9822159
7.3774328 -2.6539149 4.664691
7.6123261 -2.7284491 4.6416631
7.6790929 -2.742321 4.4992418
7.783637 -2.7694819 4.3652391
10.415321 -3.6922369 5.5703769
10.141881 -3.582068 5.1517482
10.412942 -3.6642301 5.0038452
14.240124 -4.0645809 3.967067
14.574944 -4.1418929 4.4571462
8.4006872 -2.3557589 3.26314
11.909766 -3.3397911 4.6261978
11.840133 -3.3054531 4.9256759
8.2178268 -2.283941 3.6437011
11.747813 -3.250355 5.5252848
10.664503 -2.9373131 5.2981882
10.358433 -2.8272059 5.673315
10.430634 -2.833914 5.9640441
7.6570668 -2.0708361 4.553051
7.6935558 -2.0711291 4.740365
7.7247658 -2.069936 4.9151931
7.4172602 -1.9783289 4.8550339
7.4153471 -1.968606 4.9767709
7.3670592 -1.937524 5.1408701
6.009656 -1.550769 4.3427839
7.4822798 -1.893821 5.2845292
7.5419369 -1.890323 5.1533918
7.4938211 -1.8690391 5.0099678
8.831872 -2.1918969 5.7551641
8.717845 -2.131444 5.1514301
10.477799 -2.5488601 5.9500341
10.788336 -2.611167 5.8648548
10.501959 -2.528959 5.44524
10.684399 -2.5597999 5.2623339
11.566726 -2.7711899 5.6969018
11.98015 -2.855567 5.5826721
8.1202021 -1.9255641 3.5651309
8.0741758 -1.904772 3.3240781
8.2942667 -1.946552 3.1864221
13.306322 -3.106529 4.746315
13.210051 -3.067919 4.3493681
13.680093 -3.1103139 3.03617
15.330124 -3.448102 2.6257639
11.805942 -2.0718839 3.2109671
8.6083546 -1.459249 3.4985211
8.3293724 -1.4020129 3.6083441
8.2431269 -1.377659 3.788389
7.8455458 -1.3018399 3.809166
6.1658411 -1.0157681 3.1500199
6.1586299 -1.007239 3.2972879
5.8707891 -0.95315802 3.2817941
6.0646939 -0.97741598 3.526051
5.8129501 -0.92991298 3.502481
5.4506731 -0.86547101 3.3919909
6.5697532 -1.043162 4.0884018
7.3993859 -1.174893 4.6046882
5.3463998 -0.84255397 3.423058
6.2797661 -0.989645 4.0206499
9.2593584 -1.44818 6.0793338
6.5080299 -1.002395 4.4438591
5.7430472 -0.85727298 4.0630112
6.4812889 -0.96747202 4.5852919
5.7973361 -0.83787 4.01057
6.0787139 -0.86412603 4.0694561
6.5902371 -0.929039 4.3171921
5.2991619 -0.74076098 3.3840389
5.545177 -0.76858097 3.4406869
5.9027162 -0.81115597 3.54492
5.5169802 -0.75162399 3.195997
6.2507672 -0.84419501 3.4803541
5.979331 -0.80046999 3.1875031
6.235374 -0.827371 3.1707261
8.8382959 -1.15188 4.0402331
8.8530512 -1.14334 3.8134129
11.352802 -1.4527791 4.5860901
8.7587881 -1.100158 3.0663199
8.8465328 -1.10075 2.8590629
8.820715 -1.087142 2.614347
16.762768 -2.0264699 4.0852671
12.664963 -0.87809598 3.400898
11.482724 -0.78273702 3.3856139
12.40637 -0.831213 3.9877861
11.002718 -0.69867599 4.4175978
10.480894 -0.62888801 5.029067
6.498456 -0.382359 3.2814579
6.1665459 -0.35564801 3.2636509
6.2056818 -0.350669 3.4296269
6.2340159 -0.345011 3.5837979
5.992372 -0.32465199 3.5704851
6.239861 -0.32353401 3.9516981
6.3728819 -0.32300401 4.1392369
5.5612168 -0.268924 3.757478
8.6833467 -0.41990101 5.8669691
8.2543678 -0.36072499 5.7812061
6.2661829 -0.24468599 4.2936091
5.943275 -0.218251 3.9418371
5.8496652 -0.20801499 3.796931
6.295229 -0.216543 3.9837689
6.078742 -0.202023 3.738102
6.589036 -0.211326 3.9222679
6.350668 -0.196302 3.6470211
6.2172089 -0.184944 3.4320431
6.4615078 -0.184705 3.415482
6.5384908 -0.1793 3.2972131
10.224099 -0.256616 4.6359882
10.388524 -0.248661 4.4392262
10.572862 -0.240794 4.237577
11.196714 -0.242 4.1886601
11.886686 -0.24309 4.1297698
11.366527 -0.219254 3.646054
11.446092 -0.207498 3.367553
6.275784 -0.106473 1.68143
6.1429648 -0.097087003 1.4864711
5.9792428 0.18330801 0.99963999
6.266952 0.19941001 1.200421
6.000742 0.19792099 1.299372
5.5728621 0.190285 1.349135
5.6597891 0.199772 1.517117
6.0504642 0.220594 1.780996
5.4847579 0.206352 1.760269
5.5795398 0.21640401 1.9395421
5.7678728 0.230414 2.158962
5.7521749 0.23648401 2.306807
5.9132748 0.249982 2.5283949
6.0438032 0.262528 2.7422061
5.9465289 0.265228 2.851043
8.8703327 0.40595299 4.4761071
6.8898072 0.32332799 3.6443951
7.9231458 0.37182099 4.1909838
6.6850338 0.32150599 3.692925
6.3815222 0.31433401 3.6674321
6.2527542 0.31527701 3.724901
5.7881451 0.29858601 3.5621669
5.6580629 0.29846099 3.5834141
5.5885258 0.30130699 3.630403
5.9032068 0.332019 3.9901879
7.2672081 0.442615 5.0943861
6.1735392 0.40479201 4.2359838
7.935329 0.538827 5.2716198
5.5557222 0.38372499 3.6124451
5.6283998 0.39531001 3.5684481
5.8508062 0.41776499 3.605103
6.3154202 0.45830801 3.7673399
6.1903238 0.45645401 3.5628901
7.2695251 0.54452598 4.022408
5.92625 0.45082599 3.1403179
8.1417608 0.61936599 4.3143172
5.9294672 0.45800301 2.997875
6.176991 0.48433501 2.9676771
5.643662 0.44910899 2.566328
5.7728629 0.46614301 2.4741809
6.1754141 0.50586402 2.4827371
5.7918558 0.481213 2.1736751
5.6892142 0.479343 1.983182
5.663219 0.48377401 1.822874
5.2969179 0.45867699 1.56398
5.6474018 0.49564001 1.518669
5.6355119 0.50118899 1.368889
5.6643891 0.51038498 1.23084
6.0964742 0.55646199 1.172027
8.5784216 0.80308902 1.2350481
11.020751 1.044656 1.332004
11.29949 1.084312 1.114736
12.038716 1.22584 0.029005
10.29559 1.0845979 -0.41809201
10.290734 1.108264 -0.63987499
10.359654 1.140021 -0.801961
10.049642 1.200502 -0.71049798
10.071885 1.226897 -0.526748
10.036134 1.2343661 -0.40836701
8.4459152 1.048735 -0.23424301
7.783412 0.97565901 -0.10304
7.6926432 0.973351 0.018585
10.634529 1.3706959 0.40111601
10.435238 1.357325 0.59589201
7.6337662 1.001958 0.59243703
11.215368 1.472055 0.870395
8.8882647 1.177111 0.88047099
7.5538979 1.0093189 0.91699201
6.2843442 0.84712201 0.90897501
8.6426897 1.165024 1.250088
5.6499391 0.76828301 0.95283002
5.7945209 0.79479498 1.119753
5.5126581 0.76266301 1.204399
