# .PCD v0.7 - Point Cloud Data file format
VERSION 0.7
FIELDS x y z
SIZE 4 4 4
TYPE F F F
COUNT 1 1 1
WIDTH 1553
HEIGHT 1
VIEWPOINT 0 0 0 1 0 0 0
POINTS 1553
DATA ascii
4.2462902 6.8511319 4.9539409
4.0610051 6.5863051 5.0192189
3.9902949 6.5053811 5.1503792
3.9958041 6.6873922 5.1633372
3.9813061 6.680728 5.0447969
4.3456831 7.330833 5.237741
3.7867889 6.4049568 4.4269319
4.2679 7.218708 4.9893742
4.5484252 7.7547259 4.7501869
3.3978429 5.8085279 3.3921909
4.31178 7.3708811 4.3046069
3.617754 6.2175341 3.260756
3.099524 5.3554769 2.4793899
3.0898571 5.353096 2.311698
3.055306 5.3074751 2.127229
3.125803 5.4445448 2.013438
3.1461661 5.4947739 1.862553
3.2121091 5.6250949 1.735252
3.233233 5.677381 1.580771
2.439986 4.2960711 1.0692379
3.2402821 5.7051482 1.419939
2.399483 4.2362161 0.93209302
2.2315249 3.9503751 0.75817698
2.2966759 4.0767541 0.67073399
2.785578 4.9580541 0.68427998
4.3850489 7.8049531 1.077191
2.2036841 3.933023 0.44272801
2.3228259 4.1569691 0.366418
2.241909 4.0231328 0.260802
2.1975091 3.9542439 0.169231
2.2148781 3.9964311 0.088063002
2.2744939 4.1152592 0.01127
2.2265689 4.0396152 -0.060589999
2.275152 4.1391311 -0.129998
2.2251689 4.0593538 -0.18695299
2.1737709 3.976532 -0.235274
2.5295701 4.6402102 -0.32672501
2.371702 4.3747559 -0.38291299
2.3315041 4.3487082 -0.43016499
2.224638 4.196064 -0.33340099
2.1423659 4.0636668 -0.238488
2.2791989 4.3354039 -0.197808
2.251951 4.2956719 -0.13349199
2.114202 4.0443358 -0.059946001
2.0874939 4.0045609 0.010824
2.093986 4.02843 0.087503999
2.3200071 4.4759388 0.188595
2.392947 4.629806 0.29511899
2.081502 4.038733 0.34961599
2.140306 4.1646929 0.459831
2.127207 4.1510501 0.56123298
2.0638111 4.038898 0.650159
2.119782 4.1603451 0.78026301
2.2043459 4.3387542 0.93171698
2.2005041 4.3436871 1.053797
2.196876 4.349041 1.178876
2.979584 5.9154291 1.774325
2.830591 5.6359029 1.855216
2.977025 5.9446802 2.1322351
2.843049 5.6936469 2.210572
2.744786 5.5128598 2.3032899
2.6808579 5.4001851 2.415787
2.6325231 5.3183112 2.535073
2.5854759 5.2385511 2.6480739
2.556143 5.1943212 2.772855
2.520556 5.1370468 2.8844421
2.494488 5.098876 2.999233
2.4727709 5.0694032 3.112221
2.4500141 5.0375819 3.2154119
2.4144361 4.9791331 3.2923319
2.397068 4.9579668 3.38466
2.3843441 4.946291 3.472769
2.361855 4.9142332 3.5367999
2.3251369 4.8667402 3.6400039
2.273855 4.8168092 3.7270551
2.250612 4.825501 3.645613
2.247848 4.848948 3.5424049
2.2606561 4.891448 3.49544
2.2631681 4.9118462 3.4203861
2.284503 4.9733529 3.3637159
2.287184 4.9944639 3.268301
2.3106019 5.0611119 3.1935079
2.323447 5.1049452 3.0948291
2.355654 5.1916819 3.0123141
2.377774 5.2566628 2.908299
2.4413421 5.4139199 2.844563
2.3918519 5.3372231 2.498538
2.3857999 5.3570089 2.1932931
2.732944 6.1364751 2.5124249
2.5084369 5.6677632 1.987785
2.8379359 6.412261 2.248894
2.506253 5.6806359 1.826431
1.868554 4.2486019 1.243347
2.529645 5.751749 1.683241
1.964596 4.4810829 1.183815
3.3672271 7.7046762 1.819713
1.93469 4.4408941 0.92739302
2.055182 4.7324662 0.86217898
1.698046 3.9225459 0.61269897
1.935349 4.4850159 0.58775401
1.876164 4.3617692 0.466281
1.8600219 4.3381062 0.363195
1.863371 4.3599038 0.268491
2.183104 5.1244621 0.208371
2.3173859 5.4572492 0.11427
1.972352 4.6597509 0.012128
1.910418 4.5280638 -0.064556003
1.920097 4.565815 -0.136326
1.862201 4.4425669 -0.194539
1.6897399 4.0442948 -0.227549
1.7144049 4.1167741 -0.275695
2.1597049 5.2201791 -0.434699
1.978125 4.844883 -0.45621899
2.157263 5.3545642 -0.405249
1.844808 4.6098828 -0.25777501
1.720871 4.3146968 -0.187599
1.7413501 4.3808131 -0.12975
1.740079 4.3924818 -0.062061001
1.710153 4.3316169 0.011162
1.752761 4.45469 0.092262998
1.822572 4.6479421 0.186764
1.854421 4.7453661 0.288504
2.0320261 5.2177281 0.43086299
1.638741 4.2223568 0.44477999
2.017818 5.2170272 0.67304999
1.767591 4.5859051 0.70450503
2.164186 5.6148472 0.86257499
1.670699 4.3495631 0.778615
1.655813 4.3258018 0.88677698
1.65841 4.3477168 1.007051
2.212985 5.8218832 1.50693
2.514545 6.66154 2.0945261
2.30547 6.1292109 2.1001689
2.3480971 6.286788 2.509973
2.630995 7.0692749 3.0224299
2.6196151 7.139966 3.8337691
1.9447449 5.3196421 2.9926929
1.899323 5.2330599 3.1954989
1.876026 5.187665 3.2821059
1.816554 5.041503 3.293551
1.943325 5.4130239 3.6373999
1.7272789 4.8288822 3.326736
1.903523 5.3608112 3.83915
1.840973 5.2620578 3.9007659
1.593814 4.6243958 3.349015
1.849233 5.3654852 3.885716
1.684927 4.96347 3.3150859
1.769901 5.2538519 3.2984681
3.2026491 9.5434837 5.7781839
1.900406 5.7068882 3.178159
3.909281 11.785181 6.259078
4.1289158 12.495827 6.3033972
2.0436189 6.257946 2.6378391
1.657522 5.0956788 2.0041251
3.1441989 9.7044649 3.543412
3.090559 9.5768051 3.2273641
2.5975759 8.1461725 2.0687361
1.467389 4.6203542 1.049143
1.495544 4.728044 0.94939297
1.642182 5.2126632 0.91327298
1.663962 5.3032689 0.796736
1.578649 5.0519152 0.63685298
1.516216 4.8719749 0.50107402
1.5729769 5.075119 0.40884399
1.602765 5.1925621 0.30772701
1.5256521 4.963172 0.19424
1.576269 5.1491361 0.103787
2.175637 7.10707 0.143251
1.504384 4.9347701 0.012366
1.5737621 5.1839108 -0.071162999
1.566698 5.1823068 -0.149009
1.497498 4.9742432 -0.209793
1.403466 4.6815748 -0.25373101
1.401521 4.6949191 -0.30290699
1.629985 5.506856 -0.44191101
1.344777 4.622087 -0.41965601
1.646171 5.7575531 -0.42037499
1.285794 4.5369692 -0.244813
1.477376 5.236135 -0.21971899
1.456531 5.185276 -0.148239
1.657741 5.9280429 -0.080856003
1.476939 5.3052359 0.0132
1.444335 5.211556 0.10423
1.433028 5.1941762 0.20156699
1.407203 5.1237612 0.30088601
1.436692 5.255043 0.41920099
1.467936 5.3939309 0.54896301
1.5319149 5.6549168 0.70494699
1.53188 5.680944 0.84341902
1.576053 5.8718638 1.015957
1.6240849 6.1074481 1.367694
2.7189319 10.272664 2.5710461
2.0212829 7.7087631 2.3442769
1.89096 7.2805662 2.6128521
2.608933 10.092994 3.898953
2.5323491 9.8438797 4.0728049
1.8734159 7.3176031 3.2268851
2.287137 8.9769201 4.1991839
1.597014 6.2987781 3.1123891
1.847483 7.2866502 3.600522
1.6694469 6.6166582 3.439904
1.781697 7.0962319 3.865834
1.726434 7.0490208 4.5899129
1.17003 4.9509201 3.5596499
1.162583 5.0234389 3.5303631
1.673475 7.3472872 4.8880649
1.522102 6.7917762 4.141109
1.539628 6.9075079 4.062202
1.467016 6.6179161 3.7402699
1.514807 6.8712101 3.717741
1.648773 7.5623269 3.7072201
2.067739 9.5908661 4.1913362
2.096982 9.7815466 4.0084581
2.2411301 10.573609 3.754396
2.203975 10.458085 3.4277
1.342111 6.518199 1.440245
1.59732 7.8035331 1.5249701
1.1755 5.7768712 0.98513502
1.19696 5.9174442 0.86541301
1.129841 5.6191959 0.68965501
1.149611 5.752027 0.57603502
1.067926 5.3757501 0.42173299
1.150535 5.8269849 0.33633399
1.1145951 5.6796179 0.21652
1.173069 6.0145321 0.118104
1.1309119 5.8343878 0.014245
1.074687 5.5789428 -0.07463
1.147583 5.9948368 -0.16799299
1.227893 6.4548931 -0.265358
1.137403 6.0171981 -0.31791499
1.269284 6.7148862 -0.35477701
1.258751 6.7017951 -0.421565
1.1637419 6.2761512 -0.49116501
1.1968679 6.626236 -0.58701402
1.084908 6.1699252 -0.43977201
1.083382 6.2462049 -0.32911399
1.049571 6.093225 -0.24970099
1.069083 6.2498202 -0.174513
1.088258 6.4066691 -0.085360996
1.053808 6.2477322 0.015187
0.92976803 5.5516362 0.108489
0.96875203 5.8258739 0.22093099
0.94421601 5.719296 0.32824901
0.94711298 5.7785878 0.45058
0.95513803 5.870194 0.58404899
1.017149 6.2973728 0.76754498
0.98520303 6.1449099 0.89208901
0.96774 6.0810962 1.028978
0.977781 6.1904321 1.199856
1.0539531 6.7233438 1.472819
1.4010839 9.0747156 2.459784
1.3167059 8.594348 2.5576241
1.233611 8.1149702 2.6324639
1.120037 7.4258528 2.608587
1.069428 7.1465559 2.7026441
1.412227 9.4373446 3.5689609
1.522305 10.254366 4.1538892
1.221657 8.2954559 3.5820229
1.243939 8.6558533 4.4081368
1.170198 8.2792835 4.61374
0.77251202 7.210259 2.9056389
0.75426197 7.1179032 2.6770711
1.052334 9.930788 3.735008
1.053521 10.053486 3.511256
0.73952901 7.2187729 2.134599
0.736839 7.2759271 1.9590811
0.97061199 9.5843105 2.5806251
0.99730998 9.9632978 2.422658
0.61059999 6.1722841 1.342311
0.96641499 9.7690544 2.1245151
0.59596699 6.0966859 1.172779
0.61290902 6.346066 1.065403
0.71039402 7.445735 1.072153
0.64841199 6.8806658 0.83157599
0.61834699 6.6441898 0.65529603
0.574983 6.3377762 0.36036199
0.64969599 7.2548718 0.27248201
0.57460803 6.5014448 0.125793
0.57437599 6.5859818 0.015845999
0.58408397 6.788331 -0.089498997
0.58219701 6.8597312 -0.18948001
0.566899 6.7727761 -0.27447799
0.54295403 6.6731658 -0.41391301
0.54034603 7.7540669 -0.545654
0.44613999 6.7407451 -0.27282301
0.448495 6.8978171 -0.19024999
0.44124401 6.9103298 -0.090957001
0.41280001 6.5850549 0.015814999
0.397643 6.4635768 0.12481
0.38831499 6.433784 0.241118
0.394072 6.6576629 0.377662
0.37789899 6.5127611 0.50198299
0.37711301 6.6323318 0.65236402
0.51362801 9.2220869 1.111357
0.491117 9.4080896 1.8036391
0.465087 9.1128988 1.974758
0.50693899 10.164715 2.4624009
0.53767997 11.036313 2.959969
0.36598301 7.6958761 2.2663889
0.48424101 10.182589 2.9987111
0.32654101 7.0389118 2.2598879
0.443019 9.7952938 3.4059279
0.35744399 8.1118059 3.03684
0.47894001 11.164059 4.4774818
0.408795 10.075124 4.570756
0.27908599 7.0815148 3.394469
0.322494 9.5991898 5.7144132
0.22264899 8.0131903 5.4099398
0.146924 7.9462571 5.4415841
0.040768001 7.1355982 3.4177959
0.046891998 10.300076 4.6690168
0.007824 7.320725 2.738025
-0.00065 6.9572339 2.4166341
-0.00094400003 10.094366 3.5063341
-0.0093609998 7.463552 2.3936491
-0.017581999 7.2805171 2.141654
-0.033369001 9.3280363 2.498857
-0.048579 10.253046 2.4807439
-0.095521003 10.180486 1.4593821
-0.096639998 9.1643848 1.102756
-0.104214 8.0993853 0.62327802
-0.109174 7.7817659 0.44069999
-0.122001 8.031455 0.300482
-0.187582 6.1916642 -0.54002899
-0.34191099 8.3883104 -0.110277
-0.38124499 8.8481464 0.170691
-0.36807701 8.3180361 0.311472
-0.370325 8.1545181 0.46224001
-0.41283101 8.863162 0.68273699
-0.41602501 8.7141104 0.856722
-0.443407 9.0666885 1.092243
-0.53591198 9.7923803 2.372803
-0.54120499 9.6848726 2.59848
-0.57633901 9.9006863 3.180639
-0.57491302 9.6824551 3.3691781
-0.62775099 10.172884 4.0839629
-0.75808299 11.421754 5.7702351
-0.60841501 8.4260359 5.1921859
-0.77720898 8.4403801 5.209466
-1.082384 10.546196 4.2479911
-1.0591609 9.9775591 3.2178969
-1.005862 9.37183 2.7726641
-1.013212 9.338006 2.5161941
-1.3089809 11.327372 1.3720241
-1.2310669 10.136622 0.19680201
-0.84391397 6.4477839 -0.50037199
-0.78062499 5.7562771 -0.50641799
-0.97229999 6.927887 -0.49110201
-2.010874 13.747513 -0.182504
-1.9169151 12.895887 0.251277
-1.602905 10.698017 0.40466699
-1.770479 9.8565111 6.3335128
-1.399765 5.8572631 -0.463393
-1.284825 5.2680168 -0.47272101
-1.559562 6.2679982 -0.453428
-1.556275 -5.5587201 1.546357
-1.470515 -5.2758498 1.6111079
-2.1366119 -7.665647 2.3408909
-1.280179 -5.6670518 1.709034
-1.341664 -5.9713349 1.639511
-1.708208 -7.6027079 2.0874259
-1.704289 -7.6264138 1.890717
-1.382822 -6.221632 1.3793271
-1.6985739 -7.6422739 1.6942821
-1.175258 -5.316762 1.04247
-1.376858 -6.2287822 1.221293
-1.686996 -7.6318169 1.496389
-1.160732 -5.2799578 0.90338397
-1.408931 -6.4089699 1.096554
-1.156054 -5.287776 0.77587801
-1.12933 -5.1943078 0.63960099
-1.141583 -5.280014 0.53049099
-1.0143549 -4.7179232 0.371328
-1.067667 -4.9939651 0.28918299
-1.051223 -4.944962 0.189119
-1.072304 -5.0729451 0.099932998
-1.1184731 -5.3217192 0.013034
-1.318391 -6.2729349 0.015364
-1.057627 -5.0612302 -0.067919001
-0.96139002 -4.6273961 -0.13008
-1.044564 -5.0570369 -0.208542
-1.05967 -5.1602259 -0.27348399
-1.037142 -5.0803161 -0.320555
-1.0424809 -5.1673079 -0.40562201
-0.93274403 -4.9155488 -0.259745
-0.95440799 -5.0616059 -0.20801701
-1.426706 -7.56639 -0.310956
-1.102509 -5.8843389 -0.164774
-1.122563 -6.0298691 -0.080567002
-1.41574 -7.6046729 -0.101609
-0.92635101 -5.0080309 0.012207
-1.08623 -5.872366 0.014314
-0.897623 -4.8842812 0.095712997
-1.261456 -6.9088702 0.262725
-0.87636101 -4.831295 0.278045
-0.95571101 -5.303648 0.414675
-0.89592898 -5.0049849 0.49931499
-1.086724 -6.0708342 0.60564798
-0.94730002 -5.327404 0.65106899
-0.922499 -5.2229452 0.76026899
-0.98731297 -5.6278238 0.954808
-1.342664 -7.6533742 1.29846
-0.93941802 -5.3913751 1.047735
-1.330056 -7.633266 1.4834141
-0.93130302 -5.3815751 1.181978
-1.3127739 -7.6383858 1.8751971
-1.305667 -7.6497459 2.078887
-1.29697 -7.6520391 2.2830391
-3.903862 -23.359922 8.2267265
-1.4264621 -10.19413 7.0477328
-2.8830869 -23.348352 9.42659
-2.8523519 -23.320732 8.7871828
-2.8223801 -23.299124 8.1522427
-2.795042 -23.298681 7.525732
-2.7678161 -23.299097 6.9018879
-2.7386031 -23.282888 6.2801328
-0.62347102 -5.4636679 1.052812
-0.61811799 -5.4728351 0.92036098
-0.858325 -7.5996351 1.2780221
-0.569915 -5.0988059 0.73543799
-0.68625098 -6.1396189 0.885562
-0.84931898 -7.5985289 1.095991
-0.72189403 -6.526835 0.79012299
-0.83649802 -7.5629969 0.91555798
-0.71054602 -6.4928169 0.64141798
-0.82563299 -7.5444498 0.74530703
-0.81521398 -7.5296102 0.58276999
-0.80217898 -7.490098 0.426566
-0.56265903 -5.3115458 0.19981
-0.55961698 -5.3417692 0.103517
-0.775509 -7.4859161 0.018038999
-0.58839899 -5.7444458 -0.075851999
-0.75742602 -7.4799018 -0.20692299
-0.74726999 -7.4655781 -0.30300701
-0.74012899 -7.4813552 -0.39029101
-0.73213899 -7.4889312 -0.46518999
-0.74517101 -7.8083372 -0.60356098
-0.71092701 -7.8319721 -0.685588
-0.64876801 -7.5335078 -0.53080797
-0.63273299 -7.551333 -0.39340201
-0.62484097 -7.5620441 -0.30643699
-0.61613798 -7.5630708 -0.208849
-0.60941398 -7.5889139 -0.100006
-0.60101998 -7.5942321 0.018259
-0.41887701 -5.3716922 0.103845
-0.59384298 -7.6154628 0.147221
-0.58429301 -7.6062551 0.28537899
-0.57476801 -7.5970831 0.43142799
-0.56803799 -7.625268 0.58837003
-0.55914998 -7.6247492 0.75077999
-0.55003601 -7.6210642 0.91938102
-0.54087698 -7.6167679 1.0945719
-1.317047 -18.854975 3.1584661
-1.522552 -23.346472 6.2674541
-1.497449 -23.376637 6.8906002
-1.444688 -23.399387 8.143384
-1.3645689 -23.419319 10.021651
-1.337839 -23.425735 10.63606
-1.308897 -23.393482 11.22231
-1.283991 -23.432791 11.829904
-0.34781799 -26.338924 7.056417
-0.286089 -26.249716 5.6812372
-0.161788 -18.833153 3.147258
-0.056134 -7.5476398 1.081944
-0.047378998 -7.5414538 0.907435
-0.038612001 -7.5276899 0.73924798
-0.029759999 -7.4848151 0.57594198
-0.003859 -7.516603 0.14487
0.004795 -7.4939771 0.017961999
0.013454 -7.5033412 -0.098560996
0.022103 -7.4981279 -0.20637301
0.030781001 -7.5058179 -0.303128
0.039521001 -7.5217671 -0.39049801
0.048204999 -7.5214849 -0.46500501
0.065249003 -7.4865842 -0.57609499
0.135543 -7.5521951 -0.53024799
0.153062 -7.556272 -0.39236501
0.162503 -7.5900722 -0.30659801
0.171578 -7.6041842 -0.209344
0.180483 -7.6092029 -0.099979997
0.189895 -7.6346169 0.018305
0.19823299 -7.6160059 0.146835
0.208674 -7.6767931 0.28728601
0.21631201 -7.6337018 0.432446
0.226175 -7.6689858 0.59036499
0.235927 -7.6983371 0.75635099
0.244031 -7.6737428 0.923801
0.25448599 -7.7218351 1.1074851
0.360149 -6.8307581 3.9262969
0.334602 -6.209579 3.699847
0.354081 -6.4327369 3.9595921
0.73867702 -7.6230102 1.097836
0.74158901 -7.5619192 0.914244
0.76287901 -7.5982251 0.58760297
0.77049297 -7.5857558 0.43176699
0.78251201 -7.6165528 0.28642601
0.79369301 -7.6384492 0.148011
0.802037 -7.632956 0.018395999
0.81459099 -7.6671839 -0.10128
0.823861 -7.6699591 -0.21231601
0.83429998 -7.683537 -0.31212699
0.84447199 -7.6943731 -0.401853
0.85344398 -7.6940322 -0.47858
0.87580901 -7.7325559 -0.598804
0.95879501 -7.8180432 -0.55293697
0.97003001 -7.7610822 -0.40605199
0.98476899 -7.8057132 -0.317736
1.006732 -7.8338962 -0.10375
1.017796 -7.8482561 0.018968999
1.029412 -7.8664579 0.152905
1.039013 -7.8691511 0.29692999
1.0785151 -7.8871832 0.95784801
0.81700402 -5.2497678 2.8072259
1.340785 -8.3607416 5.2042298
1.069821 -6.622148 4.242476
1.418323 -8.7153063 5.7277761
1.2581069 -7.4064531 5.2566319
1.3061399 -7.4796238 5.198657
1.340407 -7.5724869 5.0970411
1.218955 -6.749898 4.215641
1.29357 -7.116056 4.303194
1.523972 -8.3835192 5.0696502
1.089694 -5.8785968 3.1590049
1.628512 -8.7290058 4.4761071
4.4592638 -23.450813 10.197648
4.4816389 -23.421001 9.5549116
4.5077772 -23.411039 8.9167976
4.5340672 -23.40172 8.2798843
4.5870519 -23.385691 7.0102549
4.6117482 -23.368431 6.3807921
4.6382871 -23.360788 5.762455
1.609543 -7.8681321 0.96632999
1.6293221 -7.9182191 0.79387999
1.642509 -7.9358482 0.62358499
1.659009 -7.9691048 0.46094
1.676682 -8.0076237 0.306052
1.681455 -7.9843531 0.15726
1.695546 -8.0053883 0.019614
1.80612 -8.1996202 -0.64606398
1.830886 -8.1328411 -0.72675502
1.8696049 -8.1292505 -0.58556998
1.8893681 -8.1290836 -0.43327099
1.903405 -8.14678 -0.337872
1.913422 -8.1471558 -0.230336
1.924327 -8.1512108 -0.110015
1.941524 -8.1817703 0.020155
1.9480799 -8.167325 0.161827
1.965129 -8.1968317 0.315323
1.975626 -8.1988201 0.47756201
1.987123 -8.2048445 0.64959401
1.997389 -8.2057781 0.82935703
2.0046761 -8.1945047 1.01507
2.0237551 -8.231225 1.21504
2.0399129 -8.2557945 1.421087
2.047195 -8.2443476 1.626322
2.063741 -8.2700663 1.844673
2.070786 -8.2576723 2.0597999
5.910501 -23.454891 6.4796381
6.0212111 -23.778254 7.2154179
2.492583 -9.7486343 3.495178
2.191371 -8.3687286 4.1435161
2.5093369 -9.4053726 5.5875192
1.457181 -5.3135052 3.7183199
1.416177 -5.0719099 3.6846299
2.3350279 -8.3626938 6.0753112
1.4878941 -5.2352009 3.7264011
1.519878 -5.301096 3.655108
1.55588 -5.4030948 3.647274
1.652563 -5.6893392 3.641233
1.653892 -5.669456 3.51373
1.816373 -6.1997781 3.7082529
2.0018339 -6.8036261 3.9132249
2.733753 -9.251708 5.0972939
2.3299789 -7.818665 3.9076569
2.5940011 -8.6316652 3.8503411
2.6008501 -8.6183176 3.6071291
2.9101441 -9.5236893 3.1937709
7.2767549 -23.715714 7.2972579
2.5361869 -8.1980572 2.076262
2.5566571 -8.2305336 1.86519
2.563251 -8.2181892 1.648134
2.5697911 -8.2057896 1.43691
2.57551 -8.1908588 1.230791
2.58882 -8.2000246 1.034662
2.5966871 -8.1919622 0.84391898
2.5997801 -8.1689425 0.65964401
2.6088059 -8.1646051 0.48536399
2.620904 -8.169898 0.32096699
2.6231229 -8.1444092 0.16491
2.632704 -8.1419096 0.020509999
2.6418891 -8.1381836 -0.112392
2.650527 -8.1327438 -0.23542599
2.667151 -8.1517715 -0.34638599
2.6732759 -8.1386671 -0.444729
2.6852469 -8.1433239 -0.53010303
2.6936879 -8.105895 -0.65726501
2.740335 -8.1205864 -0.74716502
2.779274 -8.1119967 -0.60195601
2.797879 -8.1051292 -0.44514301
2.8136389 -8.1203556 -0.34707201
2.831146 -8.1404676 -0.237215
2.8354609 -8.1225739 -0.113009
2.8450811 -8.1199703 0.020623
3.1896319 -9.0696955 0.185298
4.974915 -13.99093 1.1426001
3.2581329 -9.129405 0.951913
3.259542 -9.1001272 1.163084
3.265352 -9.0832319 1.383611
3.2560339 -9.0245476 1.603214
3.2864511 -9.0759935 1.848016
3.295563 -9.0683708 2.0881331
3.3050301 -9.0617933 2.333766
3.2902889 -8.9892349 2.5643229
3.2894111 -8.9547691 2.806247
3.3536451 -9.0971041 3.109483
3.371089 -9.1119699 3.3747561
3.3604701 -9.0511208 3.6109979
3.3543949 -9.0028229 3.849637
3.4268291 -9.1648521 4.179944
3.8711309 -9.930994 7.1933022
9.8957891 -23.595287 10.25231
10.045309 -23.874426 9.68748
3.803566 -8.8672981 2.0881331
3.804944 -8.8422613 1.842939
3.8090401 -8.8236876 1.606016
3.815309 -8.8102217 1.376232
3.8294101 -8.8148041 1.156394
3.7121291 -8.3331232 -0.25108099
3.7930989 -8.4884892 -0.37548
3.833154 -8.55159 -0.486516
3.9481249 -8.7808523 -0.59520102
3.9404249 -8.7098618 -0.73559701
4.00804 -8.7513256 -0.83913797
3.9187329 -8.4528894 -0.65405601
4.0312972 -8.6432629 -0.49512199
4.002357 -8.555398 -0.38145199
4.7414579 -9.9548311 0.62438601
11.409257 -23.463106 5.6463361
11.469677 -23.51823 6.3308458
11.486701 -23.484522 7.0033708
11.574365 -23.594517 7.7307239
4.3998199 -8.9167976 3.4538341
4.38234 -8.855526 3.6954229
4.4226341 -8.9109516 3.986141
4.396131 -8.8318672 4.2145152
4.254724 -8.523035 4.3180871
4.2503362 -8.4896059 4.5474138
3.9154949 -7.798234 4.398684
4.2588639 -8.4576731 5.0033932
4.244462 -8.4048071 5.1954098
4.2269058 -8.3460188 5.3699722
2.8720109 -5.6222382 3.992856
4.410687 -8.2532053 5.7514091
3.8889079 -7.2566419 4.8983598
3.922801 -7.2995791 4.756659
4.8435249 -8.9878702 5.633594
4.8491139 -8.9733553 5.389276
4.7751679 -8.7154741 3.9820499
13.174447 -23.913918 9.4837713
4.8878469 -8.4280872 -0.50580198
4.772943 -8.2080221 -0.58699399
4.9026651 -8.3863688 -0.74748898
4.8846459 -8.2673912 -0.83714002
4.9728942 -8.328434 -0.68094701
5.0259972 -8.3732405 -0.50699502
8.6387014 -14.094367 1.272028
8.6775961 -14.121113 1.627635
8.3829966 -13.362831 4.6402969
5.5651469 -8.7804337 4.1654191
5.3463168 -8.3921452 4.510479
4.7797732 -7.3890119 5.235826
5.576632 -8.5555468 6.624629
5.6707721 -8.4411945 6.7400708
4.8527799 -7.169642 5.3209958
8.1040106 -11.536236 3.411052
10.074203 -14.062048 0.97954702
6.5290399 -9.0249557 -0.146319
6.491693 -8.9296999 -0.44585499
6.0956841 -8.3645926 -0.53732401
6.0825191 -8.3262329 -0.63746899
6.1738801 -8.4103508 -0.80280399
6.1998882 -8.3642654 -0.90766197
6.3275428 -8.4543514 -0.74131101
6.3877878 -8.4937572 -0.55173701
6.7586269 -8.9221621 -0.147028
10.729744 -14.062721 0.66171002
10.798198 -14.118522 1.006515
6.814774 -8.6155844 4.4016051
6.250083 -7.8455529 4.80444
6.875814 -8.5091381 6.7237659
5.3149128 -6.5464001 5.4698219
7.2503581 -8.8882055 7.740953
5.6927581 -6.913167 6.266221
5.3265991 -6.3628011 5.3827491
6.3364081 -7.4806962 5.4094291
9.6280565 -11.340165 7.8601389
6.0906711 -7.1401839 4.4951448
6.5329428 -7.6228638 4.288764
7.3206758 -8.5220528 4.501658
12.524581 -14.276484 3.173629
12.483558 -14.0976 1.448946
12.520087 -14.105907 1.0680259
12.530428 -14.084717 0.70522398
12.567148 -14.093095 0.36392799
8.3581629 -9.3295107 -0.164536
8.4085913 -9.3639593 -0.346385
8.1076698 -8.986949 -0.62836403
7.7560372 -8.5771914 -0.714908
7.6544318 -8.4255753 -0.87591898
7.730701 -8.4307871 -0.99720401
7.771822 -8.3972931 -0.80321503
8.3962889 -9.0300035 -0.64013302
8.6729984 -9.2844448 -0.34968701
8.6279297 -9.1934528 0.03022
13.132202 -13.799726 2.2921219
12.401745 -12.852449 4.7844939
11.156107 -11.50802 5.1403289
7.2086949 -7.4016938 3.8642731
9.9297409 -10.031427 7.7882829
5.5727119 -5.6167488 4.5416021
5.9346609 -5.9263368 5.4404349
5.897532 -5.7542968 5.6415758
6.0722098 -5.8700309 5.3414459
12.566901 -11.624134 2.8606341
9.3121405 -8.3178406 -0.96077198
9.7494183 -8.6274776 -1.1349469
9.4760208 -8.3075333 -0.88465703
10.835421 -9.4549608 -0.74657202
10.571028 -9.2027006 -0.56602502
12.41827 -10.461488 3.928647
10.735611 -8.8125868 7.3387771
10.503826 -8.0276623 5.2972498
11.858265 -8.5509996 -1.124954
11.871659 -8.4772549 -1.271734
11.440033 -7.6402431 5.5122342
16.064472 -9.2815456 -0.96318102
16.035627 -8.9941416 -1.290676
16.106575 -8.9849043 -0.95747799
16.151728 -8.9855719 -0.74644101
16.168304 -8.9702797 -0.50890303
16.163309 -8.9429998 -0.24264701
7.4263172 -2.8964679 4.5754528
7.161871 -2.7837491 4.5716329
7.1403871 -2.765872 4.7062702
6.8070321 -2.6004851 4.9176698
6.9581628 -2.621274 5.2027411
6.8384581 -2.5400071 4.99471
6.9008012 -2.5449531 4.8749499
7.1698742 -2.6347439 4.9550028
7.1351209 -2.603193 4.668046
7.2126031 -2.6219881 4.5660081
7.4416709 -2.6954949 4.5430951
10.41149 -3.7575419 6.1075292
10.747902 -3.8648729 6.034905
9.8690691 -3.535913 5.284543
10.106021 -3.6075909 5.1396532
13.826704 -4.0140462 3.4834819
13.453229 -3.8382061 4.8595181
11.377896 -3.217603 4.737844
7.8799419 -2.218545 3.4971671
7.8596401 -2.2030051 3.700038
10.044094 -2.79019 5.2548342
11.110107 -3.0863221 5.8125472
10.083007 -2.7884209 5.5275578
9.71451 -2.674386 5.5596781
7.3857598 -2.0240829 4.395741
9.816453 -2.6902189 5.842402
7.2562609 -1.979546 4.4749951
7.263113 -1.9723769 4.6256328
7.1723452 -1.938808 4.6989551
7.2491021 -1.9505351 4.8695621
7.0681782 -1.8843 4.9366889
7.0309172 -1.839487 5.0852141
6.995553 -1.795626 4.9449949
7.358634 -1.870646 5.032403
7.3085752 -1.848909 4.8902421
8.3162327 -2.0833189 5.2691579
9.9598284 -2.4828 6.1071
9.0086308 -2.234602 5.3276582
10.020439 -2.4855821 5.9260359
10.651097 -2.6289041 6.0534201
9.804944 -2.4080081 5.3346171
11.154402 -2.7257061 5.78824
7.640058 -1.857558 3.765969
7.6920328 -1.860759 3.587327
7.8213329 -1.882436 3.4366679
7.9016361 -1.892081 3.25564
12.869789 -3.0659649 4.948133
12.690088 -3.007601 4.5300808
13.463291 -3.125006 3.3440299
12.431436 -2.239445 3.0561891
11.348926 -2.016258 3.3906929
11.913974 -2.102376 3.8799829
11.755325 -2.0603271 4.1455202
8.3646269 -1.436058 3.6256299
7.9342141 -1.352693 3.6484301
7.9328399 -1.342981 3.8536601
7.7625499 -1.304894 3.9679091
7.8471832 -1.3097661 4.203598
7.4034352 -1.226866 4.1407709
5.6737962 -0.933478 3.300539
5.7522001 -0.93951797 3.4677119
5.5874109 -0.90595198 3.4789121
5.887651 -0.94762802 3.771565
5.708817 -0.91204399 3.750129
5.3960252 -0.84924299 3.686434
6.1605721 -0.94028699 4.3605561
4.981566 -0.73669797 3.447881
5.927599 -0.87660199 4.1026559
5.7434239 -0.83574897 3.846813
5.6023521 -0.80858701 3.6717629
5.7785921 -0.82718498 3.691921
5.35536 -0.76025498 3.324445
5.7221522 -0.80555701 3.438056
5.883822 -0.82135999 3.410059
5.8958311 -0.81605703 3.28421
7.4031792 -1.024693 4.1238618
5.9486289 -0.81633598 3.1725531
7.5173569 -1.022722 3.824317
7.9502878 -1.072232 3.8424289
8.32619 -1.1131001 3.8077941
8.4481077 -1.119415 3.640558
8.4966698 -1.105803 3.204638
8.330699 -1.074366 2.9176791
8.1920528 -1.0468301 2.6486499
8.4630184 -1.0714819 2.509367
10.927398 -0.76898903 3.5132091
12.153691 -0.855286 3.9074681
11.011716 -0.76209003 3.83413
12.649961 -0.86072999 4.7421498
11.612516 -0.77659398 4.6634541
8.3889084 -0.55124199 3.5914519
10.462255 -0.65092099 5.2840929
5.7569818 -0.34476599 3.1822729
5.76789 -0.338707 3.316469
5.5588241 -0.31995299 3.3127849
5.738163 -0.32359999 3.53232
5.4007711 -0.29829001 3.4209199
5.64042 -0.304957 3.664144
5.8690438 -0.30366701 3.9661331
5.6864891 -0.26776201 3.9833219
6.678432 -0.31446999 4.6781669
6.6346431 -0.28156099 4.5467062
5.1837602 -0.207937 3.4385409
5.8215089 -0.219997 3.684438
5.6608448 -0.207342 3.48153
5.7199788 -0.202867 3.4053321
7.3034139 -0.250545 4.194622
9.9437723 -0.30646199 5.014914
10.762677 -0.29420799 4.5995102
11.280452 -0.26907501 3.9194419
11.03633 -0.25044599 3.5403891
5.7710962 -0.124267 1.698028
11.516461 -0.23460101 3.085727
5.638289 0.15994 1.07989
5.8528929 0.17283 1.267221
5.4986811 0.168753 1.331027
5.5416951 0.17645501 1.485289
5.6897101 0.18777899 1.674605
5.6082029 0.191615 1.799665
5.2847171 0.192846 1.977852
5.3346109 0.200876 2.1390591
5.2745419 0.20474499 2.2549701
9.9998293 0.39979401 4.536489
5.6446319 0.232245 2.705899
9.5979033 0.406059 4.842514
10.161865 0.44173601 5.3743262
6.3513799 0.290878 3.6495099
7.4161458 0.34828001 4.4172168
5.4885449 0.27052599 3.475441
5.6021008 0.28265101 3.638566
5.4151201 0.28582099 3.6595831
5.2269802 0.30024901 3.6634181
5.223711 0.32440999 3.5834689
5.4242411 0.34951401 3.602623
5.4364629 0.356639 3.5340791
5.9240351 0.395531 3.7549951
7.6083021 0.51686698 4.6868958
6.280098 0.43395999 3.7453539
6.397768 0.44955301 3.681371
8.3737659 0.58840102 4.8183889
8.3691397 0.59785199 4.629683
5.5133028 0.40027699 2.920748
5.5115671 0.40659201 2.7858629
5.4483428 0.40828699 2.6169119
5.1892772 0.39493099 2.3590729
5.4682031 0.42255101 2.342968
5.285027 0.41456801 2.124182
5.3350458 0.424723 2.001673
5.175797 0.4181 1.8036979
5.4997211 0.450692 1.7697361
5.1206431 0.425612 1.51149
5.3314438 0.44937301 1.433278
5.980999 0.511114 1.452372
5.6222992 0.48703501 1.221321
5.444788 0.478035 1.046419
10.872698 0.96730697 1.824075
10.777694 0.97146499 1.551188
10.711854 0.97808301 1.2942539
10.664672 0.99874502 0.82420999
10.707739 1.015334 0.609065
11.150172 1.135727 -0.45263401
11.149882 1.148775 -0.58191103
11.177025 1.164703 -0.69472998
10.773123 1.249229 -0.761338
10.331928 1.222399 -0.540124
9.7615461 1.166406 -0.397028
9.8686485 1.190824 -0.273586
11.465527 1.410545 0.027689001
11.490557 1.427184 0.22316299
10.33876 1.296313 0.38978899
9.8070793 1.2527961 0.76076198
9.8911629 1.275207 0.97937602
10.357372 1.347536 1.256743
8.0783949 1.060582 1.167932
8.3385248 1.10458 1.405594
5.0914378 0.68046302 0.98342699
6.0392752 0.81428498 1.318832
5.1737089 0.703695 1.2632999
5.0949521 0.69895399 1.3776439
5.057497 0.69979799 1.501895
5.0247741 0.70122302 1.6271189
5.1148558 0.71984798 1.794183
5.0187712 0.71226698 1.895879
5.2321768 0.74875802 2.1178589
4.9631882 0.71614403 2.142221
5.1068101 0.74291998 2.339256
5.5146542 0.80879802 2.6696129
5.1764879 0.76533997 2.6377699
6.2047181 0.91736299 3.1617229
6.1477962 0.91623998 3.2842071
5.8582869 0.88005501 3.26875
5.5592208 0.84172702 3.22736
6.1822538 0.94341302 3.7208109
6.0004792 0.92280298 3.7312951
5.325984 0.82540298 3.4086261
5.4351249 0.84878701 3.5683639
5.5489688 0.87976599 3.7916009
5.5213242 0.90170002 3.914525
5.3664279 0.90201199 3.725836
5.3828392 0.91763401 3.6191969
5.3414888 0.91696602 3.5155759
5.537322 0.95720297 3.5540161
5.558908 0.96758902 3.467916
6.0253439 1.055985 3.6395121
5.9085708 1.04259 3.4439111
6.1076918 1.085047 3.422864
5.3936009 0.96464598 2.8950541
5.3916278 0.97076201 2.7615559
5.0272698 0.91118503 2.447145
5.4262042 0.98999798 2.5002711
5.0379291 0.92521 2.188185
5.3380008 0.98672402 2.175138
5.7367849 1.067327 2.1824329
4.992527 0.93486297 1.764323
4.9922562 0.94081098 1.629257
5.08884 0.96513098 1.523625
5.0220742 0.95851701 1.3696229
5.0741749 0.97456598 1.250131
5.0965199 0.98499298 1.123387
5.2312078 1.017333 1.020282
6.833838 1.337237 1.163637
6.969594 1.372202 1.0182329
7.1592441 1.418187 0.87816697
6.0503349 1.205822 0.60584301
7.0663691 1.408316 0.707582
5.50875 1.104534 0.43232101
5.6284361 1.135339 0.32514
6.1169629 1.241272 0.233492
5.8384891 1.191831 0.114848
5.7284579 1.176298 0.014017
5.6139979 1.159587 -0.075300001
5.7724948 1.199322 -0.16226999
5.852695 1.223073 -0.241469
6.5195708 1.370334 -0.34586
6.0348468 1.275777 -0.38133299
7.2589631 1.55217 -0.57118499
5.9882269 1.309574 -0.53438401
7.3244591 1.601797 -0.65362799
6.0630412 1.355472 -0.436131
5.7325072 1.295567 -0.30510899
5.5001998 1.249776 -0.22779
5.5566921 1.269397 -0.15687799
5.7673378 1.324573 -0.07773
5.1446338 1.1878459 0.012656
6.0858679 1.4051681 0.014971
5.1715269 1.200389 0.102322
5.6161032 1.3104531 0.215735
4.9485459 1.160745 0.287826
5.1811838 1.221668 0.40961099
7.1544232 1.695706 0.72204697
8.1964054 1.9426709 0.82720703
5.8682489 1.398059 0.72585201
6.2717571 1.501897 0.92444098
5.8581429 1.41004 1.006892
5.1950598 1.256819 1.023291
5.2195568 1.269169 1.162518
6.1711578 1.5005569 1.374462
4.9502811 1.20978 1.232964
4.9163861 1.2074929 1.356167
4.9354849 1.21826 1.495404
4.8826241 1.211234 1.613377
4.9431181 1.2323329 1.769573
4.9089141 1.2298599 1.8927259
4.9986029 1.258507 2.065414
5.160955 1.3057539 2.274219
5.1550441 1.3106281 2.411094
5.2743702 1.347494 2.607408
5.239665 1.345108 2.726896
5.2806849 1.362174 2.881506
5.3692312 1.391672 3.060528
5.0558562 1.316712 2.9988611
5.3384352 1.396933 3.283129
5.2708211 1.385779 3.3495779
5.2140951 1.377337 3.4107649
5.5472231 1.472235 3.722919
5.8881092 1.577347 4.1138148
5.6666832 1.5462821 4.1100221
5.7955871 1.610415 4.118475
5.317142 1.490784 3.66008
6.0980601 1.709733 4.197628
5.4113121 1.523964 3.6467299
6.205122 1.747521 4.181685
5.9684019 1.688334 3.9228339
6.5520229 1.861656 4.1863179
5.342679 1.524744 3.3056259
4.9613862 1.422157 2.9625199
5.065115 1.458263 2.9083469
5.0894279 1.471662 2.799284
5.2197881 1.515934 2.7399499
4.7402911 1.382646 2.3650701
4.6928482 1.3747211 2.2166369
4.696908 1.38184 2.091543
4.9148512 1.45216 2.0535121
4.934166 1.464096 1.924955
4.8587179 1.447855 1.761042
4.6853418 1.402114 1.5684839
4.6930408 1.410355 1.441503
4.7356329 1.429158 1.325116
4.7132168 1.428365 1.1915751
4.9977579 1.520932 1.130579
4.7433758 1.449544 0.94958103
4.6467428 1.425913 0.81223798
4.556838 1.404114 0.683505
5.0591722 1.565341 0.63721102
5.158783 1.602724 0.53049099
4.523026 1.410967 0.36457601
4.647542 1.45574 0.27578399
4.845459 1.523911 0.190016
4.679327 1.477641 0.094576001
5.403873 1.713339 0.013588
4.3647828 1.389465 -0.060169
4.3266592 1.38287 -0.125018
4.9073248 1.5747401 -0.208138
5.0483222 1.626451 -0.27535
5.435801 1.7582639 -0.353196
4.4790378 1.460284 -0.36250499
4.4278121 1.4663759 -0.40662801
4.096848 1.3779171 -0.30342901
4.8690262 1.650228 -0.26689899
4.2652369 1.451112 -0.18195
4.3808198 1.496111 -0.12741099
4.456974 1.527905 -0.061889999
5.0796518 1.7479579 0.012876
4.572989 1.579558 0.093245998
4.0117488 1.390914 0.158839
4.148901 1.443863 0.248759
4.7798071 1.669656 0.38958699
4.6638632 1.635231 0.48533899
4.2322092 1.489405 0.53985
4.9729681 1.756592 0.75601298
4.8833351 1.7313091 0.86580497
4.9949002 1.777392 1.015017
4.8828869 1.74393 1.122118
4.6570902 1.669384 1.1969841
4.712544 1.695893 1.341677
4.4691148 1.614152 1.397761
4.6497979 1.685524 1.586197
4.6800208 1.702628 1.72987
4.478291 1.635125 1.783079
4.6655669 1.7096519 1.991025
4.6097512 1.695271 2.098222
4.565362 1.684965 2.2059031
4.6303949 1.715085 2.3650701
4.9006729 1.821666 2.63552
5.163445 1.926168 2.9118719
4.781311 1.78995 2.817039
4.6812811 1.758701 2.870424
4.8731089 1.837234 3.0985451
5.135572 1.9429981 3.374712
4.8766541 1.851512 3.2990501
4.9664969 1.89223 3.4475501
4.935914 1.893712 3.567842
4.9023271 1.907001 3.6806171
4.9509878 1.952453 3.643918
4.962769 1.970433 3.5390899
5.0683031 2.0191481 3.5389769
4.9158649 1.9650331 3.3482261
4.8771849 1.956149 3.22967
4.7237611 1.9009809 3.0295179
5.063231 2.044426 3.134268
4.947659 2.004452 2.9455471
4.7457781 1.9290791 2.706784
4.4103699 1.798718 2.401001
4.7227731 1.932524 2.4441209
4.477325 1.838159 2.1939299
4.5550189 1.876246 2.104507
4.6694551 1.9297251 2.0244999
4.5328388 1.8794301 1.835276
4.5117888 1.87685 1.697386
4.4834619 1.871174 1.5581011
4.590044 1.9219151 1.463797
4.3672819 1.83461 1.268965
4.4272599 1.865854 1.162415
4.8467512 2.0492761 1.138828
4.8454962 2.055388 1.007684
4.7166018 2.007175 0.85657501
4.4927559 1.918079 0.700248
4.3405719 1.859075 0.56816202
4.2500319 1.826138 0.45425999
4.233788 1.824982 0.354756
4.0421939 1.747969 0.24938101
3.862289 1.6754971 0.157493
3.696388 1.6086349 0.077696003
3.785007 1.652429 0.0098989997
4.7967858 2.0941441 0.012545
3.8899341 1.703616 -0.055782001
3.81177 1.674666 -0.11459
3.744159 1.6501499 -0.165244
4.9501529 2.181663 -0.21846899
4.5531549 2.01301 -0.25844899
4.2234468 1.873113 -0.28562999
3.971581 1.772455 -0.33465499
4.2269039 1.91 -0.40437001
3.6058371 1.64957 -0.278359
3.5470381 1.632646 -0.20271499
3.8491089 1.777102 -0.171216
3.727174 1.7260571 -0.11305
4.149755 1.927615 -0.060104001
4.2892652 1.998475 0.011342
3.9102559 1.82742 0.083186999
3.8898389 1.823382 0.160708
4.1968341 1.973233 0.262611
4.1176319 1.941841 0.350306
4.118577 1.9481339 0.44741899
3.7943361 1.800157 0.50532502
4.3181448 2.054821 0.68549103
4.3812451 2.0910881 0.81124902
4.25492 2.0368631 0.90313601
4.3216858 2.075002 1.03751
4.2646818 2.0537269 1.1452481
4.4186001 2.134114 1.314507
4.5275979 2.193249 1.479883
4.7209659 2.2937059 1.683311
4.4335651 2.1604409 1.713136
4.6240959 2.2599361 1.924955
4.4817662 2.1968379 1.999952
4.2897348 2.1088951 2.0420439
4.2560272 2.0984671 2.1509931
4.2693701 2.1112239 2.281266
4.2255001 2.095643 2.377594
4.38413 2.180666 2.587189
4.4854331 2.2375669 2.7658291
4.3016191 2.1521161 2.7609029
4.423635 2.2196 2.9446411
4.393424 2.210834 3.022841
4.274333 2.1571331 3.028049
5.1186361 2.5832281 3.6261761
4.2965951 2.174643 3.1237471
5.0017061 2.546138 3.7876849
5.0939951 2.6230171 4.00912
7.3368678 3.777925 5.7743258
5.0605369 2.6356239 3.9066191
4.9922009 2.6148069 3.7352149
7.556602 3.9579849 5.6539249
4.971066 2.6111009 3.6423759
4.321321 2.276226 3.088984
4.0814562 2.1559479 2.836957
4.1760931 2.212147 2.8117001
4.336659 2.303658 2.81865
4.2779679 2.2788661 2.67452
4.3399758 2.3183751 2.599802
4.5677581 2.4468889 2.612113
4.5374308 2.4374321 2.467016
4.3909602 2.3653269 2.260813
4.5689912 2.468092 2.2184341
4.3242302 2.34237 1.9705679
4.2395272 2.3028629 1.804448
4.4721298 2.4359519 1.768917
4.2712259 2.3329589 1.56085
4.2668028 2.336983 1.431062
4.2163148 2.315711 1.288631
4.1870718 2.3059859 1.156536
4.1332798 2.2826231 1.021857
3.475518 1.924651 0.76060498
4.6363149 2.5674701 1.014641
3.652694 2.0283151 0.69818199
3.7776649 2.103456 0.61979401
3.9095881 2.1828749 0.53877503
4.351449 2.4362199 0.489737
3.694159 2.0738671 0.325986
3.8098381 2.1446409 0.247572
4.0544438 2.288543 0.17416599
3.760632 2.128473 0.083283998
3.846683 2.1830809 0.010601
4.0306702 2.2936931 -0.060918
3.9669139 2.263526 -0.125706
3.874959 2.2170279 -0.18029501
3.76811 2.1617091 -0.225527
3.7790511 2.1738341 -0.26952499
3.711359 2.1463881 -0.32989901
3.599345 2.1040039 -0.363464
3.6647201 2.165139 -0.298807
4.1634679 2.4728799 -0.251398
3.9636331 2.3604231 -0.186308
3.623601 2.1636341 -0.116159
4.079411 2.4422381 -0.062454998
3.5907681 2.155371 0.010038
3.770067 2.268966 0.084806003
3.686779 2.224679 0.161082
3.7423761 2.264163 0.247685
3.5897701 2.1775441 0.323071
3.7447259 2.2774961 0.43041301
4.2883768 2.6149671 0.60435897
3.6788521 2.249167 0.61809099
3.6865671 2.2597721 0.72257501
3.6424561 2.238559 0.81852001
3.8725629 2.386188 0.98441797
3.975678 2.4561019 1.130668
4.0632319 2.516655 1.28035
4.1630192 2.585151 1.441503
4.080606 2.5405509 1.54161
4.1028371 2.5610051 1.6799949
4.5002332 2.8163249 1.985559
4.4504361 2.7923651 2.105212
4.094378 2.5755889 2.066401
4.0814791 2.5740919 2.187324
4.0202899 2.542038 2.2782431
4.2332621 2.683583 2.526588
4.1272912 2.623127 2.583919
4.2051749 2.679493 2.7513349
4.1279898 2.637054 2.811681
4.0599179 2.6002171 2.8684549
4.6612339 2.9929719 3.4045579
4.0129972 2.583323 3.0184281
6.5035748 4.2617841 5.4406629
6.7757988 4.4852939 5.5636129
5.9653668 3.9787791 4.6513348
3.9336691 2.63028 2.9927709
4.6481791 3.108043 3.536376
3.9777901 2.666477 2.9432509
6.5801139 4.4220018 4.716845
3.912852 2.636133 2.7081349
4.2467561 2.8682699 2.827667
4.1021199 2.7775209 2.6175549
4.3273239 2.9373469 2.63642
4.0323319 2.7439511 2.336127
3.989949 2.7218909 2.189389
3.997246 2.7336831 2.068758
4.2245831 2.896359 2.0523961
4.589694 3.154516 2.0829451
5.1238122 3.5303929 2.1613531
4.0749412 2.8146839 1.588335
4.09899 2.8383291 1.46662
3.7818129 2.62521 1.233256
3.932332 2.736464 1.1591229
4.7566562 3.3183031 1.255164
3.8754361 2.7102549 0.90539199
3.916153 2.7455051 0.79921699
3.794261 2.6666241 0.66477501
3.6896679 2.5995269 0.54307503
3.501992 2.4733889 0.421031
3.528372 2.4981639 0.332661
3.499294 2.4836869 0.242993
4.4396582 3.1511271 0.308292
3.4816489 2.477246 0.159848
3.7589331 2.681124 0.088987999
3.553143 2.5405681 0.01047
3.531204 2.53108 -0.057069998
3.3940949 2.438781 -0.115031
3.2349279 2.330112 -0.161007
3.224838 2.3285339 -0.20649999
3.2389159 2.3444309 -0.247188
3.474402 2.5271959 -0.330589
3.462146 2.5429599 -0.37449399
3.603909 2.6729431 -0.31498301
3.5240231 2.626405 -0.22817101
3.1554289 2.357399 -0.15907
3.24928 2.4333961 -0.111729
3.4745009 2.6083729 -0.057069998
3.264014 2.456286 0.0097909998
3.404233 2.5680089 0.082185
3.4521101 2.6104181 0.16190401
3.582027 2.715199 0.25452599
3.7105839 2.819443 0.358592
3.375865 2.5712969 0.416731
3.547909 2.7088511 0.53710198
3.6780529 2.81499 0.66392303
3.7382641 2.867959 0.78735
3.8250589 2.941607 0.92382002
3.739531 2.882756 1.021857
3.9608109 3.060674 1.211094
3.6232519 2.8070481 1.2278219
3.6733489 2.852689 1.36813
4.0177131 3.1276121 1.6329221
4.0632491 3.1706409 1.7902451
4.1137128 3.2177081 1.95333
3.813879 2.9903319 1.941928
3.934674 3.0924251 2.1379001
4.2382789 3.3390059 2.4457741
4.1929698 3.3112171 2.559027
4.0860658 3.2345021 2.626967
7.591311 6.081264 5.9781361
4.1434741 3.3350949 3.4502709
4.0346069 3.2629311 3.501833
3.9330771 3.211159 3.5527699
3.9527831 3.257961 3.507201
4.0143051 3.3243589 3.4545629
4.0655451 3.3747561 3.4274139
4.1358461 3.4412279 3.4027469
4.0406618 3.4099629 2.6652279
4.099071 3.4674101 2.5715539
4.0702 3.4511011 2.4189379
3.853863 3.2830889 2.0285921
4.0130148 3.4267161 1.973648
3.9758151 3.40295 1.817808
3.7652941 3.2303419 1.591083
3.763509 3.236402 1.460129
4.0474911 3.488802 1.4314671
4.6752481 4.0299072 1.653484
3.4883299 3.0138879 1.115382
3.36831 2.917027 0.96432298
3.109942 2.6996069 0.78843403
3.080533 2.6803551 0.68235898
2.963191 2.584305 0.563604
3.6599741 3.191994 0.69613302
2.9174509 2.55039 0.466261
3.10709 2.722538 0.405687
3.347142 2.939755 0.34278801
6.6276112 5.8209519 0.678747
3.0200131 2.6586659 0.227841
3.109561 2.7439129 0.155138
3.9652531 3.4989851 0.19782899
3.3985419 3.0059459 0.087445997
3.0911231 2.7404411 0.0099020004
3.1362669 2.786972 -0.055112001
3.184361 2.83634 -0.117369
3.4398079 3.0710371 -0.18622699
3.325022 2.9754989 -0.231645
3.480926 3.122309 -0.289085
3.4641171 3.121774 -0.35882199
3.414274 3.1057229 -0.40237299
3.3955121 3.117599 -0.32359701
3.34285 3.0835891 -0.236103
3.2676771 3.0212741 -0.17973
3.16588 2.9339759 -0.1188
3.0329881 2.817379 -0.054377001
3.0738809 2.8620191 0.010067
3.1445479 2.9346459 0.082897998
3.339488 3.1238329 0.17106301
2.9672301 2.7820799 0.23032901
2.9381959 2.761282 0.310258
3.319314 3.1267149 0.44780999
2.920831 2.75776 0.48334399
2.938412 2.7808261 0.57992202
3.2817121 3.1129439 0.75586897
3.0941491 2.9418571 0.81739199
3.5206981 3.355212 1.052528
3.7854691 3.615931 1.266593
3.7125571 3.554462 1.376868
4.5608349 4.3767748 1.859449
9.2746429 8.9003496 3.781265
4.7284708 4.5482149 2.1041391
4.1095281 3.96206 1.982854
3.7926631 3.6650691 1.972597
3.5444801 3.433212 1.977263
3.545099 3.4417961 2.1107931
8.1623697 7.924521 4.8599701
8.1266537 7.9081912 5.1400881
6.9368219 6.7817888 4.8902278
4.119957 4.0372429 3.0478189
3.9846139 3.9137061 3.081785
3.9665501 3.905019 3.1950021
3.898458 3.8469169 3.2585859
3.915391 3.872606 3.38466
5.284656 5.3746371 5.1608052
4.2566328 4.3492742 4.033546
5.603754 5.752367 5.0789981
5.5161982 5.6756721 4.8644018
3.8724661 3.9936841 3.3097169
3.8882411 4.019278 3.2099359
3.8537431 3.9928939 3.0619781
3.915781 4.066608 2.982882
4.004395 4.1683211 2.9137011
4.797102 5.016737 3.146395
7.6170759 7.9658232 4.9960008
8.7306499 9.1516542 5.4032841
3.4058909 3.5784349 1.979495
7.3640771 7.7551498 3.9998429
3.858855 4.0922379 1.654568
3.2054491 3.4072399 1.25318
3.3850579 3.606535 1.196749
3.1759181 3.3915911 1.0055701
3.0923049 3.310003 0.867221
2.97579 3.1927061 0.72933298
2.8729291 3.08953 0.60475302
3.136528 3.380873 0.55490202
2.9643281 3.2027061 0.42855701
2.8876171 3.1271009 0.32752001
3.0955579 3.3601141 0.25871
2.9510829 3.210762 0.163138
2.8927779 3.1546781 0.082493998
2.8835671 3.1519711 0.010239
2.9450519 3.226691 -0.057385001
4.094357 4.4859061 -0.079778999
3.0387011 3.3370781 -0.12422
3.093971 3.4057069 -0.18582299
3.773906 4.1541491 -0.22666
3.2728059 3.6109729 -0.253005
3.0565741 3.380286 -0.28174201
3.6429861 4.0288029 -0.335796
2.9588261 3.2874939 -0.34033301
3.13201 3.5125999 -0.410276
2.8945999 3.276854 -0.30693001
3.0009739 3.4132221 -0.235948
3.0644901 3.493634 -0.18768001
3.7253549 4.247045 -0.22815301
2.690485 3.074445 -0.112444
2.758719 3.1598201 -0.055098999
2.872189 3.2975061 0.010482
4.2054949 4.828249 0.015347
2.9858749 3.4360819 0.087734997
4.2646928 4.9077191 0.125311
2.826525 3.2603409 0.16141801
2.9553919 3.4169919 0.25582701
2.943526 3.411278 0.34670001
2.8666129 3.3299501 0.43148801
3.010519 3.505336 0.55597699
2.8448451 3.320231 0.62674701
2.9345989 3.4330411 0.75471598
3.041249 3.5661781 0.89730698
3.5333991 4.1530418 1.180075
4.103404 4.8230071 1.370443
3.283217 3.8680739 1.227555
3.171973 3.7464681 1.315024
3.195545 3.783205 1.456742
4.1346459 4.8950071 1.884847
3.1551671 3.744221 1.570317
4.0418291 4.7964191 2.011606
3.982192 4.7367949 2.1495409
3.8804121 4.6266198 2.25845
3.8117731 4.5555248 2.38008
3.7279811 4.4659061 2.4851811
3.725028 4.4729128 2.6385789
3.694387 4.446619 2.7689681
3.673239 4.4316201 2.901547
3.5806921 4.3301849 2.9688671
3.5469649 4.2995658 3.075505
3.5382521 4.29916 3.195997
3.48804 4.2482028 3.2703459
3.451865 4.214108 3.348007
3.4290969 4.196239 3.427335
3.3815811 4.1479239 3.4714949
3.3315411 4.105969 3.5684011
3.2742381 4.0738859 3.6571109
3.275692 4.114687 3.600982
3.276638 4.1355548 3.497103
3.3237851 4.2050781 3.4769371
3.3507769 4.2493572 3.422524
3.3690569 4.2827678 3.3490551
3.3924091 4.3227682 3.2693231
3.418469 4.3664021 3.183054
3.4292591 4.3906879 3.074055
3.4219661 4.391849 2.941771
3.488112 4.4874911 2.865087
3.529309 4.5513849 2.7586
3.5053389 4.5313249 2.59688
3.552453 4.6032748 2.4840021
3.596339 4.6713419 2.362227
3.6347389 4.7325749 2.231827
3.680346 4.803503 2.101963
3.7644429 4.925096 1.98809
3.1080129 4.0760741 1.507821
3.139786 4.1276851 1.389289
3.8257561 5.0294862 1.692816
3.202692 4.22054 1.281878
2.832762 3.742054 1.015723
3.9258699 5.1860418 1.407671
2.8623929 3.790343 0.90934098
2.6445751 3.5103779 0.73444301
2.9919829 3.9811289 0.71386999
2.757457 3.6779621 0.55311
2.59466 3.469202 0.42542899
2.7605779 3.699991 0.355216
2.667604 3.5840621 0.25299999
2.5848269 3.481276 0.162203
2.965344 4.0034742 0.096020997
2.679553 3.626425 0.010808
2.6246901 3.5608151 -0.058107
2.6399169 3.590203 -0.122652
3.3463819 4.5509729 -0.15547401
2.6493731 3.61184 -0.18089999
3.2746329 4.4642429 -0.223593
2.6591079 3.6339481 -0.23377
2.4650829 3.3770211 -0.25848001
2.679688 3.688971 -0.35084301
2.410152 3.350544 -0.359817
2.449255 3.4384799 -0.29635599
2.533489 3.5742791 -0.22744501
3.1739359 4.477829 -0.284942
2.598752 3.6753869 -0.181788
2.6394041 3.7420881 -0.126036
3.1729319 4.4985108 -0.151513
2.552393 3.62767 -0.058265001
2.5093291 3.575274 0.01047
2.3533299 3.36131 0.079083003
2.4231761 3.4696369 0.158315
2.586468 3.712621 0.25622201
2.583786 3.717977 0.34838799
2.482856 3.5816071 0.42796999
2.3988099 3.46896 0.50747502
2.5944829 3.7612641 0.654984
2.5718601 3.737741 0.75817698
2.4505291 3.5702751 0.82905
2.868443 4.1895809 1.098851
3.3079579 4.8315258 1.267221
2.8712759 4.2041779 1.231788
4.220305 6.1794519 1.810527
2.4598451 3.610666 1.170377
4.1860342 6.1444378 1.991685
2.454005 3.611094 1.284315
4.1363811 6.0867281 2.1647949
4.3513532 6.4190969 2.487098
4.1931491 6.2167392 2.804584
4.0786238 6.077352 3.126708
4.1349392 6.1923041 3.566396
5.5858741 8.3651609 4.817831
5.4982228 8.2546291 4.9996099
5.322042 8.0102596 5.0814109
4.504261 6.8309422 4.8681931
4.4803329 6.8118458 5.0110149
4.3824992 6.679975 5.0528059
4.3536358 6.6528282 5.1574478
4.1496139 6.3733029 5.1324792
3.9810209 6.1769381 5.1419711
4.0472002 6.3441362 5.1523309
4.0020862 6.3056769 4.9500852
4.139183 6.5384488 5.019763
4.2900538 6.8117342 4.9476571
4.8507509 7.721868 5.4255219
3.9288609 6.2704659 4.2473912
4.683136 7.4742899 5.0628181
4.5957131 7.3727741 4.590415
