# .PCD v0.7 - Point Cloud Data file format
VERSION 0.7
FIELDS x y z
SIZE 4 4 4
TYPE F F F
COUNT 1 1 1
WIDTH 1552
HEIGHT 1
VIEWPOINT 0 0 0 1 0 0 0
POINTS 1552
DATA ascii
0.78562701 6.3474059 1.224489
0.75588602 6.1657038 1.038043
0.80131698 6.599577 0.95296198
0.79555702 6.6162758 0.80182999
0.70493698 5.9204998 0.58551502
0.68652701 5.823338 0.45119399
0.67142999 5.7526708 0.32796699
0.66135001 5.7238898 0.21554799
0.63005197 5.509059 0.10687
0.74424303 6.5749931 0.015860001
0.720869 6.4351912 -0.085059002
0.693371 6.2553058 -0.17321999
0.71055102 6.4788399 -0.263219
0.70417899 6.490119 -0.33891201
0.74205703 6.9140172 -0.42989501
0.734438 6.99576 -0.541264
0.70985299 7.0775118 -0.62010401
0.61669302 6.4496388 -0.45482799
0.60778499 6.515902 -0.339742
0.58708203 6.3738022 -0.25849801
0.587102 6.455904 -0.17842001
0.59855598 6.6676102 -0.087935999
0.60914999 6.8750472 0.016542999
0.47531199 5.4362469 0.105174
0.49290699 5.7137671 0.21453901
0.49423 5.8076711 0.33005899
0.51134998 6.092505 0.470451
0.52979302 6.401216 0.63076502
0.54212397 6.6438379 0.80206901
0.49846101 6.1974339 0.89123797
0.51772702 6.5316601 1.094906
0.47902399 6.1335869 1.177856
0.75598902 9.8267984 2.1329761
0.74238598 9.7983894 2.377507
0.60298902 8.0924387 2.1738529
0.71235597 9.7123146 2.8646629
0.70332998 9.744503 3.1333041
0.70610601 9.9436903 3.4626939
0.50060397 7.1674562 2.6872301
0.69202203 10.076603 4.0471411
0.52726001 8.5484571 4.7258229
0.35840499 9.626297 5.731286
0.29278401 8.6767006 4.5871449
0.215056 6.6008468 3.3291719
0.28272399 9.7179184 4.1532302
0.220567 8.2394247 3.0827301
0.183413 7.1627059 2.488821
0.17364401 7.1033978 2.2788219
0.24526 11.08726 2.9708371
0.213165 10.170255 2.461225
0.160594 9.1901464 1.535967
0.170182 10.431966 1.4955651
0.133637 8.8203602 1.061422
0.097006001 6.9339638 0.68099898
0.086538002 6.7455029 0.51909202
0.079922996 6.8505578 0.387952
0.065555997 7.0163908 0.135235
0.054019 6.6017599 0.015823999
0.033693999 7.1710749 -0.28961
0.025222 7.129354 -0.370123
0.016580001 6.9796548 -0.431499
-0.089703999 7.051681 -0.28480801
-0.107471 7.1435752 -0.093846001
-0.116501 7.1890349 0.017233999
-0.123358 7.1026101 0.136911
-0.140366 7.5753999 0.28343499
-0.15128499 7.6831999 0.435159
-0.164031 7.8660321 0.60540199
-0.18311401 8.3179626 0.81704301
-0.248024 10.701914 1.2880419
-0.29679599 10.239141 2.4783919
-0.28911999 9.5932369 2.5710509
-0.290364 9.2772083 2.730334
-0.23800801 7.3320971 2.352726
-0.33250299 9.8894596 3.4370999
-0.25435299 7.3125601 2.736624
-0.28430101 7.9091902 3.1712091
-0.38222799 10.300727 4.4034762
-0.45488 11.536065 5.5297279
-0.39437601 8.2909079 5.2495089
-0.40022001 8.2128143 5.3337712
-0.52649301 8.2443581 5.3588042
-0.54248601 8.3426704 5.2874599
-0.63282198 9.3951101 5.6024361
-0.71887201 10.491182 6.0360541
-0.76922297 9.7343426 3.391819
-0.82370001 10.272031 3.3049331
-0.78305399 9.6250582 2.8406761
-0.80159098 9.7133293 2.6108999
-0.806243 9.6333923 2.3389399
-0.80732602 9.016633 1.089256
-0.83187401 9.1710529 0.90431798
-0.78577602 8.5525904 0.66087103
-0.762743 8.197402 0.466198
-0.81072098 8.604847 0.323322
-0.84145099 8.8213129 0.170788
-0.67487198 6.1656499 -0.54072398
-1.146655 9.5525961 -0.12638
-1.242798 10.154329 0.19716799
-1.189712 9.6279879 0.36291099
-1.394016 10.967581 1.085709
-1.299855 9.6871672 2.3648081
-1.2912329 9.5327568 2.577002
-1.292877 8.5709009 5.157084
-1.533296 10.085406 6.2697902
-1.4776289 8.5772123 5.3492718
-1.844242 10.416172 5.5892248
-2.6273301 12.910336 0.031578999
-1.306711 6.1643982 -0.48487401
-1.211756 5.5884461 -0.49851501
-1.5076931 6.8007369 -0.48900199
-1.786395 5.5136981 -0.445977
-1.657204 5.035192 -0.462125
-1.741182 -5.6533651 1.584653
-2.3493259 -7.6593642 2.356694
-1.941878 -7.6346879 2.5264931
-1.431511 -5.6554732 1.716089
-1.932458 -7.634563 2.3166211
-1.917485 -7.612422 2.102952
-1.909703 -7.6186762 1.900359
-1.482172 -5.9421601 1.325389
-1.3157229 -5.3009601 1.0456671
-1.88758 -7.604938 1.50015
-1.284165 -5.1995029 0.89497799
-1.298124 -5.2822299 0.77970898
-1.268751 -5.1886029 0.64270699
-1.54632 -6.32373 0.78331399
-1.3283581 -5.4596982 0.55179697
-1.581604 -6.5334182 0.51725
-1.202819 -4.9939599 0.29087901
-1.2228121 -5.1028619 0.19629601
-1.255327 -5.2654219 0.104326
-1.811344 -7.5976119 0.150535
-1.184159 -4.9924722 0.012298
-1.18633 -5.027482 -0.067852996
-1.199814 -5.111073 -0.14449701
-1.176457 -5.0641422 -0.26990601
-1.758057 -7.6075978 -0.482714
-1.7208771 -7.525938 -0.59404802
-1.065356 -4.9202018 -0.261352
-1.268663 -5.8920522 -0.243406
-1.238547 -5.7846532 -0.16282
-1.095209 -5.1442542 -0.069087997
-1.03758 -4.9013662 0.012008
-1.602761 -7.5711908 0.018549001
-1.047371 -4.9760232 0.098006003
-1.428986 -6.828196 0.260968
-1.182061 -5.6810298 0.32858899
-1.136737 -5.4950681 0.431784
-1.023852 -4.9783592 0.49911901
-1.251597 -6.0857439 0.61014301
-1.031979 -5.0474229 0.61988902
-1.111609 -5.4691291 0.80000001
-1.142923 -5.656671 0.96436799
-1.546296 -7.6530862 1.304723
-1.5377361 -7.6562738 1.495073
-1.525824 -7.6427541 1.686667
-1.5142601 -7.6307378 1.882252
-1.506071 -7.6354728 2.0848391
-1.500519 -7.6538491 2.294327
-3.39821 -23.25687 7.5379472
-3.3682489 -23.239286 6.9075322
-3.3137801 -23.241568 5.6801481
-3.2846091 -23.228821 5.0771341
-0.78750402 -5.6160598 1.085719
-0.71831298 -5.165978 0.87157398
-0.83622003 -6.0139489 1.0146379
-1.041824 -7.5565491 1.093437
-1.030259 -7.5370421 0.91531998
-0.87872702 -6.4842529 0.64258999
-1.020794 -7.5325818 0.74647999
-1.007598 -7.5002508 0.58231002
-0.99606103 -7.4798818 0.42730099
-0.71384299 -5.408277 0.204072
-0.69628298 -5.3226538 0.103459
-0.96269399 -7.4258361 0.017948
-0.96028501 -7.4749188 -0.098995
-0.94909501 -7.4559898 -0.20686799
-0.94157797 -7.465724 -0.303895
-0.93333203 -7.469779 -0.39081001
-0.924546 -7.4696298 -0.46531299
-0.94950098 -7.8192768 -0.60609299
-0.90775102 -7.7754998 -0.68246198
-0.84221399 -7.5153451 -0.53087801
-0.82816499 -7.5474749 -0.39417899
-0.81902498 -7.544488 -0.30647701
-0.811737 -7.5586591 -0.209234
-0.803868 -7.5677691 -0.099967003
-0.79593003 -7.5762839 0.018259
-0.78806198 -7.5857592 0.14699
-0.78013098 -7.594697 0.28560299
-0.772686 -7.608614 0.43306801
-0.76525003 -7.6230378 0.58952099
-0.75476003 -7.6068769 0.750682
-0.74565297 -7.6044168 0.91938102
-0.74039602 -7.6417389 1.1005321
-1.7999949 -18.804113 3.1566529
-2.126766 -23.353518 6.2819452
-2.1012101 -23.371538 6.9027352
-2.050746 -23.41666 8.16504
-0.442958 -5.7442942 3.3070109
-1.122017 -23.313801 11.179545
-1.096182 -23.33799 10.590646
-1.069066 -23.336168 9.9796162
-0.258008 -7.5340538 1.259727
-0.249818 -7.5496559 1.082795
-0.239784 -7.5089831 0.90397102
-0.23074999 -7.4973679 0.73660898
-0.219879 -7.422792 0.57141501
-0.204061 -7.4719858 0.27962199
-0.195682 -7.4820518 0.144253
-0.186905 -7.4766431 0.017926
-0.17871299 -7.495223 -0.098483004
-0.169864 -7.487237 -0.20612501
-0.16177499 -7.513133 -0.303491
-0.152859 -7.501339 -0.38951299
-0.144721 -7.529232 -0.46555999
-0.057991002 -7.5591741 -0.53066802
-0.040649001 -7.5816808 -0.39360899
-0.032035999 -7.6147251 -0.30752701
-0.023211 -7.603085 -0.209262
-0.014443 -7.6133299 -0.100006
-0.0056679999 -7.6309762 0.018291
0.0031630001 -7.6565771 0.147568
0.011988 -7.6486411 0.286127
0.020896001 -7.6776719 0.434764
0.029733 -7.6682739 0.59005803
0.038669001 -7.6849351 0.75468898
0.047566999 -7.6893892 0.92523497
0.056504 -7.6961241 1.103228
0.40770599 -26.42878 8.4770222
0.14647999 -6.5478511 3.1370111
0.183759 -6.805676 3.9078779
0.31136301 -6.3522081 3.9088011
0.334068 -6.6579571 3.9662399
0.54039901 -7.6029091 1.092586
0.548769 -7.5962701 0.91639501
0.58166099 -7.564363 0.28380901
0.59329098 -7.6004629 0.14693201
0.60124201 -7.5891991 0.018247001
0.61269099 -7.6217542 -0.10044
0.62165999 -7.622797 -0.2105
0.63044697 -7.621736 -0.30885801
0.64075798 -7.6388502 -0.397964
0.651353 -7.6586771 -0.47518599
0.766702 -7.7406468 -0.40382299
0.77586597 -7.7418771 -0.31422499
0.789294 -7.7851281 -0.21537
0.80119503 -7.8123469 -0.103159
0.811122 -7.820024 0.018843999
0.82430297 -7.8584189 0.152289
0.83264601 -7.8504448 0.29532301
0.86135697 -7.8609099 0.776582
0.87569302 -7.9072752 0.95725101
0.68588501 -5.2961421 2.821708
1.137337 -8.474227 5.2550201
0.90756798 -6.703475 4.2782888
1.189901 -8.7130108 5.7043748
1.066023 -7.4216309 5.2463121
1.113901 -7.5081568 5.1969619
1.3126169 -8.6410646 5.6695461
0.946787 -6.1846442 3.9570429
1.2873909 -8.3449936 5.189568
1.449877 -9.3267212 5.6157298
0.88079399 -5.580894 3.1175361
3.9880209 -23.3379 6.342495
4.0293732 -23.256107 5.108016
4.0782099 -23.218683 3.939388
1.375005 -7.7756491 1.1318901
1.3956161 -7.8393059 0.95808703
1.408733 -7.8603482 0.78420502
1.4264539 -7.9066048 0.61821502
1.4354 -7.9038482 0.454891
1.4541 -7.9545298 0.30250001
1.465139 -7.9628282 0.156046
1.478977 -7.9861841 0.019467
1.488629 -7.986753 -0.106718
1.493744 -7.9630408 -0.222991
1.55632 -8.1407461 -0.51239401
1.620568 -8.1692219 -0.72605997
1.650986 -8.1255636 -0.58206803
1.667003 -8.108264 -0.42974499
1.681914 -8.1331434 -0.33541
1.693472 -8.141593 -0.22887801
1.703388 -8.1420078 -0.109266
1.71726 -8.1612635 0.019990001
1.724315 -8.1479979 0.16051701
1.740743 -8.1789598 0.31281799
1.749868 -8.1754332 0.473434
1.760307 -8.1779642 0.643686
1.775331 -8.2016897 0.82407898
1.782449 -8.1888046 1.008381
1.794839 -8.2000685 1.203263
1.810122 -8.2243891 1.4072419
1.823406 -8.2393856 1.615604
1.833765 -8.2409954 1.827117
1.8466491 -8.2539053 2.046396
5.2704821 -23.430746 6.433579
5.367866 -23.735565 7.1584129
5.4111881 -23.79912 7.827457
5.5005898 -23.810116 9.7918406
1.892585 -8.0647192 3.9677019
2.2706821 -9.4304819 5.7711692
1.300234 -5.2661738 3.660702
2.6289339 -10.142374 6.9444828
1.288615 -4.9245729 3.2194071
1.374575 -5.2039142 3.2023411
1.7485189 -6.5887661 3.9128561
1.859514 -6.9744611 3.9827931
2.457473 -9.2172184 5.2635288
2.057713 -7.6467671 3.991766
2.32354 -8.5557852 4.018765
2.3119481 -8.4743252 3.752521
6.5471749 -23.674709 8.5322113
6.5402231 -23.334305 6.4917998
2.3089261 -8.2013454 2.061446
2.321748 -8.2105141 1.846577
2.325762 -8.1885147 1.629706
2.3402441 -8.2034321 1.425537
2.3426559 -8.1760683 1.219155
2.357218 -8.1910877 1.025583
2.360456 -8.1668272 0.83482999
2.367322 -8.1552496 0.65342999
2.376616 -8.1520252 0.48084101
2.383692 -8.1412792 0.317341
2.390671 -8.1302271 0.16333
2.398803 -8.1231909 0.020302
2.4062791 -8.1139851 -0.111171
2.418097 -8.1193628 -0.23317
2.430999 -8.1283407 -0.34263301
2.4390931 -8.1212139 -0.440218
2.4488411 -8.1195621 -0.52430302
2.457768 -8.0815649 -0.64997703
2.4977429 -8.0786133 -0.73717701
2.5417211 -8.0881662 -0.59516299
2.5596459 -8.0798368 -0.44001099
2.5694349 -8.0783081 -0.34235099
2.5847571 -8.0940933 -0.233858
2.602205 -8.1163149 -0.111959
2.61762 -8.1320658 0.020477001
2.6243939 -8.1208858 0.16448601
2.6422911 -8.1440983 0.32029399
2.65271 -8.144146 0.48502401
2.6662841 -8.1537733 0.66010398
2.68225 -8.1706324 0.84450603
2.6849561 -8.1471024 1.032154
2.705322 -8.177062 1.234622
2.707495 -8.1520367 1.435427
3.0421939 -9.1245289 1.841435
3.0589581 -9.1395569 2.0858071
3.0599301 -9.1074867 2.324595
3.0612841 -9.0769148 2.566134
3.0403719 -8.9805965 2.789032
3.0639541 -9.0158682 3.0539019
3.105371 -9.1031742 3.34096
3.106194 -9.0712423 3.5861261
3.087909 -8.9838848 3.8064921
3.081712 -8.9322395 4.0365529
3.1661479 -9.1426706 4.3857961
3.2605491 -9.380125 4.7564902
3.29845 -9.4538937 5.0473242
3.3282189 -9.5038662 5.3206019
3.3525791 -9.5380049 5.5785189
3.3759589 -9.5691338 5.824481
3.403574 -9.6119194 6.0667062
3.446172 -9.6965666 6.32477
3.484601 -9.7688789 6.5596151
3.507004 -9.7958221 6.7492518
3.563844 -9.8825016 7.0898132
3.6321189 -9.9275866 7.3967791
9.1477461 -23.47632 10.095721
9.2914753 -23.763906 9.5431528
9.3612719 -23.699549 7.4956479
3.553741 -8.8763914 1.830529
3.541971 -8.8174267 1.587886
3.530936 -8.7606544 1.353955
3.5479341 -8.7735119 1.138714
3.584172 -8.8337154 0.93617898
4.3775868 -10.717936 0.65559399
3.4574549 -8.3818874 0.021733001
3.4663391 -8.3485594 -0.248798
3.5201969 -8.4506674 -0.36971
3.603184 -8.6217852 -0.485116
3.654361 -8.7158604 -0.584279
3.6741631 -8.7065639 -0.72715801
3.7457869 -8.7628307 -0.8308
3.7073021 -8.562952 -0.65503699
3.734848 -8.5721083 -0.48542699
3.658711 -8.3709116 -0.36894301
6.2749391 -14.045568 1.183722
6.2897429 -14.035102 1.5103559
4.088016 -8.8734512 3.1333041
4.1036472 -8.8803177 3.3980529
4.0432348 -8.7230568 3.5959351
3.987731 -8.57724 3.7901261
3.9782701 -8.5310469 4.0212321
3.9553521 -8.4563332 4.2317991
3.7455561 -7.983675 4.2238641
3.686471 -7.8341379 4.3644738
2.680439 -5.5783739 4.0146132
3.733068 -7.544003 5.7630401
4.139544 -8.2449799 5.670249
3.675544 -7.2997189 4.8625689
3.7240479 -7.3747859 4.7422228
4.1751881 -8.2681828 5.3167062
4.1574559 -8.2094059 5.0775299
4.5458479 -8.9506149 5.3042512
4.9497008 -9.6349602 4.6274018
12.129886 -23.477842 9.8836536
7.4657049 -14.048752 1.914263
4.5228901 -8.3010979 -0.38177499
4.536315 -8.3028469 -0.491182
4.5026202 -8.2185211 -0.57934302
4.618434 -8.2926531 -0.82749999
4.7114301 -8.3682184 -0.67415398
4.7242599 -8.3457232 -0.49787
8.1164141 -14.070914 0.91984499
9.6029329 -16.126284 6.5194979
5.0775118 -8.4375629 4.4638262
4.5319781 -7.4139042 5.169867
5.288445 -8.5842562 6.540277
4.8200798 -7.7835941 6.1785531
4.853404 -7.6775742 6.2189541
5.7144189 -8.9247646 6.5132718
5.35287 -8.2335567 4.7037892
9.5138826 -14.05691 1.306092
9.5139036 -14.021901 0.95953298
6.1351209 -8.9526129 -0.142562
6.1453948 -8.9453526 -0.298706
5.7379899 -8.3110371 -0.52431101
5.7370081 -8.2890491 -0.62321502
5.8486671 -8.4087124 -0.78815103
5.760684 -8.2009001 -0.87370402
5.8824949 -8.2923889 -0.71372002
5.994051 -8.4083033 -0.53608
6.3613448 -8.9017162 -0.44185999
10.164999 -14.051616 0.64877599
10.21018 -14.079725 0.98486102
5.0300221 -6.5300002 5.3468318
6.215517 -7.8785949 6.870904
5.1032791 -6.4380298 5.4450941
7.05443 -8.7735796 6.2118821
6.1738629 -7.6420999 4.9523458
11.843512 -14.083686 1.415956
11.890439 -14.040133 0.35460201
7.8288732 -9.2009935 -0.158691
7.6919379 -9.0188589 -0.32624599
7.6217508 -8.9156408 -0.47369799
7.2550278 -8.4668007 -0.578852
7.2327948 -8.4210796 -0.68627697
7.3215642 -8.4846144 -0.86233997
7.6013408 -8.7267618 -1.0089279
7.3626719 -8.3741283 -0.782767
8.105979 -9.1552114 -0.49383399
8.1605864 -9.1954193 -0.338379
8.2779675 -9.3059359 -0.16360401
12.531961 -14.022648 0.36246401
12.661834 -13.971368 2.7028019
11.78354 -12.792375 5.5779529
9.6399508 -10.41668 5.3082519
9.9799109 -10.73395 6.2612729
9.5995836 -10.22929 7.4121232
9.7056246 -10.31825 7.8163042
5.6524539 -5.9122939 5.5201421
5.6126442 -5.816361 5.655652
5.7427649 -5.8688908 5.4423308
9.8191147 -9.9190273 8.0113993
9.9343061 -10.01211 7.782486
9.9003143 -9.9547367 7.4181962
10.088458 -10.096938 6.8364558
10.773085 -10.707345 6.0861468
12.572014 -12.180328 2.1062379
12.680627 -12.25708 1.731916
9.3646908 -8.9473972 0.031044001
9.3952684 -8.9557934 -0.170499
9.4137774 -8.9525957 -0.357555
8.8267174 -8.3359823 -0.75057298
8.9036293 -8.3696346 -0.94028801
9.1004171 -8.4753971 -1.0841399
9.042551 -8.3434896 -0.86371899
10.175051 -8.9188433 5.0605822
10.406591 -8.9945908 7.267767
10.287066 -8.8704538 7.4950328
10.714241 -8.7311802 7.3028049
10.68907 -8.6080551 5.4992161
10.768598 -8.6515522 5.1663761
11.728084 -8.9831333 -0.76694697
10.922927 -8.3063173 -1.0559061
11.168641 -8.4117107 -1.21893
11.022507 -8.2218428 -0.96532798
10.87134 -7.666738 5.3303528
10.845317 -7.6107841 6.0058522
11.442193 -7.3362932 4.3591399
15.867115 -9.2374268 0.686831
15.993614 -9.2119722 2.220803
15.924877 -9.1477699 2.6325641
6.6135101 -2.7219269 4.826488
6.5322061 -2.6531079 4.9332881
6.550807 -2.62535 4.832005
6.9580112 -2.7511761 4.7320948
6.9830999 -2.7517331 4.6130662
7.0737071 -2.7779729 4.521524
10.327947 -4.0421681 6.3661079
11.279457 -3.5037391 4.732636
11.174826 -3.4570069 4.997076
11.326815 -3.4896121 5.3725271
11.145868 -3.419672 5.584157
9.7073002 -2.9659691 5.1166439
9.7267532 -2.9595611 5.3719912
9.7921314 -2.9670119 5.6456718
7.0991321 -2.1420319 4.256351
7.0148292 -2.1076951 4.3579049
7.0234351 -2.101387 4.5057249
6.9811568 -2.0799041 4.607018
6.9692941 -2.0675449 4.7155519
6.9175549 -2.034719 4.8662052
6.8069348 -1.9678349 4.9579401
6.868094 -1.950965 4.8885002
6.9121709 -1.946128 4.7594848
6.9577308 -1.9502341 4.687253
7.006588 -1.955152 4.6006031
6.9264998 -1.924121 4.4182801
7.1673398 -1.982057 4.4243751
9.4998522 -2.6270909 5.8642268
9.4763718 -2.6087501 5.6417809
9.812211 -2.688926 5.6137862
10.886827 -2.9698191 5.9624939
7.4490261 -2.0227129 3.8909359
7.6494579 -2.0675991 3.7953429
11.210382 -3.030093 5.5621262
7.8365121 -2.108391 3.6785691
7.3835521 -1.9773149 3.2653849
11.221897 -3.005224 4.9628968
13.186789 -3.4986041 5.1026201
13.860631 -3.6256959 4.2144499
13.03554 -3.3936679 3.6084239
15.19186 -3.9173739 3.3953321
14.613842 -3.034025 3.230134
11.561001 -2.3583751 3.47084
11.252918 -2.2819209 3.6823959
13.276091 -2.660147 5.064085
12.136203 -2.4170909 4.9584069
7.8022299 -1.544516 3.3977759
7.929461 -1.560149 3.6632929
7.7173681 -1.509113 3.7664011
7.6602759 -1.488728 3.9336989
7.834816 -1.513222 4.2162108
7.9158912 -1.519348 4.4475489
9.0044756 -1.728287 5.0591712
8.8889656 -1.695431 5.194242
5.4106841 -1.025493 3.2764821
5.365005 -1.010392 3.3553381
5.6351399 -1.04773 3.7180209
5.4208112 -0.99487901 3.719439
5.2240901 -0.93373001 3.713295
8.1801329 -1.46208 5.8144569
5.3864002 -0.93696898 3.7433491
5.4254088 -0.93078703 3.648478
5.5775218 -0.95022702 3.67013
5.358222 -0.90647298 3.4369559
6.6290288 -1.121461 4.2520971
5.3906102 -0.90551502 3.3595271
5.5226741 -0.92111498 3.331192
7.141078 -1.1825351 4.1547961
7.3721662 -1.212009 4.1224132
7.782908 -1.270268 4.1666908
7.6299839 -1.236215 3.896338
7.8305488 -1.259393 3.798799
7.899487 -1.261084 3.6261361
11.438317 -1.785225 4.3298349
12.055828 -1.82432 3.2663419
8.2597036 -0.78290701 2.8819139
8.188776 -0.76660401 3.0760751
11.126883 -1.028626 4.4774818
10.932759 -0.997895 4.6898651
10.708553 -0.96490997 4.8737941
10.957044 -0.97447503 5.2688141
10.778332 -0.93339097 5.7162948
9.9651937 -0.85131598 5.5186129
5.8360682 -0.49175301 3.3617711
5.6979232 -0.47345001 3.4017529
5.7578092 -0.47170299 3.550647
4.970243 -0.40138099 3.153661
5.286294 -0.420726 3.4399309
5.252831 -0.40580499 3.5555351
4.8729172 -0.35370901 3.418617
6.068469 -0.44049001 4.2573609
5.3806272 -0.36547199 3.6925039
5.0686779 -0.33246699 3.3667209
5.3983641 -0.34780499 3.5090449
5.1046829 -0.32293999 3.2349081
5.6273899 -0.349448 3.465297
5.5654368 -0.339122 3.3173859
5.4576001 -0.326199 3.1382501
9.9520206 -0.583233 5.5007381
10.186501 -0.58512199 5.3911452
8.0952158 -0.43673399 3.6748531
10.906926 -0.57572299 4.6659012
12.301557 -0.63503402 4.935719
11.477893 -0.57916999 4.2983069
10.740678 -0.52946699 3.7353649
11.017845 -0.53032303 3.537641
13.383807 0.085974 3.5853951
5.488307 0.041625999 1.614495
5.7207632 0.050039001 1.834785
11.904646 0.117948 4.1353478
5.2635589 0.058260001 1.968744
10.141249 0.112249 3.79316
11.01106 0.13467699 4.4123912
11.162965 0.14949401 4.7692218
10.610551 0.154414 4.810214
9.7716188 0.153566 4.6808939
9.4670086 0.170762 5.0029259
6.1501298 0.132377 3.659965
6.0123949 0.13639501 3.696213
5.8451309 0.13938899 3.6978011
5.8884349 0.147269 3.8208759
6.6524801 0.16637801 4.316648
5.2383428 0.14318 3.536516
5.094523 0.162939 3.566529
5.4413571 0.199334 3.7280951
5.782855 0.225297 3.8357639
5.7899771 0.23230501 3.758836
5.7894621 0.239016 3.6646609
6.5182109 0.26910201 4.1259508
6.0281081 0.255887 3.708256
9.330883 0.439511 4.9356542
8.1539688 0.393574 4.1151018
10.231259 0.49384001 5.1634579
5.23176 0.25861201 2.508918
5.1748948 0.261823 2.348752
4.8122711 0.249084 2.0585439
4.936974 0.26128501 1.980983
5.4666328 0.29567999 2.047564
5.384706 0.297526 1.87326
5.4542542 0.30772001 1.7520241
5.0742531 0.29218999 1.495122
5.339211 0.31367299 1.432761
5.369175 0.321688 1.301397
5.3694568 0.32796001 1.16421
10.548257 0.66887403 1.766222
10.625038 0.68612599 1.526215
12.330253 0.81063497 1.486827
11.964607 1.1081851 -0.62380201
10.501845 1.058861 0.59770101
10.409062 1.061729 0.80510598
10.867756 1.121264 1.072906
10.422824 1.087587 1.260924
10.511598 1.109202 1.515147
8.0971289 0.86392802 1.360763
10.509065 1.1336091 2.0236411
5.7752728 0.62976801 1.25728
5.5686302 0.61377603 1.355484
5.5334659 0.61634499 1.4914989
4.7218618 0.53149903 1.397761
4.8479552 0.551404 1.5648201
4.8283682 0.55485898 1.688198
4.7533369 0.55183297 1.789735
5.168376 0.60611099 2.0851271
5.3669801 0.63572401 2.30879
5.424274 0.648902 2.476325
4.845768 0.58541501 2.3378551
5.1428428 0.62736702 2.6116631
5.2968092 0.65239602 2.81984
5.161931 0.64187998 2.8701811
5.9786649 0.74343997 3.3243079
5.3344111 0.669622 3.085979
5.232275 0.66298503 3.1379161
5.593523 0.71536303 3.465821
5.602551 0.72313398 3.5727241
5.3983512 0.70316398 3.531358
5.2441182 0.69546998 3.5700791
5.4604468 0.75001502 3.856621
5.036314 0.71562803 3.482908
5.4390392 0.78575897 3.642401
5.1123171 0.74462402 3.3512249
5.3624849 0.78742498 3.4278691
5.2521439 0.77746499 3.263181
5.1670599 0.77100599 3.1082599
5.2555871 0.79045898 3.0506339
4.990571 0.75653797 2.7851529
4.8726912 0.74445999 2.6044741
5.0553141 0.77838099 2.5783529
4.803679 0.74535 2.328352
4.7584729 0.743999 2.1831961
4.8926291 0.77080703 2.1159
4.7213979 0.74945301 1.91552
4.694695 0.75080699 1.778175
4.89712 0.789024 1.72298
4.7419291 0.76967299 1.540694
4.6524868 0.76070398 1.386755
4.827456 0.79508001 1.310625
5.131772 0.85132498 1.258597
5.0215249 0.83903199 1.101812
5.6456409 0.95006597 1.096061
7.849669 1.3303469 1.330436
6.6811109 1.1402889 0.97154999
8.4872646 1.4485511 1.2341959
6.880754 1.182602 0.84005803
8.2222662 1.413169 1.003841
8.0137491 1.3869179 0.79866898
7.0721979 1.2324311 0.55238801
9.8416424 1.726846 0.56581497
6.414124 1.1331249 0.24366
7.188581 1.269942 0.27307999
6.2812371 1.117187 0.12296
6.4612169 1.156944 0.015733
6.4622822 1.164885 -0.086254001
7.0560551 1.280395 -0.197376
6.8932352 1.259124 -0.28299201
6.6111312 1.215533 -0.34897
7.6679702 1.409845 -0.40475601
7.4362912 1.376194 -0.46753499
6.955904 1.304015 -0.544563
7.1895242 1.3824511 -0.63825601
6.4272099 1.266879 -0.45987001
6.1072302 1.218567 -0.32330701
7.1335902 1.423354 -0.37764099
6.6037731 1.3256201 -0.27201599
6.4992862 1.312503 -0.182492
5.8245058 1.183288 -0.078071997
5.7236791 1.1697299 0.014003
6.083621 1.250666 0.119704
6.281611 1.298977 0.239959
5.2910948 1.100559 0.30603099
5.281693 1.105015 0.41521201
5.8384361 1.228577 0.58590603
6.8610148 1.4437571 0.68852502
6.9391322 1.468616 0.85343802
6.7386098 1.43437 0.98758399
5.890027 1.260897 1.006562
5.0686998 1.091233 0.99264097
5.054183 1.0942611 1.119157
5.0514898 1.099824 1.250837
4.881207 1.068633 1.338572
4.728632 1.040983 1.424289
5.1534419 1.140785 1.692778
5.2226038 1.162455 1.858495
4.9229288 1.101752 1.886771
5.0034962 1.125891 2.0550001
4.7941098 1.084623 2.099793
5.0577869 1.15045 2.351229
5.4017358 1.2352901 2.654062
5.5653062 1.279496 2.8785911
5.299684 1.224906 2.8740311
5.0726838 1.178653 2.8735631
4.8992262 1.144344 2.8878469
5.8028932 1.35542 3.4205129
5.7418752 1.348207 3.5091281
5.7486401 1.356838 3.6302371
5.8549852 1.389115 3.805774
5.8332381 1.391119 3.8899901
5.4208808 1.306087 3.763072
5.4676938 1.344274 3.9397509
5.508749 1.381531 3.888541
5.6278968 1.425316 3.847918
6.578135 1.6659729 4.4976168
5.0465078 1.284309 3.3778911
5.9164562 1.505706 3.9601929
4.8268628 1.234378 3.1509881
5.863472 1.4994709 3.8276889
5.2140951 1.339864 3.3087361
5.3287978 1.375935 3.274436
5.0730219 1.316174 3.0083189
5.853745 1.51873 3.4712911
5.0309248 1.3114949 2.868732
5.2328129 1.3706141 2.8581481
4.8765159 1.283349 2.5418921
5.1591539 1.364135 2.5560031
4.7569461 1.263697 2.231087
5.7014689 1.514612 2.6740839
4.6406369 1.238575 2.0518651
4.6263628 1.240519 1.91924
4.7390189 1.276625 1.835626
4.7333221 1.280993 1.703292
4.6660318 1.268597 1.550772
4.6208038 1.262062 1.40905
5.0283151 1.3796459 1.396793
4.7216201 1.301392 1.184991
5.3869328 1.491498 1.209687
5.3936019 1.500096 1.071804
6.0312181 1.684978 1.0464489
5.6116471 1.574784 0.835473
5.5902581 1.575793 0.69885403
5.1498141 1.458094 0.52560502
4.8948631 1.392048 0.39158201
4.5676961 1.304745 0.26899901
5.0870719 1.459492 0.197978
4.6527772 1.340747 0.093323
4.715466 1.364741 0.011766
4.8123841 1.398847 -0.06583
5.174943 1.510759 -0.148376
4.65029 1.363453 -0.19571
4.562891 1.343582 -0.246939
5.0957112 1.5069129 -0.32851401
5.5856352 1.665905 -0.44850901
4.7313919 1.4351 -0.43103299
5.0283651 1.550715 -0.36939499
4.2817502 1.331364 -0.232785
4.5256891 1.412977 -0.19147301
4.1425719 1.298642 -0.119488
4.0869508 1.286425 -0.056281
4.745626 1.499808 0.011929
4.5400262 1.440637 0.091801003
4.6179051 1.471251 0.181306
4.7651348 1.524253 0.28330299
5.1698742 1.660346 0.41782099
4.9415002 1.593331 0.50986999
5.1602302 1.670473 0.65262198
4.4933491 1.460362 0.67726099
4.3826761 1.430019 0.770374
5.1375008 1.6763099 0.90305501
4.4511991 1.458096 0.896743
4.7360539 1.557505 1.078968
4.4984889 1.485168 1.146189
4.439611 1.471396 1.2529221
4.6069899 1.532806 1.4282399
4.3831329 1.463987 1.482059
4.6465311 1.557961 1.7023081
4.3905559 1.477805 1.732635
4.5799789 1.547491 1.937093
4.582531 1.5542819 2.0671861
4.6980872 1.599558 2.249666
4.564086 1.559857 2.310209
5.053483 1.7336709 2.693136
4.8988881 1.686993 2.737618
4.6340842 1.601831 2.7054391
4.818676 1.6719019 2.9276731
4.7274871 1.646421 2.9783871
4.688673 1.639009 3.0526869
4.7889352 1.680298 3.209785
4.6006908 1.6202559 3.1640179
4.901185 1.738883 3.5096641
4.9276052 1.774075 3.6645639
4.7230778 1.725261 3.442796
4.466764 1.643405 3.1545739
4.7032051 1.736596 3.2521801
4.9554811 1.836285 3.342346
5.8914189 2.1831031 3.973613
4.6098881 1.7143199 3.022841
4.743959 1.770448 3.012645
4.6156621 1.728675 2.8291049
4.5683432 1.71701 2.692878
4.4830232 1.690883 2.5315959
4.3243599 1.636783 2.330781
4.4137049 1.676461 2.2613959
4.3447042 1.6560251 2.1076429
4.2147012 1.6120861 1.927724
4.5159168 1.73331 1.9382091
4.3011751 1.656617 1.723877
4.3483071 1.680577 1.619292
4.2836299 1.661297 1.473508
4.2976518 1.672477 1.35656
4.381887 1.711125 1.260167
4.655129 1.824056 1.2096829
4.4442701 1.747386 1.033491
4.9336071 1.946406 1.015393
4.7844119 1.893967 0.85987097
4.1591668 1.652043 0.64150399
4.2720361 1.702626 0.55334902
3.9734781 1.5889831 0.42024899
3.8901401 1.560896 0.32253301
3.830601 1.542178 0.233834
3.7433119 1.512087 0.151026
4.7152758 1.904706 0.19024
4.2299399 1.714379 0.087966003
4.0425272 1.643887 0.01046
4.5420728 1.853174 -0.064438
4.2980609 1.759446 -0.12782399
3.9604819 1.6266249 -0.172911
3.6019289 1.484251 -0.20224801
3.595413 1.486457 -0.24052399
3.990473 1.660645 -0.33258399
4.3181248 1.82058 -0.408539
3.9887619 1.703578 -0.304479
3.637831 1.5637 -0.205566
3.706758 1.598428 -0.16302399
3.4872451 1.508572 -0.104576
3.488343 1.513863 -0.049950998
3.7830241 1.646969 0.0098900003
3.690624 1.611847 0.077618003
3.75459 1.6449749 0.15334401
3.9074211 1.717343 0.24169201
4.147388 1.828565 0.34877199
3.815414 1.6874911 0.40969399
4.3162022 1.914974 0.56816202
4.3698568 1.9448611 0.685633
4.4824891 2.0012259 0.82031399
4.4854631 2.0088019 0.94093102
4.6244192 2.0774889 1.097158
4.1799002 1.883626 1.109268
4.1826859 1.890674 1.229633
4.5940862 2.0830679 1.483834
4.268044 1.941222 1.503742
4.3434958 1.9816329 1.658339
4.1647449 1.90593 1.713017
4.2931662 1.970744 1.892831
4.2959828 1.978083 2.020437
4.2691011 1.97172 2.131588
5.9873252 2.765296 2.9895079
4.4656529 2.0688059 2.3572941
4.5089779 2.095243 2.5063319
4.3956389 2.04879 2.562429
4.2426019 1.983471 2.584178
4.4671922 2.0947969 2.832092
4.4505992 2.0933361 2.9262331
4.3048549 2.0308969 2.9254479
4.8755031 2.30704 3.411299
4.834764 2.2946501 3.4714949
4.7266741 2.2568209 3.534837
4.6942129 2.268188 3.647938
4.7544851 2.324636 3.62358
4.6950002 2.309093 3.4678221
4.5948901 2.26649 3.3234711
4.0353489 1.996322 2.8473821
4.8815079 2.4149239 3.4444389
4.6141858 2.2893629 3.1657889
4.5356259 2.2569549 3.014179
4.5404482 2.26594 2.9127381
4.3352628 2.1698439 2.6750031
4.4132762 2.215306 2.6091461
4.274313 2.1517811 2.4122541
4.1043649 2.072206 2.202215
4.1237912 2.0880301 2.095257
4.2415638 2.1538661 2.032223
4.5378489 2.310955 2.040494
4.1515212 2.12029 1.743494
4.3307872 2.2182021 1.690167
4.3248792 2.221523 1.559323
4.1815171 2.154027 1.383651
4.0832648 2.1094289 1.231186
4.1252069 2.137172 1.124083
4.2810011 2.2241969 1.044067
4.330729 2.2564361 0.93491399
4.132267 2.1591401 0.779109
3.7632451 1.971892 0.60900998
3.627167 1.90597 0.49302101
4.4022498 2.3197851 0.488662
4.0004158 2.1139779 0.348158
3.57197 1.89289 0.22891501
3.625052 1.926417 0.153568
4.0543699 2.1606171 0.088544004
3.6169109 1.932889 0.0098299999
4.3775988 2.3459461 -0.065238997
3.6894169 1.982679 -0.115278
3.6336069 1.958131 -0.166696
3.9781971 2.149796 -0.23475499
3.658427 1.982497 -0.25724599
3.93979 2.1468251 -0.34524301
3.896822 2.1469741 -0.387869
4.2937078 2.391727 -0.345025
5.4388132 3.0295849 -0.43704101
3.511349 1.96664 -0.20893601
3.6224389 2.0343921 -0.167786
3.790628 2.134645 -0.119735
3.923336 2.215394 -0.059184
3.657418 2.0708461 0.010074
3.4369731 1.951313 0.076173
3.581444 2.0388401 0.154166
3.8680539 2.2079561 0.25220799
4.2323589 2.4224401 0.37524101
3.8989129 2.237606 0.441457
3.727818 2.145175 0.51751
3.620769 2.089185 0.59921902
3.966464 2.2947969 0.76575899
3.3081999 1.9190921 0.73221099
6.3955131 3.710048 1.415534
3.996141 2.3243859 1.000493
3.8948979 2.2715571 1.090925
4.0024462 2.340456 1.242054
4.0891409 2.3975251 1.394375
4.1717401 2.4524741 1.551993
4.0575261 2.3916719 1.636027
4.66225 2.7554181 2.0254941
4.0903039 2.4238131 1.9051059
4.0580831 2.4110889 2.0165091
3.9937539 2.3791449 2.1072299
4.1795821 2.4964321 2.3318081
3.9951651 2.3925769 2.347435
4.2251921 2.5370009 2.604007
4.0851102 2.4593539 2.6310401
3.9152119 2.363266 2.624999
3.779839 2.2875521 2.62865
3.9513259 2.3976059 2.8406219
4.417407 2.6874371 3.2701859
4.06673 2.4805751 3.0900061
4.4271011 2.7145109 3.5046301
4.3739629 2.7381649 3.5331881
4.0543661 2.557795 3.109597
4.1020751 2.5945549 3.069742
3.8305581 2.429059 2.7877369
3.824909 2.4317069 2.696655
3.939796 2.511173 2.6817501
3.979609 2.5430579 2.6059179
4.1639118 2.667644 2.6128831
4.2112131 2.7048571 2.5229869
3.963491 2.552249 2.2579401
4.190187 2.705112 2.260813
4.1109519 2.6607339 2.0919361
4.7632332 3.0907609 2.275192
3.918556 2.5491371 1.748399
3.8714981 2.5249331 1.605511
3.8582151 2.5226581 1.478394
3.6899719 2.4187729 1.297861
3.7891631 2.4900939 1.214625
3.6653731 2.41484 1.062
3.472573 2.2936039 0.90065598
3.4795361 2.3040149 0.79896402
3.444751 2.2867379 0.69093001
3.8970389 2.593503 0.671018
3.922998 2.617363 0.56744599
3.4727011 2.322762 0.410281
3.5045731 2.349972 0.324682
3.3897431 2.2786901 0.23129
3.5716331 2.406985 0.161119
3.440598 2.3244979 0.080026999
3.6024621 2.43995 0.010429
3.4057529 2.31249 -0.054074999
3.549984 2.416456 -0.118195
4.4449182 3.0256319 -0.147991
3.7932301 2.58848 -0.18546
3.9003079 2.66819 -0.245332
3.536135 2.4250979 -0.265082
3.4742689 2.3945479 -0.324682
4.0480971 2.8178749 -0.42999101
3.5759871 2.5139761 -0.30686
3.528435 2.4928141 -0.22428299
3.322746 2.3532829 -0.164437
3.2195759 2.285831 -0.108675
3.377528 2.403883 -0.054455999
3.511776 2.5055771 0.01034
3.409008 2.4382379 0.080779001
3.4945719 2.505573 0.16085801
4.3002 3.0832 0.19794101
3.7203801 2.6740191 0.25944501
4.6097369 3.3132429 0.32146499
3.362787 2.4229319 0.318928
3.479629 2.5132589 0.42151999
3.3051679 2.3930931 0.49099001
3.5721359 2.5927229 0.63270599
3.763658 2.738409 0.77779102
3.735882 2.7248371 0.88527298
3.70978 2.71241 0.99457097
4.75281 3.475023 1.274201
3.655509 2.6792469 1.0965689
3.716229 2.7303281 1.2353261
3.789701 2.7910881 1.384498
3.8609779 2.8505111 1.539167
3.9218211 2.9024701 1.694761
4.0883632 3.0330751 1.903936
4.00211 2.9763041 1.998464
3.924515 2.925679 2.09115
5.9372768 4.426168 3.163636
4.0141611 2.999764 2.2715471
3.762109 2.8182271 2.2514601
3.8373251 2.881531 2.4190061
4.0335679 3.0362229 2.667542
3.9747169 2.999167 2.7474699
6.115314 4.6255279 4.401217
6.8401651 5.2997942 6.0546718
5.8874922 4.6609359 4.61516
7.1970282 5.7112551 5.4664268
3.940743 3.1346669 2.890336
3.733011 2.9765179 2.6344211
3.9810281 3.1818399 2.6927691
3.9785609 3.187453 2.5697999
4.047627 3.2505071 2.486455
8.3598747 6.7294989 4.8647122
4.2274952 3.4111371 2.320576
3.9796331 3.2187719 2.0509081
3.765867 3.0531139 1.813206
3.8553009 3.133054 1.725605
3.708385 3.0208161 1.533975
3.6568091 2.9858699 1.388731
3.461647 2.8332281 1.198323
3.6098881 2.961561 1.129727
3.575217 2.9400661 1.001763
3.504416 2.8886769 0.86947799
3.4543049 2.8541119 0.74878198
3.316303 2.7465711 0.61724001
3.0686231 2.547461 0.47988001
3.808851 3.161972 0.59563899
3.1250141 2.6004081 0.39923701
3.625452 3.0239639 0.36327201
3.35185 2.8023679 0.247403
3.1777539 2.663085 0.155101
3.1732249 2.6655741 0.079873003
3.898206 3.2745731 0.098121002
2.92975 2.466856 0.0091800001
3.6372869 3.0698259 -0.062519997
3.0747831 2.6012051 -0.110849
2.9218161 2.477622 -0.15471201
4.4421659 3.766839 -0.23521499
2.842818 2.416312 -0.193694
2.8338549 2.414372 -0.230158
3.954649 3.3851359 -0.40055799
3.8511691 3.3276861 -0.44371301
2.9063239 2.5349441 -0.270726
2.876617 2.520823 -0.198567
2.8939829 2.541986 -0.155559
2.9373081 2.586087 -0.107712
3.9156599 3.4474549 -0.143589
4.6021571 4.051867 -0.168763
2.868433 2.5313721 -0.050253
3.1960471 2.827095 0.010227
3.029088 2.6856921 0.078023002
3.0057409 2.6712289 0.150428
3.5650301 3.175688 0.270356
2.8053579 2.5048361 0.28939
2.9975071 2.6826601 0.39503399
3.037504 2.724812 0.49099001
2.755892 2.477977 0.53125203
2.7973349 2.5211191 0.629287
2.8606 2.584161 0.73804098
3.5087531 3.1770921 1.024395
3.18119 2.887218 1.0394239
3.7787941 3.4381981 1.368588
3.5420771 3.23034 1.410179
3.5162511 3.214282 1.527867
3.460134 3.1703629 1.630121
3.9397349 3.618221 2.000622
3.6565061 3.3659489 1.991397
3.875607 3.584296 2.3929279
3.8896761 3.6141081 2.676482
6.7795272 6.3139029 4.89501
3.9917941 3.7436991 3.2560289
7.0050721 6.5696969 5.713902
3.910706 3.6761911 3.2987871
3.837132 3.615428 3.3343279
3.7523291 3.5437679 3.34796
3.690814 3.5019169 3.4335859
3.7007811 3.5441921 3.585448
3.6794381 3.5566621 3.5038109
3.6828721 3.5765679 3.402631
3.7104321 3.6117101 3.358844
3.735465 3.644531 3.3006539
3.7910819 3.7074039 3.258992
3.8511541 3.7749059 3.208477
4.8613982 4.7762251 3.9118609
3.729625 3.6813469 2.768918
3.398721 3.386045 2.0495081
3.3419981 3.3372729 1.892459
3.5913489 3.5946059 1.9004329
8.8674707 8.8961687 4.3630662
3.482163 3.5015509 1.5837539
4.0777431 4.1004481 1.854635
3.7872419 3.8171799 1.581759
3.4880371 3.523793 1.328221
2.7782841 2.813288 0.95664698
3.3997779 3.4426119 1.170646
2.936594 2.980504 0.90552098
3.0521519 3.105001 0.83356303
2.8011041 2.8562291 0.66851401
2.8971839 2.961067 0.59382701
2.805985 2.8745339 0.48334399
2.8350389 2.9110501 0.399041
2.733367 2.8131771 0.301819
3.029124 3.1248291 0.24644101
3.1442389 3.2511239 0.169194
2.7956519 2.897419 0.077598996
2.848279 2.958827 0.0098440005
2.9048641 3.024627 -0.055086002
2.7794721 2.900806 -0.110574
2.797677 2.9265981 -0.163508
3.144995 3.297576 -0.23657
2.796767 2.939286 -0.25082901
2.7157199 2.867409 -0.30388999
2.616951 2.788964 -0.33341399
2.7330811 2.9399731 -0.28178999
2.7489469 2.970849 -0.21012899
2.8296411 3.065187 -0.16847201
3.739871 4.0511861 -0.222665
2.987134 3.243335 -0.121359
3.8661411 4.1977329 -0.15707
2.825247 3.0747271 -0.054850001
2.8239379 3.0804729 0.010017
2.7024319 2.9548149 0.077174999
2.780462 3.0472281 0.15431599
3.2227111 3.5401509 0.27109101
2.701443 2.9744761 0.30918401
2.640219 2.9138529 0.386141
2.800988 3.0985041 0.50257802
2.661103 2.9506481 0.56956398
2.9760051 3.307524 0.74350798
2.973402 3.312355 0.85217798
2.833791 3.1642201 0.91926903
3.0773499 3.4442151 1.117499
4.024775 4.5045872 1.461543
3.0505109 3.422092 1.22808
3.7568979 4.2145238 1.512459
3.5198541 3.957845 1.558054
7.6582189 8.6718149 4.327033
3.1688509 3.5966771 1.920727
3.8291409 4.37676 2.785383
3.751581 4.2981648 2.87589
3.695173 4.2434702 2.9730711
3.6629159 4.2163119 3.081785
3.625145 4.182632 3.1770799
5.8251128 6.736722 5.298717
4.3658071 5.072794 4.2328539
5.2750158 6.1436658 5.2526841
5.2307148 6.2666779 5.4102879
5.5547848 6.6706562 5.6309071
6.8123999 8.200243 6.7424202
6.6074982 7.9724321 6.3640409
5.1652312 6.2469759 4.8226862
3.6142421 4.3815122 3.260216
3.5701499 4.3383212 3.1001439
3.592315 4.375598 2.991291
3.57425 4.3639259 2.8434801
3.5991399 4.4047341 2.724474
3.612843 4.431994 2.5919261
2.9880929 3.674305 2.0231869
3.6860881 4.5325942 2.4957881
3.7762811 4.6545262 2.4016531
3.855592 4.7635732 2.2920799
2.97615 3.685776 1.645542
4.534554 5.629118 2.318217
3.763828 4.6834688 1.76745
4.547483 5.6585999 2.1354451
3.0089829 3.753113 1.288631
3.1945331 3.994041 1.237432
2.746824 3.442466 0.95311302
2.640039 3.3165369 0.81156301
2.549216 3.2100799 0.68499601
2.5399189 3.206007 0.58630699
2.679204 3.3899081 0.51990002
2.8843911 3.6582451 0.45748499
2.5815721 3.2820101 0.32130599
2.7205341 3.4669609 0.249551
2.5711219 3.2843969 0.15603501
2.6387751 3.3789029 0.082629003
2.5628121 3.2894969 0.0099950004
2.445874 3.1469281 -0.052354001
2.4543631 3.1654379 -0.110243
2.477129 3.2024679 -0.163508
2.7716529 3.59184 -0.235533
3.2975531 4.273365 -0.280224
2.6587679 3.4538431 -0.269463
2.62554 3.42711 -0.33219999
3.1470101 4.1077828 -0.39818001
2.6333079 3.47053 -0.379792
3.1330199 4.169189 -0.36610299
2.400125 3.2094049 -0.208055
2.409023 3.229111 -0.162701
3.0692339 4.1140742 -0.20729101
2.5125539 3.376056 -0.115829
2.5457211 3.4289351 -0.056097999
2.5770659 3.4795871 0.010378
2.6664209 3.6089981 0.086483002
2.558887 3.4718759 0.16134299
2.4390011 3.317271 0.233155
2.628221 3.5833471 0.34194401
2.455847 3.356493 0.40842399
2.5520461 3.49648 0.52085501
2.6318691 3.6146581 0.64093602
2.6095309 3.592736 0.742024
2.533283 3.4962859 0.82660502
3.1953461 4.4208322 1.180498
3.7478471 5.1852288 1.3846149
3.129894 4.3408818 1.294812
2.9329669 4.0776429 1.345558
2.981529 4.155324 1.5044349
3.6034501 5.022089 1.818247
3.537631 4.9424748 1.949306
3.468051 4.8571649 2.0730879
3.4102621 4.787972 2.1985469
3.3704729 4.7437668 2.331727
3.3277481 4.6951671 2.458467
3.2841711 4.645102 2.5787139
3.2550099 4.6152291 2.705035
3.2416501 4.6076322 2.839879
3.21052 4.5746579 2.9529829
3.1328139 4.4749861 3.014149
3.102026 4.4419732 3.109874
3.126178 4.4876609 3.253984
3.112901 4.4796791 3.35272
3.0886829 4.4558549 3.4289379
3.0742209 4.4460211 3.5063241
3.0450349 4.4257388 3.6254599
3.009866 4.4184442 3.740814
2.9896531 4.4328809 3.660867
3.0245769 4.507215 3.597651
3.066958 4.5818558 3.5765271
3.0946081 4.6347928 3.524617
3.8310151 5.7958388 3.8335111
5.4663582 8.3328667 4.7733369
3.4882059 5.344418 2.726392
3.9918389 6.1315918 2.9316759
4.152297 6.3942809 2.851526
4.1283998 6.3736882 2.63779
2.662276 4.120667 1.5733711
2.6368461 4.0917182 1.431908
2.682544 4.173274 1.328997
2.8879499 4.504313 1.294577
3.570986 5.5696392 1.60076
2.4938531 3.8995979 1.001763
2.6171889 4.1029558 0.93171698
2.50913 3.94364 0.78108698
2.5353329 3.995054 0.67825502
3.7091169 5.8446479 0.992266
2.2706161 3.587136 0.51081997
2.2878089 3.6235981 0.420836
2.2028141 3.4979639 0.318084
2.433255 3.873872 0.259049
2.3545499 3.7582459 0.165904
2.1818409 3.4915891 0.079352997
2.2205009 3.5626509 0.010062
2.289031 3.6821179 -0.056951001
2.353616 3.795841 -0.122927
2.890923 4.6623931 -0.15098999
2.3623741 3.8198581 -0.181385
2.3645511 3.833318 -0.233822
2.8353641 4.5965819 -0.280379
2.3420329 3.8067069 -0.27631199
2.616503 4.275032 -0.38567501
2.6641221 4.398603 -0.44831601
2.355895 3.930789 -0.321706
2.1299779 3.5726449 -0.21593501
2.1131711 3.5538249 -0.166979
2.2716031 3.8303821 -0.122569
2.69227 4.539712 -0.14526699
2.1619301 3.655127 -0.055782001
2.159898 3.6613851 0.010189
2.2536039 3.830399 0.085653998
2.0214319 3.4449229 0.149418
2.0191441 3.4501929 0.22637101
2.020453 3.4616539 0.30841699
2.0607779 3.540174 0.40226701
2.0019131 3.4482501 0.47975999
2.3535399 4.064795 0.67328799
1.983772 3.435358 0.66290998
2.163084 3.7559381 0.82980198
2.3273289 4.0520129 1.011281
2.118921 3.6990981 1.0314291
3.2368381 5.6506972 1.575598
2.163985 3.788708 1.168824
3.192081 5.5887008 1.724126
3.1586449 5.5450959 1.877228
3.5179729 6.2431731 2.8714199
3.3511889 5.9796052 3.107173
4.1927528 7.5221472 4.3410678
3.5615971 6.4072762 3.8733079
4.8291221 8.7113705 5.4959068
3.5679221 6.453917 4.232954
3.5587511 6.4550352 4.3855152
4.0555201 7.3966579 5.335032
3.8030839 6.9554181 5.14221
2.786052 5.2684851 3.950124
3.7391379 7.0906949 5.1998959
3.104871 5.9379511 3.9866929
3.244288 6.2221599 4.0278521
3.2113991 6.1765838 3.8412409
3.181205 6.1359 3.65187
3.985357 7.6869478 4.5749979
3.1962121 6.1824212 3.5083239
2.7207339 5.2927899 2.6976171
2.7316 5.3291521 2.5582509
2.7130351 5.3081021 2.3886349
2.7504449 5.3967438 2.2654569
2.7629039 5.436801 2.1183691
2.8024211 5.530447 1.988396
2.8281751 5.5973749 1.844774
2.875376 5.707263 1.711964
2.9424591 5.8573251 1.585945
2.1317241 4.255765 1.0301059
2.0309949 4.0664659 0.87023002
2.0243061 4.0648699 0.75883597
2.069576 4.1678901 0.667045
2.4682491 4.985311 0.66934699
3.1409271 6.3439708 0.85176599
1.9388191 3.927439 0.43011999
2.074774 4.2151599 0.36150801
2.0097699 4.0951018 0.25831401
1.915025 3.9135289 0.16298801
1.968888 4.0354772 0.086539999
1.973748 4.0573821 0.010815
1.869818 3.8551049 -0.056281
2.6098909 5.3809528 -0.078557998
2.0501821 4.2395129 -0.129612
1.920256 3.9826319 -0.17856
1.934952 4.0250449 -0.23185199
2.3411679 4.8845801 -0.33487001
1.9860229 4.1684098 -0.35529301
2.0040319 4.2570329 -0.410189
2.0583911 4.4257278 -0.34264401
1.896175 4.1018419 -0.23459999
1.8531049 4.0209188 -0.178802
1.8993241 4.1338229 -0.12521
1.850933 4.040874 -0.058382999
1.7986259 3.9387479 0.010378
1.915924 4.2085528 0.089123003
2.3626881 5.2059398 0.213866
2.298548 5.080276 0.31575501
1.820569 4.036325 0.340716
1.9725209 4.3867922 0.472341
2.4406531 5.4278951 0.58443999
1.8774509 4.1883531 0.55227399
1.831062 4.0976181 0.64334899
1.852249 4.1579819 0.76064903
1.98911 4.4791889 0.938299
2.0414879 4.6115799 1.091447
1.939693 4.3954101 1.162415
2.6632569 6.0538759 1.7717381
2.4917021 5.681797 1.82502
2.810293 6.4285812 2.2501149
2.5163491 5.7927818 2.3621421
2.4181881 5.5845628 2.4384761
2.3531439 5.4516969 2.536644
2.3049021 5.3570108 2.643533
2.2690761 5.2906761 2.757304
2.2531829 5.2704968 2.889394
2.196856 5.1552882 2.9609251
2.1811659 5.1350098 3.078403
2.1414549 5.0578279 3.1526871
2.111146 5.002429 3.230464
2.1181591 5.0353541 3.3574319
2.0856559 4.9742341 3.411299
2.063308 4.9370179 3.4709511
2.040607 4.9147358 3.591337
1.9935549 4.8651152 3.6788969
1.975262 4.8850169 3.6077609
1.987033 4.9471641 3.533565
1.969841 4.9208689 3.438298
1.985859 4.977622 3.389384
1.997256 5.0231452 3.32235
2.006603 5.063765 3.24069
2.0257721 5.1295142 3.1656301
2.045496 5.1971321 3.081785
2.0708179 5.2794428 2.9964299
2.1603639 5.5455971 2.850611
1.968339 5.087584 2.3303969
2.4049511 6.2592392 2.5078709
2.438422 6.368453 2.3687279
2.1457319 5.62357 1.930372
2.476028 6.4892139 2.2275159
1.653764 4.364625 1.250334
1.703251 4.5110302 1.166648
2.5306721 6.7024388 1.733393
1.616271 4.2957458 0.99330199
1.669512 4.4529471 0.910469
1.609606 4.3083701 0.76856101
1.496771 4.0205779 0.61497003
1.552838 4.18606 0.53722203
1.630006 4.4097729 0.46168801
1.586538 4.3075452 0.35322201
1.604995 4.373323 0.263798
1.943872 5.3157711 0.211735
1.727841 4.7420888 0.097273998
1.7062711 4.6998401 0.011984
1.652714 4.5688448 -0.063821003
1.816053 5.0386891 -0.147413
1.595647 4.4433298 -0.19066601
1.456417 4.0704689 -0.224438
1.475336 4.1385031 -0.27162299
1.9328181 5.4217958 -0.355849
1.913565 5.4074459 -0.441374
1.859953 5.3346262 -0.492522
1.867082 5.4361601 -0.40349799
1.480505 4.3434291 -0.23822901
1.525722 4.493156 -0.191634
1.473763 4.3567419 -0.12658601
1.492437 4.4288979 -0.061391
1.475008 4.3940248 0.01111
1.611997 4.8206768 0.097966999
1.545256 4.6389842 0.18291301
1.612373 4.8592782 0.28991801
1.740666 5.2663932 0.426797
1.42137 4.3171721 0.44634399
1.734435 5.2887111 0.66970497
1.520272 4.6539388 0.70180899
1.417564 4.3566499 0.76559401
1.423807 4.3931608 0.88414401
1.415386 4.3845472 0.997109
1.8651119 5.8007178 1.474242
1.776929 5.5930958 1.88212
3.567389 11.459097 5.4402361
2.330431 7.547554 3.981863
1.630689 5.3473802 3.20894
1.603704 5.2809019 3.2836399
1.506816 5.0036421 3.30493
1.468044 4.8955131 3.3153081
1.478428 4.9721041 3.5007141
1.347254 4.6093049 3.3601389
1.572064 5.3784399 3.9208319
1.378261 4.8404951 3.335783
1.403748 4.9518418 3.3387091
1.589914 5.6334958 3.7020769
1.472111 5.239399 3.344866
1.501748 5.3688231 3.316875
2.872797 10.457612 5.466846
2.391283 8.7846565 4.1269331
1.3133 4.8692069 2.020781
1.913962 7.1291599 2.7607951
1.5163881 5.6746249 2.0402761
2.0192859 7.5919209 2.51947
2.0179 7.6223502 2.319443
1.640584 6.2558498 1.56478
1.287722 4.9336739 1.1035039
1.2127 4.6684608 0.92344397
1.194369 4.6199431 0.79740399
1.429334 5.555438 0.82227701
1.323195 5.1678128 0.64187002
1.281513 5.0293322 0.50967401
1.300329 5.128067 0.40707999
1.28512 5.092948 0.29743701
1.244337 4.9555888 0.191137
1.4527299 5.8141441 0.115503
1.231016 4.9512482 0.012229
1.333461 5.3900251 -0.072935998
1.282837 5.2113981 -0.147716
1.133128 4.6263709 -0.19236
1.1299911 4.6368709 -0.247768
1.359583 5.5789928 -0.29811001
1.136665 4.6879578 -0.29821801
1.331223 5.5466242 -0.43891901
1.089561 4.6345911 -0.41505301
1.272611 5.5284562 -0.39824599
1.041611 4.5735712 -0.243517
1.4217089 6.2425299 -0.33238
1.203511 5.312953 -0.220002
1.404168 6.232357 -0.175834
1.261987 5.6318402 -0.075811997
1.139607 5.1135368 0.012557
1.18559 5.3491702 0.105598
1.098321 4.98282 0.19087601
1.121261 5.11516 0.29653299
1.2117 5.5586491 0.43776801
1.3029521 6.0108171 0.60398602
1.1780241 5.4651542 0.672692
1.255514 5.8577261 0.85874403
1.253881 5.8834572 1.005244
1.627003 7.6779652 1.502594
1.345008 6.3838172 1.411901
2.2217419 10.606131 2.6218419
1.615512 7.8019328 2.343713
2.279927 11.075468 3.626509
1.9728791 9.6978302 3.7013781
2.0051429 9.9154043 4.0534639
1.400367 6.9664078 3.0355661
1.877546 9.3402338 4.0699449
1.579226 7.9517431 3.883034
1.435142 7.2704029 3.735641
1.190684 6.0690541 3.2678559
1.378436 7.0260472 3.783145
1.28504 6.590538 3.7050021
1.318607 6.804729 3.9785681
1.580283 8.155117 4.7681088
1.29943 6.7477498 4.0884442
1.3880939 7.3458948 4.8494272
0.91691601 5.0447931 3.5877409
0.92296398 5.2871852 3.5573211
