# .PCD v0.7 - Point Cloud Data file format
VERSION 0.7
FIELDS x y z
SIZE 4 4 4
TYPE F F F
COUNT 1 1 1
WIDTH 1549
HEIGHT 1
VIEWPOINT 0 0 0 1 0 0 0
POINTS 1549
DATA ascii
6.078968 -0.50621599 3.3658559
5.9675012 -0.48996601 3.163677
6.311357 -0.51082098 3.1918819
6.3615298 -0.50745702 3.056664
10.722721 -0.85534698 5.1521802
10.411065 -0.81833798 4.7338352
11.897335 -0.89350897 4.4622521
11.756526 -0.84179503 3.467171
12.0319 -0.84746999 3.2311511
6.272809 -0.120898 1.517983
6.5373831 -0.118473 1.751554
6.4718308 -0.109771 1.904037
6.0849252 -0.096134 1.951749
11.990852 -0.175519 4.165535
10.720527 -0.132015 4.2959719
10.319129 -0.115093 4.4085841
10.227879 -0.090313002 4.8990421
6.9836531 -0.05356 3.520478
6.6266942 -0.043129999 3.501441
7.6478839 -0.040886998 4.2200022
5.8254762 -0.024382001 3.3438489
6.4776649 -0.027112 3.718209
5.810348 -0.017565001 3.456974
6.1025338 -0.011365 3.750669
6.1332998 -0.0043029999 3.879003
5.6268449 0.0025919999 3.6499951
5.640636 0.015693 3.806705
5.383749 0.039992001 3.7671859
7.645071 0.056790002 5.3495069
7.5427532 0.091064997 5.1647601
5.5749459 0.080261 3.6954379
5.741087 0.089318 3.724551
6.200892 0.103671 3.9222989
5.8468761 0.10455 3.5941069
6.0473309 0.115156 3.598608
6.1182861 0.123612 3.51261
6.8925662 0.14726999 3.8040409
6.939837 0.156339 3.6677539
7.9395771 0.17886101 4.1961231
10.442943 0.2474 5.2656379
8.9412327 0.22220799 4.2839079
10.439703 0.25944799 5.001853
6.1812968 0.160797 2.802896
6.0947089 0.16563401 2.6046081
5.964426 0.16902199 2.390867
5.8607769 0.172893 2.1929419
5.931407 0.181877 2.061276
10.750557 0.32964799 3.736021
5.8284888 0.18549301 1.8702101
6.0454388 0.199422 1.779303
5.8386092 0.199393 1.564988
6.0194578 0.21256401 1.45731
5.905273 0.215395 1.278855
6.25489 0.23542801 1.198352
6.1786132 0.239739 1.033263
11.412961 0.469394 1.374413
11.429492 0.80293298 -0.31535101
11.231489 0.85459203 0.637842
11.406935 0.89459801 1.123629
11.210431 0.89227998 1.3531491
8.7162352 0.70395398 1.253494
5.9237361 0.48534301 0.99321198
5.8384728 0.48517999 1.121634
6.3032188 0.53117901 1.368963
5.639153 0.48181 1.369359
5.74228 0.49727601 1.544028
5.5677919 0.488684 1.6441261
5.6074319 0.49873701 1.805467
5.6835079 0.51216 1.982198
5.9472489 0.54289299 2.233578
5.6891422 0.52600598 2.289325
5.8231978 0.54522502 2.498538
5.9862299 0.56750602 2.725692
6.2053151 0.59556001 2.9858201
6.3849821 0.62029099 3.2337439
7.5242338 0.739793 3.9947729
6.2564859 0.62249601 3.469243
6.1508899 0.61920798 3.5484531
5.8890548 0.59977001 3.5219109
5.6890569 0.58608001 3.5150411
7.7134018 0.812756 5.0311918
8.7187719 0.91869098 5.6869612
6.2759509 0.70558 4.4190331
6.6873078 0.78332502 4.6099801
7.015974 0.83836502 4.6832452
7.2546349 0.87543398 4.7400408
6.0370932 0.735627 3.8463969
7.2292428 0.88089198 4.6059489
6.0162878 0.74019599 3.7255349
5.922986 0.735704 3.5510559
6.0186319 0.75468498 3.481745
5.8962402 0.74630702 3.2793789
6.6348019 0.84762198 3.534143
6.4748478 0.83484399 3.290911
6.0046382 0.78131002 2.9002881
7.153872 0.93084598 3.4553781
6.007051 0.78872299 2.746335
6.9814358 0.916659 3.1918089
5.9794221 0.79217201 2.576715
6.1654 0.82410097 2.492408
5.8942752 0.79483199 2.2244699
6.1187229 0.83234799 2.1449471
6.1980562 0.85047501 2.0064139
5.8661771 0.81188101 1.742052
5.5390978 0.77318102 1.498227
5.6939502 0.80154198 1.391229
5.660882 0.80359501 1.237397
5.6896191 0.81442797 1.100386
5.9109411 0.853118 0.99799103
7.4725409 1.096244 0.90874898
6.6525989 0.99175298 0.51755702
6.1213589 0.91983801 0.35052499
6.0932012 0.92284697 0.23053899
7.2239661 1.102705 0.14084201
6.9334202 1.066599 0.016814001
6.4059229 0.99307197 -0.085151002
6.7288132 1.051145 -0.187444
6.7611742 1.064249 -0.27641499
7.3146062 1.160073 -0.38448399
7.9951172 1.277537 -0.50054598
6.6442962 1.077528 -0.517941
6.7633848 1.129145 -0.59778398
6.5812259 1.130206 -0.46876401
6.4658709 1.12588 -0.340727
7.170692 1.257193 -0.29400799
6.369082 1.124281 -0.17800701
6.370616 1.132195 -0.084994003
5.7418032 1.027325 0.013981
6.2797589 1.131117 0.122979
5.645926 1.023724 0.214651
5.7025051 1.040828 0.32824901
7.7019429 1.415028 0.60256398
6.464766 1.195496 0.64561999
6.5572758 1.2204829 0.80254698
6.43222 1.204951 0.93806303
6.421268 1.210623 1.091939
5.9247732 1.1241471 1.1545399
5.6180921 1.072731 1.23782
5.523664 1.061354 1.360893
5.5451698 1.072103 1.512977
5.82441 1.133099 1.745438
5.5583582 1.0880409 1.816461
5.7491241 1.1323071 2.0353539
5.6458349 1.118767 2.152657
5.7478828 1.145927 2.348465
5.8192139 1.167166 2.535466
5.981771 1.206988 2.7661519
5.9404211 1.205825 2.903312
5.9231329 1.209469 3.04739
5.8097048 1.193327 3.1337781
5.9078088 1.22063 3.3286569
5.824235 1.2104059 3.4145401
6.16189 1.288045 3.7453539
6.480556 1.362502 4.070075
6.2561169 1.322893 4.0441689
7.3033328 1.553195 4.8434401
6.7422361 1.450219 4.6541929
6.3905039 1.40563 4.5784121
6.5956202 1.482865 4.628623
7.095017 1.612451 4.8224659
6.263279 1.431066 4.1675348
6.0904722 1.399016 3.9522319
6.0373702 1.3942 3.8082671
5.9520202 1.381763 3.635422
5.7887969 1.350947 3.412051
5.5764971 1.308233 3.160533
5.6883178 1.341427 3.0879951
5.6008258 1.327662 2.901547
5.6447039 1.344978 2.779335
5.7980962 1.388635 2.7025721
5.7935181 1.394654 2.54568
5.7516608 1.391636 2.3711531
5.3487139 1.300709 2.058774
5.4974852 1.3436511 1.965791
5.3153868 1.305678 1.755383
5.4393282 1.342813 1.648077
5.3288498 1.322107 1.470798
5.2161918 1.300579 1.300691
5.4077621 1.3550071 1.206515
5.72507 1.441581 1.130283
5.6395941 1.4270149 0.97211498
5.9633508 1.516297 0.88201499
5.2242742 1.334833 0.648799
5.6111512 1.440617 0.56889999
5.3755898 1.386785 0.42717999
5.121264 1.3275191 0.299586
4.9193258 1.281263 0.190165
5.4349341 1.422297 0.108277
5.2524552 1.381053 0.013017
5.1498699 1.360467 -0.069968
4.9709392 1.319375 -0.141553
5.0821271 1.355197 -0.21241599
5.3894339 1.443839 -0.28965899
5.5851979 1.503238 -0.357577
4.5549908 1.237298 -0.363195
4.7460799 1.3128901 -0.42929599
4.516748 1.272043 -0.329409
5.1797199 1.471738 -0.27954999
4.938633 1.409428 -0.207412
5.0583038 1.449926 -0.14482699
5.3742261 1.5472389 -0.073461004
5.0654702 1.464711 0.012639
4.6624599 1.3540469 0.093574002
4.6546569 1.357636 0.181381
5.0733418 1.486141 0.29935899
5.159461 1.517875 0.413831
4.7797699 1.4121979 0.48944399
5.2045708 1.544271 0.65321898
5.4405708 1.621172 0.81376398
5.2301521 1.565078 0.91228497
5.4997458 1.652703 1.099445
5.1528811 1.554994 1.164845
5.2425141 1.588679 1.3253829
5.1794562 1.57662 1.450356
5.142313 1.571839 1.581759
5.2479448 1.610799 1.7605751
5.166327 1.592311 1.877854
5.1958928 1.60803 2.0342519
5.435648 1.689155 2.280771
5.2206292 1.628984 2.3362899
5.4164619 1.696991 2.5729339
5.5232568 1.737502 2.7732871
5.4001961 1.705681 2.8547339
5.448709 1.727962 3.020256
5.400331 1.7195311 3.127198
5.8082628 1.856849 3.500164
5.6215692 1.804369 3.512707
5.5667548 1.793905 3.594631
5.6304359 1.821643 3.7427011
5.6077361 1.821502 3.8246851
7.1567669 2.343039 5.0821328
7.3114328 2.4313419 5.3913579
6.6589618 2.248771 4.812232
5.5323672 1.882642 3.8733311
6.9377508 2.360888 4.8572712
5.6185021 1.919233 3.851351
5.5922861 1.924796 3.634949
5.5405922 1.914199 3.487653
5.5744338 1.9331371 3.386662
5.3276758 1.854504 3.112704
5.216795 1.8227 2.9198141
5.3760881 1.88537 2.871839
5.1851382 1.825166 2.632895
5.1672382 1.825608 2.48417
5.1734519 1.8345701 2.344933
5.8802352 2.092891 2.500963
5.0999751 1.821854 2.0254941
5.1760802 1.855827 1.91001
5.328403 1.917424 1.816156
5.3443809 1.9301831 1.6715
5.2925429 1.918418 1.50806
5.0273132 1.828884 1.294342
4.9825048 1.819134 1.147923
5.3727469 1.968693 1.095497
5.3460011 1.965934 0.95184201
5.3936391 1.990563 0.82412201
5.24822 1.9438291 0.67340899
4.7575612 1.768382 0.49843499
4.991302 1.86186 0.40991801
5.3698921 2.010195 0.32468799
4.6193442 1.735347 0.184595
4.5972428 1.733144 0.094691001
4.77284 1.805674 0.012231
4.9292612 1.871394 -0.069257997
4.4370952 1.690447 -0.130685
4.458395 1.7044899 -0.192764
4.6097579 1.7684931 -0.25632301
4.3452358 1.6728081 -0.28785101
5.1400261 1.992496 -0.42418799
5.9664712 2.344805 -0.55887502
4.337039 1.727741 -0.327728
4.4740882 1.794391 -0.25025699
4.5197978 1.8188159 -0.196759
4.566 1.843569 -0.135528
4.3909588 1.778833 -0.062231001
4.6977472 1.9094681 0.012155
4.4011922 1.794892 0.091608003
4.5180049 1.84865 0.182614
6.8845158 2.826298 0.42142099
4.521059 1.862172 0.37623799
4.5335498 1.873475 0.48172301
4.2481742 1.76132 0.55334902
5.1099691 2.1255889 0.79333103
5.314877 2.218065 0.96239001
5.0208168 2.10219 1.042094
4.8731542 2.047025 1.143905
4.8446708 2.0416789 1.272001
5.0241022 2.1241069 1.461224
4.9017191 2.0790751 1.566238
5.1354008 2.1852379 1.789892
5.0771642 2.1674199 1.917557
5.0187492 2.1493731 2.041959
4.9713712 2.1359251 2.168071
5.1058269 2.200717 2.3751819
5.0460382 2.181895 2.4920139
5.0529032 2.191838 2.6380789
4.83745 2.1050539 2.6593771
4.769556 2.0820971 2.749764
5.0343022 2.204639 3.0325079
4.8992138 2.152262 3.071542
5.6739931 2.5005 3.68911
5.6399002 2.4932971 3.7899401
5.7187328 2.536087 3.9565079
7.9785681 3.5382559 5.5199761
8.2094774 3.652082 5.828455
6.9837689 3.1262519 5.163805
6.991056 3.1685851 5.370719
6.8170261 3.127955 5.1353822
7.868453 3.6103971 5.9274402
7.271162 3.356802 5.3080821
7.6836972 3.558079 5.4926791
8.0582991 3.7429099 5.6193962
8.0808764 3.764822 5.4791288
5.3996959 2.530952 3.423003
5.1772652 2.434037 3.1566679
4.7958741 2.2615311 2.80162
4.7141871 2.229713 2.628768
5.0055728 2.374645 2.65363
5.0086489 2.3832309 2.514308
4.7845511 2.2834239 2.264791
4.963367 2.3758409 2.2048941
5.1607471 2.477689 2.1410961
5.1202178 2.4655571 1.973995
4.8232169 2.329442 1.71782
4.7952871 2.3228209 1.567367
4.7525101 2.308924 1.415424
4.6780462 2.2794621 1.2590671
5.6304321 2.7435291 1.515396
4.5732532 2.234972 1.1016001
4.318768 2.1168261 0.920811
4.929419 2.4232349 0.91788799
4.4027948 2.1707029 0.70365399
4.5736098 2.2615311 0.61391598
4.9661889 2.4628291 0.54436898
4.3609829 2.1690061 0.37478
4.2812638 2.1355669 0.27092201
4.2674479 2.134865 0.17850199
4.5942292 2.305023 0.099065997
4.467329 2.247849 0.011987
4.4009638 2.220861 -0.064753003
4.3846068 2.2190051 -0.135253
4.4228849 2.2448289 -0.20031001
4.5861392 2.3343871 -0.26715899
4.4332809 2.263073 -0.30772001
4.2938929 2.2045 -0.37140399
4.4082322 2.2891431 -0.43303099
4.339808 2.2792649 -0.34411499
4.5830479 2.420614 -0.269077
4.082901 2.162518 -0.18659
4.0618629 2.1574161 -0.12658601
4.3932552 2.339982 -0.065384001
4.3803182 2.339622 0.011903
4.330965 2.319736 0.094691001
4.5672631 2.4531281 0.193941
4.3572488 2.3468471 0.28025001
4.6776161 2.526418 0.40907401
4.1637449 2.2551191 0.465011
4.2672362 2.3175809 0.58429003
4.770822 2.598269 0.77871603
4.5697441 2.49564 0.87009001
6.1833081 3.3768439 1.177317
4.5019202 2.4653881 0.98267502
4.611618 2.532434 1.138616
5.3509498 2.9384329 1.321159
4.6861491 2.580446 1.294342
4.857142 2.6818919 1.486324
5.0206742 2.779803 1.68815
5.6778188 3.152281 2.082761
5.1180158 2.849267 2.034698
4.6976318 2.6223869 2.012182
4.9231162 2.7557781 2.2606859
4.8556061 2.7254021 2.3787179
6.1124282 3.4401879 3.1794231
8.8047218 4.955461 4.5798392
4.902709 2.7668509 2.6963961
4.8883219 2.7662251 2.831327
7.2908602 4.1369729 4.4292412
7.0110831 3.9998021 4.6332002
6.7331061 3.8516059 4.6150942
7.322154 4.2225199 5.482883
4.7191868 2.7360799 3.6814001
4.6069069 2.6996861 3.736227
4.6324191 2.743645 3.6862891
4.7290411 2.8157451 3.6479261
4.811933 2.872679 3.6353011
8.5263481 5.1305609 5.9204712
7.2196488 4.367177 4.6557708
7.0073099 4.2498622 4.3302011
4.8028259 2.9281609 2.694236
4.8701501 2.976974 2.587384
4.9435339 3.029737 2.4769311
4.8528342 2.9819109 2.282258
4.9521518 3.0508699 2.175427
4.6340361 2.8623309 1.891964
4.7351208 2.932375 1.7862279
4.7068129 2.922415 1.629734
4.444592 2.7667739 1.402486
4.499537 2.8082359 1.283289
4.5718741 2.860769 1.167172
4.4652958 2.8013141 1.0091881
4.3548732 2.739095 0.859707
4.4871221 2.8295569 0.76041102
3.9441941 2.493608 0.561472
4.306283 2.7295361 0.50068301
3.7876439 2.40697 0.34531999
3.6594441 2.3314829 0.24570701
4.1804872 2.670279 0.18556701
3.9816611 2.5498071 0.091127001
4.0299129 2.5873139 0.011479
3.6952951 2.378547 -0.057726
4.5448041 2.9328339 -0.148871
3.802 2.4597509 -0.182878
3.7510409 2.43297 -0.23211101
3.637327 2.3652301 -0.26822901
3.6363771 2.376652 -0.334272
3.598985 2.376173 -0.37597099
3.6159041 2.4115551 -0.30511001
4.3462219 2.8986261 -0.366734
3.7229741 2.4954901 -0.23268101
3.774296 2.5362511 -0.183644
4.762032 3.1999891 -0.231704
3.767189 2.537833 -0.125018
4.6194491 3.111973 -0.153301
3.803452 2.5687001 -0.060286999
4.0044842 2.7112491 0.011591
3.7822011 2.567174 0.088101
3.8144529 2.5955429 0.17259599
3.6018059 2.456975 0.246894
3.8344059 2.622184 0.35744101
3.725786 2.5542619 0.443607
3.574018 2.4563251 0.52181101
3.703172 2.5514359 0.64462602
3.723424 2.571774 0.756199
3.7402661 2.5898311 0.87098199
4.199966 2.91537 1.106465
4.5107841 3.138895 1.329616
4.6329732 3.2318389 1.513235
4.5512648 3.1827011 1.633685
5.0361891 3.5305319 1.9725159
4.5862079 3.223027 1.947088
4.428031 3.11955 2.0258441
4.7010012 3.32004 2.3060629
4.78475 3.3958621 2.6596341
4.8534179 3.478617 3.2948389
4.7098608 3.384007 3.3289151
4.6568618 3.354142 3.414536
4.6320138 3.3444171 3.5113759
4.6172199 3.3418961 3.604795
7.4416232 5.3993602 5.9639621
7.8137298 5.8090291 6.6663928
4.5984468 3.460304 3.5370331
4.6091752 3.476764 3.434988
4.6370139 3.5062151 3.33688
4.687614 3.553046 3.2455609
4.8098001 3.6544571 3.1917069
4.1890578 3.229104 1.978202
4.2591758 3.2910531 1.869651
6.1565442 4.7685671 2.4974811
5.0156789 3.8942289 1.867915
5.0547042 3.933955 1.715845
4.1926289 3.270843 1.286581
4.2722311 3.3409281 1.1737289
3.8672121 3.0314491 0.94074303
4.288774 3.3699501 0.91145998
3.7847459 2.9810171 0.69059902
3.554126 2.806071 0.54486698
3.599937 2.8490291 0.45083901
3.5985899 2.854763 0.353452
3.5219851 2.800668 0.25480899
3.959506 3.1560919 0.189418
3.750093 2.996305 0.092514001
3.6606591 2.9318161 0.011241
3.604707 2.893878 -0.060720999
3.7373531 3.0075171 -0.132034
3.6287961 2.9271049 -0.18828499
3.6188121 2.925992 -0.24159899
3.5699561 2.893358 -0.284087
3.523946 2.869648 -0.349693
3.5461271 2.915216 -0.40020201
3.5126791 2.915164 -0.32044601
3.5512159 2.9611051 -0.240044
3.765094 3.146858 -0.198171
3.833576 3.2116599 -0.137646
3.5507021 2.9817071 -0.060904998
3.5620699 2.998311 0.01116
3.603018 3.0399389 0.090856999
3.6243451 3.0651419 0.177568
3.7431829 3.173104 0.27787599
3.4654729 2.944618 0.34992301
3.5829501 3.0516069 0.462176
3.6743159 3.1367891 0.581303
3.648454 3.1220491 0.68832898
3.8346109 3.2890649 0.84421301
3.6656771 3.1515579 0.92551202
4.002502 3.4492409 1.143481
3.8284881 3.3070331 1.224028
4.5064459 3.9017129 1.596815
4.6733642 4.0557318 1.820222
8.5933104 7.4751449 3.6527729
3.982547 3.4806099 1.978202
8.8570509 7.7589378 4.7181311
8.8056412 7.7319841 5.0061111
4.6901979 4.1279821 2.8322091
4.573957 4.0351191 2.9214549
4.524734 4.0010428 3.0446889
4.5258551 4.011405 3.1954441
5.0407348 4.478231 3.7204621
6.258225 5.585927 4.9909081
4.9994779 4.4728389 4.1229601
5.9848971 5.354455 4.9356141
4.5535579 4.1121278 4.140666
8.5954819 7.8350282 8.1380615
5.040493 4.637599 4.6896381
5.6679668 5.2392831 5.1158252
4.5183139 4.186317 3.9955659
5.9245181 5.4891958 5.239079
4.5623188 4.2369409 3.9377999
6.0188918 5.589633 5.1949878
6.5284438 6.076992 5.4817472
6.5940599 6.1523719 5.3656988
6.8633561 6.4185481 5.393867
6.4102821 6.0088201 4.8480511
8.2602034 7.7609162 5.9886551
4.4874358 4.2260242 3.1072569
4.4958372 4.243793 2.9611969
4.4863181 4.2446661 2.799593
4.4906821 4.258698 2.643893
4.5979142 4.3705382 2.541877
4.7238088 4.5006561 2.4402609
5.5103559 5.262279 2.6466489
5.627593 5.3867402 2.4983981
8.4644327 8.1021681 3.757827
3.8372171 3.6815341 1.564262
3.803555 3.657737 1.413612
3.9125359 3.771292 1.314801
4.0641952 3.9265859 1.223013
3.6025641 3.4886899 0.96011102
3.5755401 3.470572 0.83267599
3.5333099 3.437556 0.70663297
3.622309 3.5323479 0.60877901
3.2396901 3.166575 0.44487801
3.543973 3.472044 0.381762
3.2704611 3.2115409 0.25955799
3.28036 3.22875 0.17218401
3.5053339 3.458215 0.094903
3.4578719 3.4193211 0.011656
3.2853 3.256223 -0.060759999
3.28339 3.261905 -0.12738401
3.3185289 3.304476 -0.189132
3.2373011 3.2310841 -0.237451
3.242312 3.2436171 -0.28353199
3.306644 3.323369 -0.36074001
3.2387691 3.2855401 -0.402199
3.235424 3.312782 -0.32506701
3.864805 3.957212 -0.388302
3.2146051 3.3067989 -0.239421
3.4183791 3.5245931 -0.198292
4.116107 4.2440009 -0.238766
3.3705931 3.4834039 -0.13340899
3.2716889 3.3890629 -0.061877001
3.4483869 3.5804081 0.011915
4.579814 4.7551508 0.015823999
3.6860521 3.8360851 0.102534
4.7168441 4.908834 0.131208
3.1589739 3.2952011 0.170764
3.3234451 3.474829 0.27227899
3.399585 3.5627179 0.378923
3.2903669 3.456284 0.46862701
3.4173119 3.5979829 0.59707201
3.48739 3.6803229 0.72678202
3.230052 3.416683 0.78570199
3.35197 3.5539 0.93528998
3.5987589 3.824451 1.136501
3.6848249 3.925034 1.302573
4.548986 4.8455281 1.60805
3.8750441 4.1379762 1.518669
4.481102 4.7963028 1.930847
4.3909841 4.7108111 2.0653541
4.3331771 4.6596241 2.2102439
4.2834649 4.6169019 2.3554859
4.212079 4.5505571 2.484597
4.1750679 4.5210862 2.6289649
4.1403761 4.4939742 2.7698679
4.1233821 4.48598 2.918431
4.0756192 4.4443598 3.0397379
4.0584178 4.4359279 3.1767581
4.0090661 4.3922262 3.281311
3.9573579 4.345695 3.373718
3.98225 4.3832531 3.5234449
3.9633169 4.3726001 3.627095
3.898315 4.3109312 3.6758859
3.931591 4.3579011 3.807271
3.903276 4.3467622 3.9426391
3.8704 4.3506422 4.0744772
3.8587821 4.3783631 3.9958811
3.8740849 4.416368 3.8937719
3.9360809 4.4975619 3.876929
5.1461349 5.8940191 4.948575
5.3177109 6.1048379 4.9759331
5.4246569 6.242229 4.9203472
5.9957032 6.8993392 5.4383049
5.166574 5.9592061 4.5271649
4.9012609 5.6797938 3.963939
7.8761411 9.1486921 6.0853271
8.6524782 10.121563 5.6884952
4.3742652 5.129003 2.7010691
5.0231161 5.9175949 2.6961961
5.0756388 5.9935579 2.5188589
4.408113 5.229897 1.832288
2.992583 3.558851 1.125024
2.9598811 3.5282669 0.99668598
3.9184501 4.6709099 1.3194669
3.6302471 4.3375931 1.082898
2.973016 3.5606911 0.77515298
3.145582 3.776269 0.70450503
2.9849551 3.591918 0.56195003
2.8418181 3.427762 0.437255
2.838001 3.4312551 0.34263399
3.381772 4.0983858 0.30088601
2.9621561 3.598351 0.174353
3.0165989 3.6731801 0.091608003
2.9780281 3.6348071 0.011263
3.1665649 3.874089 -0.065724999
3.0657461 3.7596519 -0.13351899
3.0354531 3.731338 -0.19425701
2.999933 3.6964321 -0.247146
2.880903 3.5582099 -0.28303799
2.837105 3.5207961 -0.34792799
2.870569 3.5963969 -0.40115699
2.7054341 3.4219849 -0.30623001
2.8313961 3.59846 -0.23771
2.8139119 3.584794 -0.184048
2.946563 3.762769 -0.131538
3.052619 3.9075511 -0.065133996
2.860235 3.6700599 0.011153
2.8192379 3.6261401 0.088524997
2.9109609 3.753098 0.17768
3.0090721 3.888905 0.27844101
3.0242541 3.9179261 0.38084099
3.627399 4.6993008 0.45679501
2.921838 3.794343 0.47028801
3.0447459 3.9634621 0.60137302
3.6520021 4.7539492 0.721313
2.990139 3.901756 0.704647
3.048558 3.9875641 0.83877403
3.1079199 4.0750051 0.98117101
3.2289021 4.2438521 1.154057
4.195323 5.5140519 1.4994709
4.1480708 5.4650998 1.660022
4.091661 5.4036779 1.815727
4.0864382 5.4098158 1.994343
4.5185652 6.0254159 2.8168449
4.4205971 5.9090738 2.9569681
4.5788121 6.1652241 3.678278
5.235023 7.0659099 4.4328942
5.5263858 7.477304 4.9127622
5.3647199 7.2762442 4.9881539
5.2465448 7.1332822 5.0827308
4.9806609 6.7882981 5.009315
5.5904002 7.6379032 5.8173852
3.7298739 5.1083841 4.000339
4.6344328 6.3472562 4.97049
4.735826 6.501976 5.217855
5.3588181 7.3933082 6.1623311
4.698895 6.6112442 5.5534439
4.673985 6.608654 5.3649859
4.7148218 6.6993279 5.1810908
5.0493679 7.1924348 5.4011102
3.897963 5.5660748 4.0429368
3.7275431 5.3358951 3.736131
4.2919712 6.1590972 4.142221
4.1498189 5.9698658 3.8415411
4.1642432 6.005497 3.683876
3.521069 5.090548 2.964653
3.509023 5.0857401 2.800832
3.5281191 5.1261511 2.658428
3.497514 5.094336 2.476042
3.5337009 5.1598701 2.3390219
3.586077 5.2494259 2.2082751
3.658088 5.368206 2.0833721
3.688894 5.426939 1.930282
3.7485261 5.5284772 1.789333
2.853868 4.2195349 1.232494
3.8263941 5.6574459 1.652496
2.80636 4.1596889 1.085948
3.062557 4.5508342 1.05018
3.5966539 5.34448 1.233327
2.831095 4.2174511 0.84882802
2.616091 3.9069541 0.673998
2.9083049 4.3542948 0.63004398
3.004549 4.5097141 0.53215301
2.6439431 3.9784589 0.36756799
2.6588831 4.011045 0.27250499
3.1306219 4.7346091 0.21233299
3.869184 5.8515768 0.26242599
2.5988121 3.9402721 0.090971999
2.8486309 4.3299689 0.012423
2.6864679 4.0938201 -0.064319998
2.574717 3.933485 -0.129392
2.520412 3.860292 -0.186187
2.7064309 4.1557312 -0.25746399
2.6593039 4.0937638 -0.30179599
2.928453 4.5310869 -0.415135
2.907094 4.5442119 -0.47028899
2.5738621 4.0647869 -0.337742
2.5278759 4.0127568 -0.246213
2.4740551 3.937448 -0.187801
2.4657831 3.934413 -0.12779699
2.5541511 4.0859599 -0.063294999
2.6284521 4.2157001 0.011908
2.9467299 4.7384362 0.107544
2.627363 4.2358398 0.186465
2.808131 4.5390272 0.30224299
2.893837 4.6897368 0.42403501
2.4615829 3.999608 0.46119899
2.533664 4.1274509 0.58273703
2.371438 3.8732691 0.65101099
2.6797099 4.3881979 0.85921198
3.3957729 5.5607972 1.0888079
2.5688131 4.2175961 0.94544399
3.794637 6.246541 1.581753
2.5661621 4.2353568 1.1981601
3.476784 5.738307 1.623336
3.5480621 5.8724518 1.837981
3.107368 5.1837678 2.0993381
3.421617 5.7230558 2.4938591
3.447165 5.7810349 2.6969781
2.8917899 4.8624701 2.4168251
3.1600599 5.3276262 2.8078511
3.0862761 5.217041 2.903312
3.018435 5.1159039 2.9942739
2.9711659 5.04917 3.09547
2.9390781 5.0079479 3.2040131
2.9029069 4.9594951 3.298548
2.8673339 4.9118052 3.383857
2.834707 4.868886 3.4626789
2.812 4.842803 3.5417221
2.7823999 4.804678 3.6015601
2.7330699 4.7448602 3.695385
2.5406001 4.4584808 3.5906079
2.6713641 4.7389898 3.7247059
2.6980619 4.8124518 3.656765
2.760324 4.936933 3.6690421
2.7506831 4.9331231 3.5721891
2.7401111 4.927619 3.465297
2.7878661 5.0272288 3.4201601
2.797482 5.058403 3.3179629
2.890547 5.2410569 3.302568
2.8778861 5.2324538 3.155268
2.8861971 5.2620401 3.0253329
4.3648138 7.9797678 4.3564801
5.6904578 10.432057 5.3865652
2.8161039 5.2056942 2.2136109
3.356107 6.22118 2.455353
3.211139 5.9690242 2.173768
3.400075 6.3378501 2.1156909
2.2987499 4.296926 1.30545
3.4465311 6.4424081 1.957269
3.4014471 6.3759179 1.748443
2.2763801 4.2789621 1.048932
3.191246 5.9986582 1.470493
2.2912791 4.319068 0.93604201
2.2954891 4.3391638 0.82031399
2.748868 5.1961861 0.982333
2.410486 4.569366 0.74054599
2.5889289 4.9214778 0.66910797
2.640245 5.0331988 0.55814999
2.6443551 5.0552902 0.438995
2.313751 4.4358101 0.28330299
2.3858459 4.5870042 0.193418
2.4811671 4.7838402 0.103864
2.3437631 4.5317798 0.012229
2.380013 4.6149902 -0.068208002
2.257838 4.3906059 -0.135885
2.6934969 5.2377911 -0.16210499
2.340205 4.5637951 -0.207129
2.292295 4.48317 -0.26140401
2.260864 4.4344082 -0.30772001
2.2130511 4.365643 -0.37662101
2.648087 5.2238321 -0.45065701
2.6220479 5.232604 -0.51024002
2.193836 4.4293008 -0.346986
2.675108 5.4009762 -0.42310601
2.4939041 5.0646768 -0.29308099
2.7495961 5.600337 -0.25196099
2.233582 4.562706 -0.13981999
2.317086 4.7472501 -0.069389999
2.3244569 4.7764091 0.012732
2.3616891 4.8672862 0.104269
2.289115 4.7316899 0.196633
2.240356 4.644649 0.29201001
2.254842 4.6885982 0.40032801
2.1871581 4.561408 0.49677399
2.309835 4.8316331 0.64437902
2.2091911 4.6349468 0.73600501
2.1882679 4.6048031 0.85196
2.199784 4.642931 0.98361498
2.0463459 4.3320851 1.036875
2.7234521 5.7655091 1.379962
4.7749648 10.2621 3.9315829
2.25178 4.8541279 2.001323
4.4306722 9.7281208 5.648088
4.3539162 9.6187668 6.0604472
2.2529809 5.0082712 3.3752351
2.1564569 4.8236222 3.4274139
1.875783 4.33006 3.2309411
2.2434621 5.1788092 3.864248
3.720037 8.6423254 6.2362232
2.0496559 4.7769852 3.3719051
2.10044 4.911068 3.378159
2.3663189 5.5327229 3.805774
2.102891 4.9326472 3.295646
2.2606831 5.31988 3.439079
2.917444 6.8653822 4.43818
2.8455131 6.7177649 4.1876521
4.5754609 10.872128 6.2325182
5.166358 12.356415 6.4148469
2.271663 5.5230508 2.0744009
2.8142469 6.8422232 2.5698681
2.9364941 7.163064 2.4828229
2.522229 6.2141309 1.622631
1.903006 4.704185 1.0982161
2.3875821 5.9218359 1.2224211
2.27826 5.6696539 1.021066
2.133034 5.3261061 0.82241899
2.177361 5.4551511 0.706738
2.1147871 5.3162942 0.56186301
2.0507801 5.172864 0.42817801
2.224731 5.6307311 0.34283599
2.068984 5.2543769 0.21124899
2.0438471 5.2082891 0.107833
1.8913929 4.8362932 0.012447
2.2342041 5.73247 -0.080816999
2.229784 5.7408409 -0.169506
1.999249 5.1650581 -0.223674
2.3494699 6.0698509 -0.26285601
2.327522 6.0339451 -0.33575001
2.198875 5.7202282 -0.378865
2.1523719 5.6383018 -0.46439001
2.22967 5.9232378 -0.551754
2.1870129 5.8927822 -0.44124299
1.929882 5.2372241 -0.289763
1.951342 5.314466 -0.22863699
1.965255 5.3716178 -0.157428
2.3310349 6.3714032 -0.186729
2.0465691 5.6140871 -0.078492001
1.9337029 5.3236742 0.013576
1.95234 5.3945141 0.11057
1.912197 5.3028212 0.210875
2.1562641 5.9796572 0.237791
1.829379 5.0916672 0.30636999
1.864011 5.2070689 0.425569
2.1209991 5.946703 0.62001401
1.975741 5.5598249 0.70996398
1.947224 5.4998288 0.83632499
1.9594541 5.5548592 0.98431098
2.1804891 6.2275481 1.427977
2.6903911 7.712534 1.976317
2.7023411 7.7755451 2.205163
3.217788 9.3285532 3.1647589
3.7084861 10.79177 3.9637389
1.896937 5.5410638 2.19049
2.1567259 6.3239222 2.6772649
3.489773 10.232665 4.3320508
2.366889 6.9666409 3.143208
2.2430601 6.6274352 3.1715789
2.6505859 7.8616352 3.9737489
2.4023731 7.1528769 3.803611
1.993169 5.9574261 3.3192451
2.167598 6.5039191 3.782784
2.2265191 6.7066779 4.0562282
2.2282231 6.7380161 4.2224069
2.0388861 6.213872 4.136107
2.344609 7.173779 4.8956838
1.890451 5.830039 4.1361899
1.611498 5.131928 3.6829
2.218056 7.150692 4.8565011
2.0977719 6.8472042 4.2607551
2.4066229 7.8880138 4.7337599
3.3325579 10.968585 6.3254142
2.0199759 6.6763058 3.6855061
2.3218589 7.6740708 4.2363
2.28828 7.594954 3.998518
2.1783471 7.2606068 3.63076
2.7088759 9.0671616 4.2895999
2.80072 9.4145041 4.1960511
2.813657 9.4983549 3.969404
2.2719679 7.7357202 2.800539
3.0274711 10.397392 3.1855299
3.0430701 10.496444 2.927624
3.0060771 10.41407 2.6225469
1.722465 6.0197001 1.198728
1.739223 6.1050739 1.060788
1.720551 6.0662699 0.90386599
1.669508 5.912497 0.739232
1.664459 5.9209099 0.60398602
1.659031 5.9280291 0.47367299
1.568084 5.6282821 0.33085001
1.53117 5.520587 0.214315
1.502912 5.4432821 0.108835
1.7014591 6.190412 0.015388
1.695181 6.1957259 -0.084376
1.727406 6.342485 -0.180924
1.6267329 6.0003319 -0.251073
1.668337 6.1822228 -0.332432
1.695683 6.312746 -0.404102
1.782591 6.6983728 -0.53336197
1.674697 6.4127951 -0.57780802
1.736176 6.7769232 -0.49110201
1.752291 6.9065809 -0.36991599
1.6363471 6.4811721 -0.26995799
1.5803241 6.29006 -0.17850301
1.552608 6.210309 -0.084086999
1.651742 6.6396122 0.016399
1.661974 6.7140741 0.13330799
1.344789 5.4598918 0.210352
1.386194 5.6562891 0.32977599
1.422628 5.8343072 0.46208799
1.467438 6.0485988 0.61121798
1.594838 6.6072192 0.81783801
2.5093169 10.449077 1.540404
1.658723 6.9426231 1.1928101
1.396809 5.876574 1.15642
1.560423 6.5990362 1.467531
1.949214 8.2862129 2.0595651
2.161428 9.2360039 2.5410349
2.0029171 8.6036711 2.5985439
2.2283821 9.6228056 3.1678131
2.121171 9.2575636 3.552146
1.797593 7.9299278 3.4735961
1.514396 6.7533512 3.314986
1.438197 6.448597 3.330523
1.749669 7.93186 4.4818501
1.550856 7.9965038 4.6755152
2.079061 10.78709 6.0616331
2.0657761 10.853784 5.5694761
1.786764 9.4475193 4.605299
1.8776309 10.055856 4.3700838
1.87234 10.09243 4.1129751
1.319695 7.1598468 2.7229619
1.775853 9.6978979 3.4246311
1.7417949 9.5746212 3.121088
1.546067 8.555088 2.5573421
1.24389 6.9290152 1.885851
1.76703 9.9092569 2.4353571
1.698491 9.5892897 2.1075931
1.123147 6.3842282 1.2410361
1.1535029 6.6933422 0.81724101
1.080984 6.3163419 0.62929899
1.124081 6.6143298 0.51625299
1.1489691 6.8086739 0.39100501
1.162571 6.938355 0.263174
1.085366 6.524106 0.127469
1.058761 6.4101319 0.015573
1.124367 6.8568268 -0.091271996
1.122655 6.8965759 -0.192314
1.083559 6.7054791 -0.27431601
1.2757879 7.8950658 -0.32298201
1.238181 7.7770171 -0.486848
0.89626801 5.8936291 -0.51970601
1.083915 7.3572831 -0.52205497
0.97932899 6.756197 -0.35441399
0.997881 6.9409189 -0.28319401
1.008599 7.073751 -0.196661
0.927414 6.6142788 0.016008999
0.93188 6.7603011 0.25528601
0.98187101 7.1846008 0.41062301
0.98612702 7.27879 0.56520098
0.924344 6.882803 0.68197697
1.034291 7.7014799 0.76309401
1.0441279 7.8437352 0.95211399
1.1960239 9.1472235 1.541571
1.270215 9.9851046 2.4353571
1.385864 10.995251 2.9687669
0.88444197 7.1510172 2.3108881
1.158481 9.4568911 3.3094599
1.180866 9.7333107 3.667048
1.159814 9.8468466 4.4943771
0.83126998 7.928895 5.3802919
0.75593603 7.9198718 5.4472342
0.83037603 9.1492472 5.8102188
0.87454301 10.300627 5.4621539
0.82368201 10.12008 4.6025462
0.61776 7.7008362 3.300348
0.76269603 9.5075674 4.0746589
0.87166703 11.026681 4.4321041
0.76789403 10.010167 3.487303
0.69369698 9.1828251 2.953429
0.70528799 9.4829264 2.7972159
0.72927701 9.962142 2.675849
0.74450499 11.051729 1.587797
0.594477 8.9804277 1.082925
0.526411 8.0948811 0.79661697
0.52832001 8.2726431 0.63785499
0.48516199 7.7383852 0.43906
0.49660701 8.0710802 0.30250001
0.55733502 9.8014488 -0.27020201
0.25737199 5.549963 -0.484359
0.270044 8.0449743 0.155141
0.265645 8.1979599 0.30683699
0.24614701 8.1840954 0.63002998
0.253144 8.755208 0.86014301
0.24735001 8.9132528 1.07289
0.27097499 10.192181 1.461511
0.20196199 9.7172031 2.6036551
0.186588 9.5082474 2.797498
0.17103299 9.885066 3.4341469
0.149405 9.2555447 3.462116
0.14022499 10.145917 4.3347268
0.142979 11.292955 5.1194448
0.124002 11.992736 6.0457149
0.103645 11.290342 5.965764
0.028263999 8.3661566 5.2912021
-0.088293001 9.4084988 6.4421082
-0.117551 8.3814392 5.3013582
-0.201157 10.775358 5.9466519
-0.268213 12.778155 6.4427309
-0.24687099 10.08777 4.3107629
-0.27158701 10.59533 4.2468748
-0.253272 9.4528618 3.5367329
-0.26538101 9.114666 2.924417
-0.285303 9.423255 2.7732289
-0.30073801 9.5658197 2.5638061
-0.42164201 10.35179 0.79720402
-0.436398 10.135514 0.379509
-0.30672699 5.7308321 -0.44160399
-0.29995099 5.155694 -0.45022699
-0.37810099 6.0172949 -0.423246
-1.310392 15.851987 3.8484571
-1.437797 16.916698 4.9941821
-1.033069 9.0348454 6.2262979
-2.12306 14.170177 0.27615499
-0.97891998 6.236587 -0.39028099
-0.84441799 5.2992821 -0.41291001
-0.781205 4.760025 -0.420524
-0.94726199 5.6085701 -0.399297
-2.420454 13.653539 0.267252
-1.642952 6.1993499 -0.33295
-1.485129 5.5776472 -0.356837
-1.280172 4.7633939 -0.37953699
-1.178369 4.3047018 -0.38908499
-1.404574 5.0390329 -0.36722401
-1.694177 6.0238681 -0.324862
-1.140784 -3.5596509 2.1455989
-1.4919651 -4.8275599 1.755136
-1.52439 -4.952734 1.661934
-1.675395 -5.4657798 1.6816601
-1.662488 -5.4461288 1.5253969
-1.361763 -4.479497 1.132784
-1.631458 -5.3666549 1.357131
-0.96711302 -3.1945479 0.72234398
-1.7161649 -5.6688032 1.281816
-0.99507201 -3.3006549 0.66000599
-0.950652 -3.166533 0.55247998
-1.098985 -3.6760211 0.54998201
-1.233982 -4.1450248 0.52037698
-1.141055 -3.8491189 0.394252
-1.023261 -3.4664409 0.27811199
-0.989097 -3.365027 0.198612
-1.085188 -3.7077529 0.144521
-1.027748 -3.526613 0.070796996
-1.030552 -3.551491 0.0088640004
-1.43325 -4.9606538 -0.067827001
-1.140241 -3.96369 -0.113517
-1.12499 -3.9277339 -0.165001
-1.030031 -3.611943 -0.19498999
-1.072986 -3.7791281 -0.242869
-1.026143 -3.6461599 -0.291462
-1.0575531 -3.8254559 -0.346008
-1.040994 -3.8344259 -0.27891901
-1.082572 -4.0243211 -0.21635
-1.044125 -3.8993371 -0.16302399
-0.96799302 -3.631789 -0.103448
-1.08997 -4.1085091 -0.055835001
-1.021746 -3.86936 0.0095920004
-0.95177197 -3.6213191 0.072164997
-1.023986 -3.914453 0.151362
-0.96219999 -3.695678 0.216251
-1.06968 -4.128056 0.328134
-0.964284 -3.7390859 0.37920201
-0.95792401 -3.7322359 0.463633
-1.017404 -3.983094 0.58928698
-0.89447099 -3.518748 0.60670602
-0.90760797 -3.5877669 0.70851898
-0.79502499 -3.1580751 0.70478702
-1.389146 -5.5180998 1.231474
-1.418806 -5.6635251 1.412629
-1.2930321 -5.1867762 1.4319839
-1.257012 -5.0672212 1.53576
-3.1552789 -12.910865 4.9709029
-1.02012 -5.2072048 1.560876
-1.510538 -7.7105422 2.311259
-1.047088 -5.377831 1.467693
-1.15907 -5.9898529 1.476124
-1.114274 -5.7942352 1.276951
-1.1642489 -6.092103 1.187446
-1.1654249 -6.136704 1.043812
-0.72599697 -3.847079 0.56119198
-0.94792598 -5.0230889 0.73274201
-0.73028898 -3.894541 0.47677401
-0.97416401 -5.2284379 0.522282
-0.68042701 -3.675499 0.287626
-0.700387 -3.8079219 0.219248
-0.65529901 -3.5860691 0.136372
-0.67184299 -3.7008131 0.072493002
-1.008479 -5.5551538 0.108816
-0.71951401 -3.9896269 0.0097169997
-1.03206 -5.7226639 0.013938
-0.65753698 -3.670243 -0.048978999
-0.690404 -3.879555 -0.108455
-0.65814197 -3.723196 -0.152694
-0.651766 -3.712141 -0.195664
-0.650365 -3.72949 -0.234045
-0.86315298 -4.9497108 -0.31062001
-0.65459698 -3.8056979 -0.29713899
-0.61164498 -3.657141 -0.32325301
-0.792247 -4.73699 -0.41870001
-0.60976201 -3.752424 -0.266875
-0.78933698 -4.9294801 -0.25917399
-0.76021802 -4.7830138 -0.19558901
-0.923334 -5.8092852 -0.237555
-0.937428 -5.942234 -0.165572
-0.82595599 -5.27527 -0.070138
-1.184798 -7.5671482 -0.10061
-0.62415898 -4.0167842 0.0097430004
-0.79935402 -5.1442509 0.012478
-0.619856 -4.0197339 0.078388996
-0.59872198 -3.912688 0.148073
-0.610452 -4.0204039 0.230272
-0.83661699 -5.5099182 0.31558499
-0.63082701 -4.1872301 0.32583201
-0.81694198 -5.4225969 0.42196301
-0.572164 -3.827857 0.380081
-0.748124 -5.005053 0.49696901
-0.77756202 -5.2434258 0.63780898
-0.82336801 -5.5969362 0.81092602
-0.91665399 -6.281446 1.060788
-1.118045 -7.6614909 1.2938451
-0.91540903 -6.324038 1.223361
-1.113377 -7.6916862 1.487927
-1.104648 -7.694159 1.682225
-0.84511203 -5.9351568 1.450491
-1.095439 -7.6931872 1.8801351
-0.80770302 -5.7195802 1.547392
-1.0765049 -7.6871228 2.2833209
-3.2127171 -23.53476 8.8838692
-2.247129 -23.520227 10.093543
-2.134191 -23.483225 7.5623789
-0.69095802 -7.7014608 2.2745731
-0.684865 -7.7339721 2.079922
-0.48070499 -5.5007162 1.335966
-0.46208999 -5.432364 1.043787
-0.47201601 -5.6259489 0.94343603
-0.470303 -5.6842761 0.81759501
-0.64807498 -7.8328972 1.12664
-0.45801401 -5.614717 0.67782903
-0.40730399 -5.065207 0.49902201
-0.39518899 -4.986578 0.38490701
-0.48073301 -6.0659928 0.46822599
-0.42570499 -5.4516439 0.30964899
-0.36675099 -4.76757 0.178876
-0.44462401 -5.7798691 0.216857
-0.58311599 -7.6965089 0.148762
-0.373319 -5.0040798 0.012028
-0.57121199 -7.6567001 0.018402999
-0.56298602 -7.6656909 -0.100965
-0.382521 -5.2921839 -0.146038
-0.54985601 -7.6072659 -0.209922
-0.365899 -5.1448011 -0.20829999
-0.392317 -5.6077232 -0.29183701
-0.394182 -5.7294922 -0.35504699
-0.36329401 -5.4647479 -0.421426
-0.46276799 -7.4832668 -0.65362799
-0.424326 -7.4175892 -0.52156401
-0.28635699 -5.2171111 -0.271254
-0.30037299 -5.590373 -0.22609501
-0.262927 -5.0011969 -0.137839
-0.252601 -4.9130859 -0.064622
-0.25914699 -5.156477 0.012375
-0.266673 -5.431447 0.104808
-0.26725599 -5.5746942 0.208782
-0.25382099 -5.425365 0.30755699
-0.296204 -6.4920349 0.50006503
-0.22230101 -4.9989891 0.49139801
-0.207894 -4.7998471 0.57807797
-0.23401301 -5.5512762 0.79645199
-0.226464 -5.5237031 0.92382199
-0.854864 -23.500298 6.299541
-0.82730198 -23.489613 6.9140229
-0.80098897 -23.5159 7.5461931
-0.72153699 -23.587053 9.4556017
-0.694875 -23.607908 10.089614
-0.66898102 -23.657557 10.728128
-0.64156902 -23.656763 11.335056
0.40606901 -18.942976 2.7159979
0.175576 -7.7709508 0.93527001
0.18404999 -7.749527 0.76123798
0.19224299 -7.7187819 0.59412402
0.20076799 -7.7030401 0.43634701
0.208362 -7.654809 0.28646299
0.216847 -7.6415038 0.14733601
0.22447699 -7.6006641 0.018226
0.233146 -7.5967679 -0.099835999
0.241832 -7.5932732 -0.209097
0.249144 -7.5487332 -0.30502501
0.26627201 -7.538897 -0.466362
0.28305799 -7.5214262 -0.57916403
0.31340799 -7.4152298 -0.64702702
0.46045899 -7.5722942 0.91281098
1.799735 -26.557533 7.130681
0.76511902 -8.1971197 5.7605672
0.95835799 -9.3347073 5.934762
0.68626499 -6.463944 3.7311521
0.98763299 -7.761981 0.94148201
0.99415803 -7.7418828 0.76651502
1.001617 -7.7293329 0.59972501
1.004796 -7.6841688 0.43883401
1.0153641 -7.695878 0.29038799
1.0195071 -7.659009 0.148917
1.026006 -7.6403961 0.018478001
1.035544 -7.644515 -0.101333
1.0404201 -7.614337 -0.211518
1.050797 -7.6246581 -0.310835
1.05601 -7.5976329 -0.39822301
1.0643311 -7.5931311 -0.474013
1.071021 -7.5146222 -0.58407402
1.109741 -7.5368428 -0.66413701
1.1558011 -7.6057491 -0.540052
1.177568 -7.630271 -0.40081599
1.189 -7.6457939 -0.31248999
1.200978 -7.6645398 -0.213526
1.215492 -7.6989689 -0.102384
1.229035 -7.7268429 0.018753
1.2341 -7.7012992 0.150323
1.2493581 -7.7393231 0.29326701
1.2590801 -7.7427292 0.44420499
1.268895 -7.7465601 0.60402101
1.282282 -7.7720389 0.773552
1.286544 -7.7422242 0.94434899
1.8671269 -10.145117 5.1999178
1.596862 -8.4565401 5.1202688
1.333109 -6.9713058 4.4888892
1.229399 -6.388855 4.220324
1.476375 -7.3952961 5.2766972
1.527523 -7.471261 5.2212539
1.487372 -7.0663199 4.4381781
1.816473 -8.531888 5.007062
1.922675 -8.8792181 4.5796371
5.2632942 -23.774332 9.7568779
5.349329 -24.031239 9.2079058
5.3758392 -24.019156 8.5496016
5.4004259 -23.998764 7.8891459
5.4205341 -23.958731 7.2258601
5.3792052 -23.648787 6.4969749
1.84972 -7.837956 0.79084998
1.855315 -7.8211942 0.61852199
1.863881 -7.8169861 0.45506001
1.86669 -7.7888331 0.299622
1.8762029 -7.788722 0.15440799
1.885789 -7.7889428 0.019208999
1.89842 -7.801652 -0.10547
1.917819 -7.841835 -0.222193
1.934631 -7.8711238 -0.32734001
1.954914 -7.9141502 -0.42321301
1.963696 -7.9103451 -0.503878
2.0014961 -7.983604 -0.63332897
2.055728 -8.0419264 -0.72362798
2.1761439 -8.1580162 -0.110908
2.1994801 -8.1695251 0.16305999
2.2430141 -8.2930098 0.32137901
2.2563319 -8.3041363 0.487286
2.2668259 -8.304738 0.66240603
2.280386 -8.3165436 0.84685099
2.291394 -8.3189573 1.038246
2.312387 -8.357358 1.242994
2.322155 -8.3550549 1.4491071
2.3401999 -8.3823986 1.666185
2.3495319 -8.3783522 1.88317
6.678453 -23.709644 5.9597578
6.7965021 -24.022797 6.6879411
6.8262272 -24.021879 7.3460789
6.922461 -24.148033 8.7258043
2.5714791 -8.8161812 4.1628518
1.923591 -6.566658 3.2774041
2.3076999 -7.877912 3.931848
2.8630631 -9.6496267 5.5538802
3.1761179 -10.570193 6.7834592
2.590553 -8.4789906 5.9833231
2.7165749 -8.5370464 5.937892
7.8186469 -23.993538 13.924316
3.1136739 -9.4806414 5.0302191
8.0385504 -24.286655 11.596369
2.839632 -8.5132666 3.5959699
3.282249 -9.690752 3.009717
2.872133 -8.3525686 1.6910059
2.878222 -8.3389339 1.474159
2.8853109 -8.3282623 1.2634259
2.894135 -8.3225908 1.060227
2.896589 -8.2987309 0.86317199
2.9059441 -8.2947178 0.676292
2.90855 -8.2714777 0.496501
2.915415 -8.2604923 0.327696
2.921798 -8.2481613 0.168649
2.930522 -8.2425184 0.020967999
2.9431579 -8.2478571 -0.115032
2.9457681 -8.2250967 -0.24046101
2.955332 -8.2218637 -0.352842
2.970372 -8.2338095 -0.45442399
2.9744861 -8.2154226 -0.54016101
2.97838 -8.1671753 -0.66892701
3.023972 -8.1745481 -0.75984502
3.0710549 -8.1853323 -0.61372101
3.0937641 -8.1882439 -0.45442399
3.1112471 -8.2058277 -0.35441601
3.121376 -8.2039394 -0.24158899
3.139627 -8.2232714 -0.115623
3.1526079 -8.2287283 0.021121001
3.1676469 -8.2394361 0.170132
3.1820071 -8.2483253 0.330724
3.1937051 -8.2502489 0.50096798
3.210114 -8.264226 0.68220001
3.2238381 -8.2712317 0.871773
3.244122 -8.2949371 1.071696
3.2530661 -8.2895222 1.276481
3.270066 -8.3046131 1.491466
3.291446 -8.3306627 1.714887
3.6408601 -9.1839275 2.138052
3.661763 -9.2055969 2.3970251
3.63817 -9.1157322 2.629272
3.686595 -9.2061281 2.9171529
3.7180691 -9.2536612 3.1983521
3.7149301 -9.2150297 3.4512091
3.696136 -9.1379242 3.6866651
3.6875169 -9.0863323 3.929234
3.865387 -9.4930954 4.378727
3.9105411 -9.5722828 4.6871819
3.958509 -9.6577387 4.9992609
4.1156659 -9.9102383 6.159513
4.1649761 -9.9962759 6.4430308
4.2077241 -10.06607 6.70544
4.2566252 -10.150055 6.9610381
4.420958 -10.307029 7.8473959
10.807667 -24.111332 13.319389
10.971922 -24.402134 12.815007
11.024613 -24.293528 10.689718
4.2014132 -9.0349388 1.9076231
4.2021861 -9.0093393 1.661231
4.1900482 -8.9562626 1.417382
4.1977801 -8.9457874 1.189007
4.2041988 -8.9325895 0.96950501
4.2453022 -8.9929161 0.76521099
4.1030531 -8.5629091 -0.124725
4.075387 -8.429965 -0.486101
4.1590581 -8.5776758 -0.58933902
4.1719012 -8.5537128 -0.73229802
4.339313 -8.7934198 -0.85485798
4.3519111 -8.7170734 -0.68395799
4.246532 -8.4569597 -0.49128601
4.3502488 -8.6385851 -0.39061201
12.696597 -24.227482 6.617981
4.7701612 -9.051486 3.009717
4.794076 -9.0713577 3.29058
4.7897081 -9.0377531 3.552928
4.702806 -8.8490076 3.7479701
4.620254 -8.6694098 3.936301
4.4050779 -8.2426558 3.992553
4.654995 -8.6860914 4.4671292
4.6501608 -8.6529675 4.7050848
5.3713398 -9.3865042 6.6467948
5.3449588 -9.3153734 6.3898549
3.3258801 -5.7809429 3.828227
4.8538818 -8.4368687 5.5870209
4.8921332 -8.4806004 5.4021821
4.3719978 -7.5587101 4.6137729
5.226078 -8.89219 3.8576169
5.2553148 -8.4202356 -0.76375401
5.3137689 -8.4267178 -0.86849302
5.409699 -8.4914227 -0.70678699
6.13061 -9.5253677 -0.31177399
9.3385839 -14.326746 0.968409
9.3829145 -14.358349 1.3198251
6.2726932 -9.1982126 5.6122389
6.3519912 -9.2682543 6.1998038
5.5000072 -7.9655738 5.949337
5.2161422 -7.517118 5.9351192
4.6459632 -6.5324488 5.4884748
4.3843231 -6.1194048 4.8831668
6.6881862 -9.2441931 6.549305
5.2856412 -7.2700858 4.7492528
6.0956249 -8.3231668 4.6764479
6.1713848 -8.4061356 4.4549398
6.5785232 -8.9173174 4.1445212
7.1093602 -9.2274933 -0.32060599
6.6096902 -8.4769001 -0.82712501
6.7475271 -8.5714054 -0.95099998
6.9048228 -8.6880445 -0.779055
7.3460088 -9.1774721 -0.474747
7.3492122 -9.1597004 -0.323219
11.624155 -14.350927 0.69086897
10.039638 -11.879804 7.449862
5.1950979 -6.0331392 5.1645222
6.4252172 -7.2554979 6.4235091
5.8446779 -6.5387292 5.2179298
10.3708 -11.468102 7.4057999
6.5981479 -7.2624202 4.1917291
13.291719 -14.227893 2.3427739
8.9627943 -9.3742809 -0.67331398
9.1191521 -9.5157328 -0.814807
8.5825233 -8.914402 -0.95218003
8.3617105 -8.6049747 -1.046013
9.4540482 -9.6394424 -0.94782102
9.552763 -9.6951056 -0.706599
9.316288 -9.4332619 -0.535438
9.1392775 -9.2326479 -0.357555
13.370893 -13.32122 1.4523211
10.859799 -10.474239 6.4455199
7.134501 -6.6300201 6.8148742
6.4495921 -5.8829479 5.5210452
7.8166552 -6.9817629 4.4773331
11.276853 -10.048893 6.0523
10.33762 -8.6261873 -1.173768
11.420328 -8.2540836 6.3873339
12.211732 -7.7511969 3.8746901
8.0848608 -3.8433721 5.661623
8.0519094 -3.8162501 5.7800202
8.0256453 -3.7810321 5.9872389
7.8567801 -3.6570101 6.0638452
7.846034 -3.6078091 5.9127512
7.9389901 -3.6282549 5.7854118
8.0070086 -3.6481221 5.7076411
8.0812626 -3.6706431 5.6135168
10.453015 -3.7983069 5.0414152
10.411932 -3.769697 5.3038039
7.9310679 -2.861088 4.2501411
7.849577 -2.821408 4.4072838
7.739284 -2.771621 4.5359588
7.6725731 -2.7376959 4.676013
7.5638518 -2.6890049 4.7761569
7.4444218 -2.636826 4.85393
7.5012279 -2.647161 5.0308909
7.9058681 -2.7796381 5.4360809
7.7196651 -2.6940689 5.5179038
7.1904368 -2.4719939 5.3202691
7.5996728 -2.5733161 5.4935598
7.8941069 -2.6526079 5.5196772
7.8736968 -2.635592 5.386014
7.4250922 -2.475857 4.9501791
7.6954908 -2.5560939 4.9837871
7.744483 -2.5623989 4.8533649
7.4824672 -2.466084 4.5221872
7.7505841 -2.544476 4.5011749
7.9869261 -2.611809 4.4399862
7.920846 -2.5800231 4.199276
10.483093 -3.401171 5.278749
11.467063 -3.7204139 5.7742262
10.347104 -3.3437929 4.9291172
10.918514 -3.5144539 4.9000411
11.86598 -3.804244 4.9929981
11.708076 -3.7386529 4.5967708
13.167025 -3.361069 4.3582239
12.94321 -3.2879541 4.63869
8.315177 -2.102036 3.2077911
8.2630072 -2.0786431 3.414089
8.2276173 -2.059598 3.6232729
12.109676 -3.0164649 5.6569872
8.6541595 -2.1450419 4.2705169
9.6781359 -2.3869381 5.024817
10.700986 -2.626045 5.821876
8.9692507 -2.1900339 5.094439
8.8667507 -2.154114 5.2375522
8.7853479 -2.112757 5.5534821
6.4909968 -1.553036 4.2210951
6.3888092 -1.520745 4.2600508
6.2657061 -1.476096 4.3442869
7.8196268 -1.8421741 5.4216881
6.2967739 -1.452598 4.5216551
6.2191658 -1.404333 4.3653569
9.4747076 -2.1163599 6.4345579
6.4765358 -1.438777 4.303587
9.1314478 -2.017462 5.9144511
5.9761791 -1.313074 3.760617
8.9700928 -1.970891 5.6445918
8.9264889 -1.950462 5.4362602
6.152884 -1.336948 3.6141651
6.008718 -1.291026 3.2472999
9.5525398 -2.0408449 4.9239879
8.7108326 -1.850459 4.2653332
8.4515114 -1.78513 3.91555
8.3706217 -1.757894 3.6539149
8.6967726 -1.815861 3.5598919
8.4747591 -1.759251 3.2372169
12.151401 -2.47839 3.6480639
11.999162 -2.4328301 3.279798
12.898184 -2.583977 2.846858
16.39163 -3.2640481 3.199805
8.9185181 -1.307031 2.8908241
11.934807 -1.7207839 4.5098948
9.0108042 -1.288507 3.6472991
9.0193348 -1.279045 3.8915901
9.0002661 -1.265686 4.119915
11.597862 -1.6172349 5.608779
6.1723762 -0.85338902 3.141017
5.7376418 -0.786497 3.0599649
5.9264612 -0.805363 3.300153
5.6951609 -0.76719898 3.298548
5.6928148 -0.76014799 3.4170921
6.1731019 -0.81698698 3.827117
7.0155592 -0.92019898 4.4749908
6.1314888 -0.79699099 4.0108042
6.011323 -0.76718497 4.0897598
6.112998 -0.75131398 4.3095322
5.90312 -0.69770402 4.0698891
6.1785321 -0.71570599 4.1224928
6.1486559 -0.70501298 4.0146132
6.098382 -0.69207799 3.881676
6.8768458 -0.78042299 4.3771749
6.1829472 -0.69439697 3.8239751
6.0874372 -0.676516 3.644114
5.9199381 -0.65094602 3.4185219
6.174777 -0.67170501 3.427212
5.7932191 -0.62339503 3.0786519
6.4118671 -0.68242902 3.2503991
8.3683567 -0.88084 4.0303378
11.476219 -1.207969 5.5271358
12.131905 -1.220042 4.560339
12.25482 -1.218017 4.2777538
11.66294 -1.14552 3.7584381
6.3794322 -0.28398401 1.545027
12.053281 -0.52266401 3.2319269
11.594028 -0.48926699 3.413552
12.130689 -0.49779001 3.8937261
11.315427 -0.438025 4.2352509
10.834379 -0.406793 4.3443251
10.670436 -0.388235 4.5614028
6.4981441 -0.213764 3.2774069
6.2541041 -0.198469 3.306164
6.4673481 -0.197712 3.570214
6.397768 -0.188152 3.673903
5.9051309 -0.166795 3.5147531
6.5670071 -0.177862 4.037611
6.3939972 -0.165749 4.045238
5.5605421 -0.137677 3.6080911
5.7254229 -0.12846 3.864882
5.418272 -0.096385002 3.7918379
5.5237422 -0.0726 3.782331
7.342988 -0.096510999 5.0280418
5.7010541 -0.061685 3.7788601
5.523397 -0.053351 3.5830569
6.1060362 -0.051890999 3.8618979
