# .PCD v0.7 - Point Cloud Data file format
VERSION 0.7
FIELDS x y z
SIZE 4 4 4
TYPE F F F
COUNT 1 1 1
WIDTH 1557
HEIGHT 1
VIEWPOINT 0 0 0 1 0 0 0
POINTS 1557
DATA ascii
3.426795 -8.6206932 -0.80874097
3.4753549 -8.6263552 -0.65286601
3.3798449 -8.3335886 -0.466867
3.4104869 -8.381299 -0.36543199
4.0899858 -9.8869438 0.40025601
5.8793378 -14.073952 1.497847
3.682586 -8.786788 1.146359
3.69941 -8.798336 1.368144
3.714648 -8.8060608 1.597116
3.7294011 -8.8125629 1.832033
3.7328291 -8.7922831 2.067193
3.7271969 -8.7508717 2.3013141
3.759681 -8.7990446 2.563288
3.7762821 -8.8096619 2.81951
3.7628751 -8.7503633 3.0548191
10.314631 -23.909821 9.0450687
10.23015 -23.63872 9.6335325
10.58145 -24.067163 13.25277
10.479119 -23.759733 13.72079
2.587126 -5.7930532 3.8993759
2.6111619 -5.5842891 3.998831
3.662688 -7.6933351 4.50212
3.7269781 -7.8050542 4.359973
4.0405841 -8.4366798 4.4804568
4.2228689 -8.7911539 4.4208889
4.2783761 -8.8803225 4.210979
4.285408 -8.8425093 3.6751051
7.009243 -14.046018 1.888817
4.9199238 -9.7459307 0.40840501
4.32442 -8.4443836 -0.383147
4.2903738 -8.3540525 -0.487553
4.2350302 -8.2228241 -0.57181501
4.4789019 -8.6470938 -0.74932998
4.4171448 -8.4319763 -0.82984501
4.4966278 -8.487833 -0.67429399
4.4283328 -8.3123131 -0.48895299
6.8773651 -12.385966 3.427748
9.2277088 -16.439283 6.5483732
4.8533802 -8.5764179 4.2097998
5.091321 -8.782074 6.420105
4.629353 -7.963932 5.97539
4.4277272 -7.5766482 5.922349
4.4717612 -7.4917922 5.9737659
4.7076931 -7.8457069 6.0644069
5.1833601 -8.6158209 6.5223179
5.4245191 -8.9461699 6.2247009
8.3687687 -13.552798 6.8045869
8.229558 -13.190301 4.9861069
8.9745598 -14.05604 1.637702
5.8852191 -9.1008663 0.025977001
5.4387259 -8.325592 -0.51627499
5.4742951 -8.3588648 -0.61772299
5.4632292 -8.2999811 -0.76459801
5.6112151 -8.4394073 -0.88351798
5.6177068 -8.3648806 -0.70734698
5.6723938 -8.4041824 -0.52638501
6.1291742 -9.0583143 -0.441699
6.127182 -9.0328264 -0.30041099
6.0843401 -8.9473257 -0.142129
9.659358 -14.064042 0.96614802
5.7322912 -8.0040236 4.7154522
9.1624651 -12.762359 7.9196129
5.0043092 -6.640296 5.3936329
9.097312 -11.898456 7.9138641
9.3288336 -12.172001 7.730557
9.4971638 -12.244166 5.7955332
11.23098 -14.071288 1.385344
11.260813 -14.041825 0.67333603
7.3797159 -9.0938396 -0.47297201
6.8931508 -8.454155 -0.67436802
6.9535089 -8.4879847 -0.84430999
7.0301032 -8.5008316 -0.96168202
6.9598851 -8.336998 -0.762389
7.5324502 -8.9804831 -0.60850799
11.932153 -14.05982 0.35541099
7.4569302 -8.483407 4.2243919
6.5844402 -7.4732962 3.990977
10.039211 -11.235782 8.3139114
6.4907908 -7.2474928 5.5845318
11.168482 -11.986198 10.62727
9.6435518 -10.229978 7.7573638
9.632555 -10.1946 7.4107208
6.9557052 -7.3444571 5.0990891
9.9807024 -10.514071 6.9435859
7.0855999 -7.4469409 4.6595211
12.354199 -12.774819 4.7606878
12.486772 -12.852122 3.878022
12.624982 -12.934178 3.0203459
12.620502 -12.899627 2.586874
12.696851 -12.947554 2.181977
13.085407 -13.189836 0.358089
8.8035707 -8.8122711 -0.34283599
8.6987267 -8.6670284 -0.63748902
8.3988066 -8.3487883 -0.73212302
8.490159 -8.4005365 -0.91903597
8.5475607 -8.3791733 -1.043494
8.5576849 -8.3115807 -0.83745801
9.2630472 -8.9342155 -0.51973999
9.3077002 -8.9564734 -0.355519
9.3294754 -8.956584 -0.169882
12.490459 -11.770399 2.4601619
8.6693249 -7.9818521 4.7218499
10.122705 -9.2120781 7.2317948
9.9893398 -9.0695257 7.4447889
7.444068 -6.4650989 6.2356958
7.6113009 -6.5948501 6.1896768
10.318036 -8.87743 7.5104928
12.013949 -10.167951 5.8866138
10.531509 -8.4415092 -1.0385669
10.625744 -8.4363317 -1.182801
10.751869 -8.4554272 -0.96021599
11.596613 -9.0762663 -0.76450998
10.309592 -7.6716509 5.1492162
10.999147 -7.5488739 6.0471382
13.121387 -8.4353142 -1.200294
12.421563 -7.505497 3.140872
15.838541 -9.4454689 6.4056392
15.842422 -9.4229183 6.8941059
16.343538 -8.5523014 2.2194891
11.091474 -3.7581151 4.6924658
11.011567 -3.7167971 4.9648619
9.7807798 -3.276072 4.9405122
9.7114906 -3.2403319 5.1607571
9.5432062 -3.1718769 5.3135939
9.8146544 -3.2494349 5.7046118
7.168189 -2.3640151 4.3325181
7.2429008 -2.379323 4.535841
6.9934421 -2.2883849 4.52248
6.9627762 -2.269407 4.6316051
6.8384609 -2.220099 4.6638522
6.9257069 -2.230664 4.910398
6.6771669 -2.1164241 4.9011831
6.8475599 -2.1354849 4.911098
6.7272491 -2.0808289 4.667223
6.8792119 -2.1190879 4.6692939
6.9850879 -2.142828 4.6209149
7.0339942 -2.1488891 4.5203862
7.1111031 -2.163425 4.4223299
9.6415625 -2.9210491 5.7826638
9.7319622 -2.9360909 5.6089549
9.6337986 -2.89428 5.3149958
9.9323502 -2.9713919 5.2260261
10.739516 -3.19929 5.3673048
11.206494 -3.324245 5.2986259
11.316981 -3.3427131 5.0410752
13.107853 -3.0733011 2.9136989
13.242241 -3.088599 3.289942
13.795328 -3.1657541 4.5393209
12.600402 -2.8761649 4.4893942
12.275254 -2.7719891 5.0424671
7.6436648 -1.716773 3.346705
7.6924319 -1.718358 3.5728769
7.4192929 -1.648301 3.640264
11.185156 -2.471333 5.7742858
7.573472 -1.664131 4.0970831
7.8326602 -1.711551 4.4238758
9.1487904 -1.988031 5.3739548
9.9482203 -2.149653 6.0554571
5.2500372 -1.1280791 3.3003581
8.3577452 -1.7958339 5.253973
8.3485003 -1.783722 5.3991742
8.2129326 -1.744787 5.4464211
5.4618201 -1.147097 3.766428
5.1102929 -1.048526 3.6502321
5.4254789 -1.086985 3.7885449
5.5413671 -1.096832 3.7440541
5.885685 -1.157894 3.891078
8.5256004 -1.677246 5.6363502
8.5814915 -1.677907 5.5301318
8.7703857 -1.70427 5.4911718
5.4071031 -1.044208 3.2764821
8.8171873 -1.692152 5.1534209
7.0404229 -1.342689 3.954772
7.7835121 -1.484405 4.3721828
7.6810951 -1.4556431 4.1307192
7.6065102 -1.432361 3.9017389
7.6194739 -1.425655 3.712836
7.8513288 -1.459615 3.6199429
7.6115389 -1.405894 3.3066339
11.579878 -2.0972159 4.08777
11.41861 -2.0543361 3.720875
11.914441 -2.129281 3.5602989
12.035822 -2.136553 3.2746229
8.3516159 -1.02676 2.47522
8.1924458 -0.997536 2.646817
8.0823107 -0.97461599 2.8277731
8.1256428 -0.97028202 3.0606611
8.1966982 -0.940198 3.951719
8.2382336 -0.93528497 4.1794701
8.1291666 -0.91335499 4.3222589
7.9561992 -0.88456702 4.4171128
4.9911189 -0.54318702 2.9870801
5.2805672 -0.568492 3.2642291
5.212194 -0.55501801 3.3150859
4.927597 -0.51892602 3.2140851
4.9975352 -0.514575 3.3905129
4.953639 -0.48682901 3.4828269
4.9078541 -0.459346 3.3750031
5.2569418 -0.47971401 3.49876
5.0484991 -0.45479 3.2880969
4.9584098 -0.44087899 3.1483159
5.5801558 -0.489631 3.4427819
5.5447049 -0.48004201 3.3112509
6.053266 -0.51699901 3.487221
5.823719 -0.490583 3.224787
8.2976227 -0.68929201 4.3993421
10.982269 -0.87383097 4.9939361
11.169236 -0.87565702 4.7861142
11.413246 -0.88147098 4.586834
11.537842 -0.87763602 4.327733
10.758579 -0.79325098 3.4597659
11.319738 -0.215997 3.0329399
5.585422 -0.100093 1.64328
10.937651 -0.18329 3.508323
11.0131 -0.17176799 3.825927
11.307737 -0.16323499 4.2296462
10.786296 -0.143168 4.3223801
10.144303 -0.12287 4.3339419
9.8214264 -0.107558 4.4522662
8.0408258 -0.069376998 4.0534339
9.7320337 -0.083968997 4.905983
9.5337553 -0.060109999 5.2606301
5.8705478 -0.030199001 3.369736
5.8936892 -0.023468001 3.506572
5.7208471 -0.016139001 3.516088
5.489284 -0.009114 3.4717
5.5530171 -0.0027660001 3.6021049
5.6978431 0.010389 3.8453031
5.1961589 0.033617001 3.6358991
5.446321 0.060532 3.7292249
5.404161 0.072619997 3.5821819
6.5435019 0.087930001 4.3374019
5.5859799 0.081547998 3.623873
5.5038209 0.086739004 3.4813211
5.5692759 0.094245002 3.423408
6.11446 0.11057 3.63849
9.5244513 0.183293 5.4680419
10.086072 0.20582899 5.5664411
9.3134222 0.200877 4.9221058
8.0113745 0.18211 4.0394802
9.5174131 0.216344 4.798851
9.4337301 0.225398 4.5197668
9.8471603 0.246712 4.465065
10.824591 0.28379101 4.6258311
5.3131938 0.14546899 2.129761
5.388133 0.15378 2.016036
5.4141469 0.16082001 1.881464
5.2499862 0.16204301 1.684533
5.6659179 0.181465 1.667549
5.5485382 0.19060899 1.343256
14.556371 0.99159998 -0.58922702
10.714211 0.82993603 1.0553139
10.39536 0.82953501 1.494856
10.853494 0.87877297 1.8196239
5.2574892 0.43182501 1.00994
5.5079679 0.45884401 1.1961499
5.3936119 0.45562199 1.309628
5.077723 0.43482199 1.365224
4.8810668 0.423695 1.441221
4.7693772 0.41959101 1.535502
5.3527989 0.47718501 1.866698
5.1259379 0.46296501 1.924955
5.016685 0.45898199 2.018549
5.0234151 0.46548301 2.155185
4.9339628 0.46297601 2.2463629
8.1948576 0.76896101 3.7310021
5.2083812 0.49484 2.5058939
4.953619 0.47644299 2.5085831
5.0987611 0.496382 2.706784
5.179234 0.51029998 2.8716309
5.443819 0.54275501 3.1402409
5.1525679 0.51977199 3.081161
6.681252 0.681822 4.1276731
5.7536802 0.59391803 3.658247
5.6464939 0.58949399 3.682647
5.6903892 0.60744601 3.8620851
5.0502892 0.56288099 3.5556359
5.2889729 0.61439002 3.645613
5.3993649 0.63994098 3.6037281
5.419529 0.64871597 3.5406089
6.0789089 0.73480898 3.8725891
5.5298848 0.674972 3.4239321
5.3138351 0.65486699 3.185468
7.3003392 0.89968097 4.3763118
5.5227609 0.68712997 3.194504
5.3913512 0.67715001 2.9982059
4.8567591 0.61573797 2.5867219
4.9194002 0.62949598 2.50003
5.8627138 0.75020403 2.9794199
5.8345432 0.75348997 2.817781
4.8409252 0.63089001 2.2129209
4.639904 0.610183 1.999223
4.7776222 0.63394099 1.931142
5.0251679 0.67273003 1.89623
4.9605818 0.66995901 1.73873
4.8430429 0.65981501 1.5675679
4.967854 0.68269902 1.475086
5.2594962 0.72901303 1.42241
5.7736492 0.80711699 1.410513
8.3543682 1.167883 2.040987
4.9841871 0.70266002 1.089332
7.5058398 1.067064 1.451448
7.9962492 1.146262 1.349884
9.8228073 1.443073 0.97497803
9.7219114 1.439791 0.756235
7.3011351 1.1073231 0.142326
7.1667399 1.095459 0.017377
7.4518929 1.1567841 -0.20755599
7.5400901 1.179448 -0.308213
7.5771308 1.194262 -0.39822301
9.3626547 1.475686 -0.49206299
9.4355211 1.498423 -0.590635
9.1947851 1.4821039 -0.71664703
11.466077 1.902961 -1.013271
7.4958048 1.279871 -0.53381902
9.28615 1.607794 -0.48926401
7.3805742 1.286698 -0.30256301
7.3251882 1.285813 -0.204695
6.3933611 1.129916 -0.085281998
6.6337881 1.180356 0.01615
6.2444272 1.118573 0.122266
6.7709751 1.221015 0.257379
9.757678 1.7596101 0.370911
9.8607893 1.790035 0.56751102
7.0481138 1.28792 0.551314
8.4928503 1.5519201 0.66432399
6.9151759 1.271932 0.69047898
7.746171 1.42478 0.77345401
8.2190428 1.521631 1.005752
6.8362489 1.273855 0.99680698
5.6274991 1.055385 0.95678598
4.8864121 0.922279 0.952025
4.995945 0.948973 1.100543
4.9270549 0.94182003 1.213681
4.696291 0.90331 1.281127
4.7611752 0.92152297 1.426546
4.6415529 0.90396798 1.5165679
4.6053538 0.90246803 1.630121
4.9521799 0.97640198 1.887822
5.0679102 1.0053411 2.0702491
5.8336511 1.157244 2.3830559
4.9825358 0.99441803 2.170506
4.9515328 0.99420798 2.2893
5.6003289 1.131251 2.7365689
5.2985969 1.076705 2.7255459
5.220048 1.067054 2.8151679
5.5950751 1.150492 3.1518371
5.637681 1.166075 3.304522
5.9721112 1.242487 3.6292861
5.808888 1.215565 3.647516
5.307096 1.116991 3.430007
5.501575 1.164603 3.6478181
5.2246661 1.118664 3.605881
5.3537259 1.1723371 3.834836
5.6315641 1.260615 3.9512501
5.650218 1.278582 3.8396311
5.7140579 1.300002 3.8012841
5.3288531 1.218871 3.457268
5.7347741 1.318734 3.6166229
5.7741089 1.334838 3.526001
5.752872 1.336964 3.390147
5.3602891 1.252297 3.037339
6.0926709 1.423399 3.4523339
5.1610508 1.212069 2.8011529
5.2822261 1.247007 2.735899
5.444109 1.2918971 2.679981
5.14643 1.227569 2.3982949
4.9622402 1.189732 2.179935
4.866756 1.172814 2.005903
5.1696591 1.25216 1.989412
5.0829339 1.2374099 1.817151
4.5664468 1.117291 1.507712
4.929101 1.212088 1.493147
5.0177879 1.240083 1.384631
4.9909811 1.239607 1.244252
5.0486441 1.260152 1.126137
5.5844302 1.4007829 1.102266
7.6564431 1.9205199 1.5112441
5.309968 1.338491 0.91508597
5.5924048 1.416591 0.82696003
5.782568 1.4719141 0.71796799
5.3366961 1.365018 0.54094899
5.0340261 1.293829 0.39994499
4.6130152 1.19134 0.26979101
4.9659381 1.288635 0.19192199
5.3501048 1.394963 0.106562
4.9383349 1.2937239 0.012236
5.1878328 1.365523 -0.070467003
4.707325 1.244897 -0.134014
5.1287241 1.362712 -0.214312
4.9603891 1.324151 -0.266536
4.9512429 1.327876 -0.31691399
4.916997 1.330935 -0.39196599
4.8346372 1.33278 -0.437199
5.4225931 1.521998 -0.39537501
5.0676298 1.435076 -0.27343199
5.1003661 1.450743 -0.214151
6.4919858 1.8465739 -0.27258101
5.2729521 1.506451 -0.15093499
4.9046268 1.407391 -0.067024998
4.8861032 1.408216 0.012188
4.603137 1.332459 0.092359997
4.7767458 1.388724 0.18609101
4.5887351 1.339843 0.27069601
4.9569888 1.4536231 0.39748999
5.1361341 1.512633 0.52579999
5.1535459 1.524264 0.646649
4.6733608 1.388149 0.698829
4.271215 1.2740951 0.74482602
5.1691251 1.541939 0.90140599
5.4136739 1.621733 1.0819581
4.7414732 1.426375 1.071564
4.8633389 1.469193 1.229201
5.8021388 1.7528009 1.466482
4.8278642 1.46454 1.35151
4.730844 1.441108 1.454767
4.6585212 1.424996 1.562376
4.6721058 1.435084 1.697714
4.6443052 1.432446 1.81776
4.7669172 1.476333 1.99958
4.6593132 1.4489371 2.0844719
4.6182399 1.442045 2.193104
4.6316381 1.452139 2.3248961
4.9810619 1.568045 2.632369
4.8568511 1.5351419 2.6913681
4.776907 1.515982 2.7653451
4.669683 1.487922 2.813174
4.759748 1.522716 2.973274
4.6234951 1.485045 2.984617
4.8487258 1.563599 3.222079
4.8767672 1.578902 3.325103
5.0920782 1.6616811 3.614831
4.7387009 1.570762 3.4931459
4.572381 1.539238 3.3032539
4.7132401 1.598856 3.298768
4.8436422 1.649363 3.3191171
4.9263201 1.6839 3.2926359
4.977663 1.707914 3.2343819
4.722559 1.626513 2.97174
4.7639818 1.646968 2.8933229
4.6503458 1.613736 2.716068
5.0724211 1.766802 2.8380589
4.9227109 1.721074 2.628768
4.3775778 1.53619 2.222086
4.4894662 1.581309 2.157598
4.2839179 1.514508 1.941081
4.3600659 1.547125 1.8537771
4.519372 1.609562 1.794289
4.4867048 1.603806 1.655058
4.6481619 1.6676069 1.5837539
4.3461242 1.564943 1.358817
4.5394669 1.640524 1.29303
4.399518 1.595724 1.132314
4.5957561 1.6729389 1.05845
4.3967552 1.606289 0.89617902
4.3514638 1.59547 0.77449399
4.362514 1.605268 0.66633499
4.4593558 1.64679 0.57198501
4.6845989 1.7361521 0.49061701
4.1875372 1.557467 0.34378499
3.6909609 1.3776619 0.223092
4.476892 1.676935 0.178839
4.4800458 1.684057 0.092243999
4.913044 1.853333 0.012586
4.2577438 1.611784 -0.059801001
3.996711 1.518283 -0.117672
4.334918 1.652522 -0.18735699
4.323235 1.653818 -0.24030299
5.7493901 2.1993821 -0.319574
3.7318511 1.432564 -0.247126
4.0129218 1.551158 -0.331049
4.0811729 1.5993741 -0.382137
3.6888161 1.465413 -0.27863899
4.0242381 1.609496 -0.225008
4.825695 1.9365391 -0.209995
4.4500022 1.791774 -0.132034
4.1339979 1.670123 -0.058566999
4.051774 1.642378 0.010479
3.7296 1.516835 0.077598996
3.8813629 1.58381 0.15682
3.8778739 1.587639 0.23728301
3.891083 1.598331 0.32368401
4.1783319 1.721994 0.44380301
3.8902011 1.608533 0.50651997
4.0074968 1.66249 0.62192202
4.5393472 1.889304 0.82163298
4.5868888 1.915341 0.95164901
4.6876101 1.9638 1.099908
4.2866082 1.801658 1.125024
4.3363438 1.8284349 1.260684
4.2790389 1.810125 1.366719
4.307395 1.8280261 1.500688
4.3656778 1.858744 1.648167
4.2593741 1.819326 1.7322839
4.2635379 1.826967 1.8586119
4.1870532 1.799948 1.946974
4.295424 1.852445 2.120441
4.5161438 1.953862 2.3568621
4.3930359 1.906657 2.4140551
4.2373242 1.844923 2.4418991
4.6793628 2.043859 2.817522
4.5295091 1.984669 2.838563
4.5946088 2.019562 2.986057
4.4862342 1.978143 3.0134161
4.425746 1.95761 3.0606551
4.5750332 2.030005 3.246738
4.9068561 2.190887 3.626579
4.7640152 2.1537111 3.658258
4.6052032 2.1077299 3.467654
4.37992 2.0169411 3.1960089
4.304718 1.9883699 3.0758569
4.8219471 2.2340751 3.3610539
4.3458729 2.0196421 2.9453461
4.5676298 2.129149 2.998328
4.2786422 2.000489 2.711122
4.2719378 2.003408 2.603502
4.3283968 2.0360179 2.527391
4.3561382 2.055254 2.428009
6.032568 2.8547699 3.196624
4.2391329 2.012095 2.1270471
4.379055 2.084749 2.0719011
4.0869379 1.951502 1.814723
4.3192139 2.068573 1.791136
4.519722 2.1710629 1.741683
4.1889181 2.018147 1.491221
4.1142511 1.988062 1.344143
4.1549482 2.0136869 1.236878
4.368156 2.1232829 1.175114
4.366303 2.1286509 1.051258
4.573144 2.2360721 0.97459
4.2959008 2.106694 0.79954702
3.563693 1.752756 0.56928003
4.268971 2.099638 0.68194401
3.8509891 1.899621 0.51667398
4.0809889 2.0189691 0.447126
4.5613408 2.2632051 0.391812
3.576277 1.779628 0.226202
3.6283979 1.810822 0.15169901
3.9258809 1.9649889 0.084613003
3.746465 1.8806289 0.010048
3.598388 1.8115309 -0.052919
3.6344919 1.835004 -0.112059
3.4266391 1.735056 -0.15511499
3.386297 1.719571 -0.19716799
3.3752811 1.718915 -0.23416799
3.771539 1.931754 -0.32606301
4.153017 2.1515601 -0.40775701
3.446908 1.8061 -0.273177
3.538419 1.864539 -0.20764001
3.810226 2.0134189 -0.17404
3.657625 1.938216 -0.11393
3.612289 1.9195729 -0.053732999
4.363709 2.318877 -0.064911
3.600652 1.918751 0.0097789997
3.6603701 1.95604 0.079989001
3.484462 1.867241 0.14788599
3.703418 1.99011 0.238074
4.3254352 2.330848 0.378079
3.7955439 2.0509939 0.42366999
3.6418259 1.973395 0.49839601
3.872227 2.104068 0.63171297
4.2482138 2.31476 0.808447
4.1862411 2.287298 0.91329002
4.0577531 2.223222 1.001339
3.9236529 2.1556749 1.083165
4.08113 2.2488201 1.248264
4.1245971 2.279017 1.386191
4.1737838 2.312531 1.530311
4.122149 2.29018 1.637995
4.2204218 2.351193 1.8069
4.2196641 2.3572021 1.936721
4.1711979 2.336484 2.0424371
4.3358259 2.4353161 2.2542069
4.0477829 2.2797229 2.2251101
4.362783 2.4638071 2.5256879
4.06847 2.3038311 2.470396
4.1723828 2.369082 2.6474659
4.141521 2.3579199 2.7355151
4.075026 2.3263381 2.791759
3.8669989 2.213536 2.738517
3.892236 2.233984 2.838295
4.1882868 2.4103811 3.1346309
4.0156188 2.323436 3.1309519
7.0705609 4.1791811 5.623498
4.4886341 2.667177 3.46064
4.1643982 2.4810579 3.1444271
3.980433 2.3777201 2.9323699
4.1302538 2.4737339 2.9589601
3.8451519 2.309047 2.6685331
3.9646571 2.3870759 2.6563611
4.1023779 2.4764979 2.644084
3.855406 2.3335171 2.3811669
3.9551389 2.400167 2.3321309
4.1605778 2.53145 2.3326721
3.9895539 2.433742 2.118377
4.0519438 2.4782679 2.0290799
4.1275201 2.53108 1.940068
3.9743061 2.4434791 1.7448961
3.8992431 2.403578 1.591074
3.9990499 2.4715121 1.507712
4.0758328 2.5255079 1.4104609
3.8161471 2.3707421 1.203498
3.5640571 2.219871 1.015908
3.1875491 1.990503 0.81329697
4.3979058 2.7463241 1.122118
3.939239 2.4662731 0.88978499
3.4317701 2.1541059 0.67708498
3.7608371 2.366749 0.63696301
3.907856 2.465616 0.55597699
3.880686 2.454776 0.450937
3.4320059 2.1765389 0.312713
3.75174 2.3854301 0.25175601
3.5484271 2.2619481 0.157418
3.3016169 2.110019 0.075517997
4.1905971 2.6850109 0.011929
3.6318729 2.332974 -0.056701999
3.4490891 2.2212279 -0.112912
4.046874 2.612854 -0.194539
3.7340169 2.4170051 -0.230919
3.8036251 2.4683399 -0.280323
3.45403 2.2528839 -0.317316
3.2418351 2.1360159 -0.33845201
3.476167 2.3136401 -0.29313499
3.6547689 2.444783 -0.228275
3.511133 2.354604 -0.17073201
3.474256 2.3357251 -0.115223
3.412025 2.29965 -0.054049
3.5877841 2.4241691 0.010378
3.367429 2.280987 0.078388996
3.447376 2.340982 0.15588599
3.472914 2.364219 0.237905
3.5058329 2.392597 0.32659999
4.361496 2.9765539 0.40631199
3.7315021 2.5529611 0.44399801
3.543608 2.430454 0.51703203
3.568572 2.4536791 0.62078702
3.3831761 2.3319931 0.68664402
3.371053 2.3294129 0.78448498
3.718286 2.575743 0.97891802
3.8647449 2.6838429 1.138428
3.844101 2.6760671 1.254733
3.777823 2.6364429 1.355149
3.801331 2.6594241 1.487861
3.7865169 2.655612 1.606496
4.7359729 3.329705 2.1652679
4.1654768 2.935849 2.0419819
3.6643779 2.5890429 1.916724
3.8381331 2.718493 2.1320009
3.888639 2.761059 2.2842901
3.8891859 2.7682431 2.4064031
4.0341082 2.8784561 2.618489
3.983675 2.8494639 2.7025411
6.6420689 4.7509751 4.5060058
3.95895 2.8387311 2.7962489
3.7166159 2.671514 2.723243
3.690341 2.6591301 2.7955911
5.989284 4.3262372 4.6727629
3.588937 2.68875 2.8361571
6.0684681 4.5573802 4.6643801
6.0385518 4.5458851 4.4969811
3.8989379 2.9422579 2.8037159
3.9592249 2.9949811 2.7392571
3.849514 2.9190199 2.552618
3.929163 2.9866159 2.4878759
3.740382 2.849977 2.2523241
3.784126 2.8902559 2.1584239
3.948751 3.023268 2.124543
4.0324349 3.094769 2.0367739
4.2990532 3.307327 2.0286469
5.391077 4.1474371 2.5439529
3.8007891 2.9310429 1.667199
3.6674371 2.835001 1.48664
3.643034 2.8228991 1.355713
3.4801321 2.70315 1.180468
3.59834 2.8016679 1.103389
3.9048281 3.0475869 1.071987
3.6450109 2.8516309 0.88602501
3.5135429 2.7553599 0.74614501
3.4319551 2.6978171 0.625754
3.294791 2.596195 0.50472802
3.053637 2.4119239 0.38213399
3.6099241 2.858119 0.354296
3.5051179 2.781774 0.25339499
3.523031 2.8026619 0.168409
3.004873 2.3961611 0.074073002
3.227602 2.579906 0.009904
2.8942549 2.318964 -0.048716001
3.0310011 2.434319 -0.106997
2.916332 2.3477969 -0.15120099
2.947031 2.378155 -0.19659699
3.6751609 2.972791 -0.29223201
3.6141281 2.9373281 -0.35836199
3.560473 2.921293 -0.40150401
3.898056 3.2286811 -0.35531899
2.8432429 2.366159 -0.192035
2.9018509 2.420639 -0.152613
2.9026051 2.4269869 -0.104136
2.958106 2.4792409 -0.050698999
2.946285 2.475162 0.0092230001
3.1248851 2.6314051 0.078736
3.224844 2.721982 0.157867
3.291189 2.784529 0.244123
3.7770259 3.203115 0.381071
3.1309099 2.661428 0.40353701
3.3342259 2.84093 0.52706701
4.0128598 3.4191611 0.63434398
3.11325 2.6589 0.58687502
3.324512 2.84601 0.73131102
3.488318 2.993263 0.88000798
3.4878531 2.9999089 0.995628
3.5357239 3.0482309 1.129492
3.605371 3.1155119 1.276469
3.537303 3.063879 1.376596
3.55638 3.087651 1.51046
3.7332499 3.2488239 1.7190419
4.0359812 3.5205221 2.0030739
3.663877 3.203454 1.950111
3.8853829 3.405098 2.207042
3.8634131 3.3937881 2.3309989
3.9130859 3.4454961 2.4972551
3.8958471 3.4383609 2.6193149
3.7588201 3.325201 2.6516581
3.8284409 3.394738 2.823319
3.9894431 3.5707669 3.3861771
3.9041941 3.5026529 3.4023809
3.7859459 3.412478 3.4397399
3.7083869 3.3739581 3.5080521
3.7011061 3.3989151 3.440537
3.7541151 3.463721 3.385505
3.81387 3.527066 3.3697281
3.8819571 3.5984089 3.3476911
3.958261 3.677711 3.3207791
6.3314271 5.923944 4.7842789
3.7463939 3.5134521 2.7137921
3.7613111 3.535676 2.60221
7.001338 6.5966768 4.6074581
3.4313779 3.248147 2.0184729
3.4598529 3.2827311 1.911057
5.120635 4.8811669 2.4573209
3.386663 3.2358029 1.502215
4.0035472 3.8252079 1.775844
3.6209309 3.4676919 1.474803
3.5601981 3.4174781 1.322011
2.796716 2.6908531 0.93900901
3.1707699 3.0578489 0.95332402
2.9433351 2.84513 0.78373301
2.696054 2.6121659 0.62730902
2.733268 2.654386 0.54615098
2.85501 2.7790749 0.47940201
3.6994901 3.601094 0.62120402
3.1798611 3.102489 0.436277
2.8363979 2.773823 0.305271
2.869797 2.813024 0.227558
2.8741021 2.8237989 0.150727
3.108798 3.0615029 0.084092997
2.971298 2.9329021 0.010007
2.8816321 2.8510129 -0.053247001
3.260047 3.2329199 -0.126366
3.254869 3.2352941 -0.185339
3.0364349 3.0251961 -0.22251999
2.9754181 2.9713089 -0.25996101
2.9442911 2.9539211 -0.32092199
2.9315791 2.968652 -0.36372501
2.8686039 2.932019 -0.28795299
2.872628 2.949821 -0.21375801
3.646698 3.7446921 -0.27135801
2.989089 3.076555 -0.173233
2.8267939 2.9162829 -0.111784
2.798506 2.8938279 -0.05288
2.862726 2.9671259 0.0098820003
2.94958 3.0642741 0.081973001
2.8538311 2.971704 0.154129
2.7890971 2.9110589 0.228293
2.7530119 2.880096 0.30657601
2.962317 3.1062789 0.42151999
2.6758511 2.812427 0.46709701
2.8125 2.9629459 0.58559799
2.890516 3.0522289 0.70246702
3.100076 3.2811401 0.86421299
3.0033939 3.186229 0.947613
3.0030379 3.1932759 1.060589
3.9325819 4.181705 1.388878
3.173795 3.3826389 1.242571
3.130548 3.3443179 1.3475291
3.5063901 3.7545619 1.64758
7.3474612 7.8858209 3.743896
3.526535 3.802603 2.0780599
3.27632 3.5410349 2.0609009
7.406559 8.0236454 4.94976
3.816519 4.163506 2.984283
3.7414689 4.0911689 3.0590789
3.6756761 4.0286059 3.130285
3.643399 4.002564 3.220237
3.658217 4.0282249 3.344342
4.2627859 4.7049041 4.015305
5.2706008 5.817246 4.9646111
5.3984599 5.972302 5.222208
3.8455009 4.3548698 3.977803
4.0912728 4.6549468 4.1075759
5.3315859 6.066144 5.3528318
5.1489482 5.8720741 5.066021
5.5591178 6.354713 5.3398428
3.611773 4.148078 3.2723911
3.6127501 4.1589389 3.1621449
3.6291549 4.187645 3.0576291
3.62061 4.1875958 2.924953
3.729861 4.3241038 2.8785911
3.803827 4.420218 2.7931581
3.093379 3.6115799 2.0314369
4.568531 5.3463969 2.8178599
4.8860602 5.7314472 2.8168449
3.2867579 3.873625 1.629257
3.0248001 3.573292 1.377161
3.033906 3.592509 1.259649
3.09181 3.6697071 1.1610039
2.8815081 3.428164 0.96918797
2.705451 3.2263119 0.80610901
2.8530171 3.410321 0.74301302
2.8701179 3.4388649 0.64207101
2.6802821 3.2190089 0.50401098
2.6269829 3.1624551 0.403732
2.5823541 3.11608 0.311409
2.6859119 3.2487199 0.23869599
2.6890099 3.260165 0.15809099
2.724714 3.3112869 0.082648002
2.57797 3.140373 0.0097390004
2.7578371 3.3674431 -0.057174999
3.6257989 4.4272628 -0.075168997
3.5424321 4.3357391 -0.154099
2.7827251 3.413981 -0.177874
2.7533441 3.385951 -0.22656401
3.360718 4.132875 -0.27654299
2.6799519 3.303534 -0.26298401
2.9200251 3.616596 -0.35767099
2.6736619 3.343123 -0.373191
3.173923 3.9686451 -0.44301799
2.8127749 3.5507541 -0.31799501
2.700058 3.4247789 -0.226408
3.184881 4.0493922 -0.208058
2.46701 3.1441641 -0.109996
2.5491271 3.256608 -0.054324001
2.5966411 3.325254 0.010112
2.658659 3.4128439 0.083379999
3.9323831 5.0478859 0.123326
2.6042769 3.3510511 0.158764
2.6586039 3.4291639 0.24570701
2.5326941 3.2746141 0.318544
2.747952 3.5614631 0.44174999
3.309701 4.2895141 0.53205502
2.747566 3.5695219 0.542
2.556191 3.3288929 0.601632
2.534153 3.308136 0.69636899
2.8178179 3.6872959 0.88846898
3.185565 4.1785731 1.137136
3.1218951 4.1049299 1.247779
3.8161731 5.0178251 1.525273
3.1580169 4.1623569 1.399639
2.931355 3.872937 1.428804
3.674181 4.8543668 1.7908731
2.9194541 3.866544 1.553826
3.6539071 4.8392591 1.944725
3.599874 4.779223 2.0783379
3.554316 4.730154 2.2129099
3.444689 4.5953722 2.301228
3.4150021 4.5668039 2.436074
3.3808579 4.5321031 2.563025
3.3851011 4.5488129 2.7158351
3.357559 4.5227542 2.8394289
3.3066609 4.4650121 2.935698
3.277643 4.4366021 3.0436189
3.2168601 4.3649182 3.1123641
3.1820741 4.3282418 3.1962061
3.1550789 4.3019772 3.2788899
3.1543939 4.3115282 3.3786931
3.0975699 4.2442031 3.4083669
3.072633 4.2306242 3.5286839
3.029705 4.2125421 3.630739
3.0385361 4.2664862 3.586293
3.052738 4.30757 3.4993119
3.0302451 4.2863679 3.405102
3.0476439 4.3216128 3.3444841
3.0969911 4.4024429 3.308212
3.108026 4.4290462 3.2192149
3.125385 4.4647961 3.128294
3.1359341 4.4909668 3.022362
3.197891 4.5910392 2.9562531
3.185585 4.5847249 2.8142221
3.239783 4.6742959 2.7240419
3.2435181 4.6913061 2.58532
3.304353 4.7911911 2.4863589
3.318254 4.8233161 2.345861
3.3727641 4.9147582 2.2293749
3.4176891 4.99265 2.101635
3.4436109 5.043066 1.958468
2.8839869 4.2340579 1.5069751
3.498049 5.1355791 1.827842
2.648577 3.8981769 1.262496
2.8279209 4.172545 1.21956
2.529531 3.741621 0.97743797
2.371165 3.516171 0.811939
2.7156761 4.0371432 0.81306201
2.5690939 3.8288219 0.66094297
2.3817821 3.5585971 0.51524103
2.502696 3.7486579 0.44262999
2.4018259 3.6066289 0.333428
2.2616611 3.4047251 0.23145901
2.6709571 4.0310278 0.180895
2.648345 4.0070081 0.092572004
3.420687 5.17558 0.119569
2.310626 3.504869 0.010062
2.515135 3.8247311 -0.06013
2.3942699 3.6501679 -0.120148
2.377501 3.6337931 -0.175372
2.3873041 3.658036 -0.226771
2.1993001 3.3785329 -0.24922401
2.3019011 3.5541661 -0.32583201
2.205497 3.440243 -0.35625601
2.2266099 3.508939 -0.29173401
2.288626 3.6252589 -0.222572
2.3383379 3.713547 -0.177228
2.3680069 3.770364 -0.122542
2.24647 3.5860989 -0.055585001
2.21229 3.540664 0.010007
2.1099401 3.385608 0.076885998
2.182477 3.511075 0.154652
2.339 3.77264 0.25136
2.336705 3.778739 0.341867
2.3045039 3.7363541 0.43109801
2.191155 3.561825 0.50317502
2.4393439 3.975615 0.66860598
2.211283 3.6133261 0.70790601
2.3738019 3.88902 0.872298
2.5244319 4.1466279 1.050624
2.1641419 3.582772 1.231261
3.683516 6.1302829 2.4842279
3.828032 6.4044762 2.9896989
3.811815 6.3942032 3.180136
3.6961861 6.2331438 3.4709289
4.366725 7.403079 4.5413618
4.6370931 7.8823848 5.0461268
4.0610089 6.9771409 5.1057239
3.9321561 6.7738752 5.0807142
3.961493 6.8610811 5.3467278
3.770587 6.6729841 5.247807
3.7271791 6.6321192 5.042347
3.8736579 6.9115529 5.1394892
3.9634931 7.091145 5.137795
3.5692191 6.420753 4.370687
3.564162 6.4292331 4.2195129
4.3626919 7.8696671 5.1648712
4.2633328 7.7115788 4.862061
4.0763588 7.3936529 4.461009
3.272419 5.968255 3.2601249
3.3680949 6.1597142 3.182313
2.9566491 5.4523249 2.3197551
2.942255 5.440877 2.1485569
2.9568181 5.4830222 1.9978631
2.0396941 3.7928801 1.266818
3.0029709 5.5841269 1.865093
2.99194 5.5791631 1.6959209
2.3348501 4.3660378 1.197925
3.0475881 5.6988201 1.563604
2.2121489 4.1481762 1.017415
1.9889441 3.7401011 0.81099802
1.984226 3.741709 0.70774198
2.109647 3.9894099 0.646896
2.07054 3.9265029 0.53411603
1.915285 3.642333 0.40412301
2.048861 3.9073701 0.33948901
1.959643 3.747818 0.23948801
1.936722 3.7144871 0.156708
1.9186341 3.6902599 0.080162004
1.97637 3.812124 0.010292
2.323869 4.4823971 0.012102
2.8260159 5.4509649 0.014717
2.003001 3.8745 -0.057293002
1.949815 3.7823999 -0.117122
1.950509 3.794565 -0.172305
1.954632 3.8134761 -0.222468
2.4393051 4.759069 -0.27763101
2.276145 4.4535022 -0.309201
2.3194349 4.5643439 -0.39396
2.1974421 4.3745289 -0.42677701
2.1622291 4.354784 -0.34131399
1.878661 3.8058619 -0.220342
2.0729051 4.2116899 -0.189576
1.983919 4.042738 -0.123945
2.0641711 4.2186732 -0.061693002
2.0322549 4.1656981 0.01111
1.950067 4.009057 0.085924
1.93874 3.9975719 0.16620301
1.989288 4.113965 0.258766
1.904315 3.949954 0.33741701
1.9022551 3.9574289 0.43119499
2.2724409 4.7416611 0.63267201
2.019047 4.2255368 0.67130202
1.950053 4.0933628 0.75768203
2.029793 4.2735252 0.90576798
2.074764 4.3813529 1.049143
2.9412341 6.2298088 1.666841
2.859549 6.0748858 1.798649
2.74297 5.8448191 1.89924
2.6573341 5.6794982 2.0109949
2.6060441 5.58676 2.1413381
2.536463 5.4541111 2.2496929
2.503973 5.4006572 2.385287
2.4632311 5.3289828 2.507966
2.430846 5.2749872 2.6327989
2.3746369 5.1688089 2.724474
2.377552 5.19103 2.87814
2.34376 5.1329799 2.9814799
2.3280859 5.114377 3.1006269
2.320626 5.1137228 3.223377
2.298949 5.0816431 3.318409
2.2865031 5.0697918 3.4181719
2.2638071 5.0350561 3.491477
2.2396591 4.9968681 3.552038
2.1320601 4.908741 3.6642561
2.1287241 4.9323859 3.560636
2.127506 4.945334 3.4921751
2.1254671 4.9564338 3.4107649
2.1427801 5.0128841 3.350625
2.150573 5.047318 3.26421
2.164392 5.0961461 3.178076
2.1742859 5.1360259 3.0774369
2.1937709 5.1988521 2.9814799
2.1939089 5.2160969 2.852483
2.2323799 5.3248501 2.765512
2.286118 5.47083 2.6877091
2.5981591 6.2789621 2.541501
2.605427 6.3173008 2.3736501
2.4060979 5.8532591 2.029624
2.344152 5.7214422 1.8188111
2.6732819 6.5682092 1.7157561
1.818606 4.48318 1.0470279
1.815652 4.4908772 0.92739302
1.598771 3.967685 0.71482903
1.636068 4.0738788 0.62930101
1.639156 4.0953269 0.53077102
1.711688 4.2909751 0.45367399
1.615934 4.0646338 0.336573
1.667816 4.2093801 0.256392
1.712508 4.3368711 0.174427
1.741294 4.4248199 0.091646999
1.6809779 4.2861409 0.011035
1.654386 4.2327852 -0.059696
1.644992 4.2232208 -0.124743
1.626357 4.1897521 -0.18150599
1.584962 4.0972042 -0.228067
1.5864919 4.1153679 -0.272672
1.624482 4.2432389 -0.34961599
1.944714 5.1512518 -0.48001599
1.66581 4.4752731 -0.33522099
1.5481991 4.1890459 -0.23185199
1.6332411 4.4349742 -0.19086701
1.6381 4.4641399 -0.130878
1.640599 4.4870682 -0.062757
1.689952 4.6387382 0.011833
1.977298 5.4471488 0.111687
1.898587 5.249301 0.208819
1.559409 4.3272219 0.26046199
1.548573 4.3128648 0.352608
1.612792 4.5081639 0.470191
1.822731 5.1137052 0.65321898
1.5828 4.4569478 0.67797101
1.525895 4.3125768 0.76444
1.561819 4.4304552 0.89937502
1.587944 4.5213161 1.037086
1.582589 4.5228529 1.159358
1.546319 4.4355621 1.258356
2.159055 6.239768 2.1175759
3.66222 10.623874 3.9033639
2.166029 6.3072691 2.4942091
2.4513431 7.3033342 4.0704541
1.802707 5.3916049 3.1368599
2.682766 8.0547943 4.8731489
1.721952 5.1901412 3.253473
1.7711101 5.3591132 3.4689629
1.764814 5.360939 3.5695169
1.7618769 5.373035 3.667954
1.662275 5.1093202 3.626019
1.595391 4.9822998 3.6605511
1.587548 5.038259 3.616801
1.528221 4.9095821 3.335443
1.694193 5.4651332 3.6186919
1.593599 5.1618428 3.320256
2.9483709 9.589571 5.9690461
2.9316871 9.5748587 5.747817
2.272217 7.4830899 4.1321211
3.4228439 11.367363 5.6861029
1.617582 5.4872508 1.98712
2.033689 6.9284329 2.315774
2.7988369 9.535161 3.187053
3.538511 12.107086 3.7104321
2.157305 7.4132519 2.0682781
2.1637011 7.4675269 1.881076
1.330731 4.6127429 1.03899
1.638761 5.6804729 1.279489
1.3993779 4.8719492 0.97045302
1.737766 6.0500522 1.205121
1.295489 4.5300679 0.78735
1.3279541 4.6640668 0.69514
1.444537 5.0960131 0.63733101
1.5258549 5.4067941 0.55169898
1.489755 5.3024139 0.423805
1.9768111 7.0359702 0.56236202
1.276903 4.5651908 0.26843399
1.3352081 4.7950921 0.186203
1.385869 4.9995089 0.099991001
1.390426 5.0386591 0.012528
1.348969 4.9106469 -0.066894002
1.3125449 4.799891 -0.136958
1.373324 5.0451641 -0.211165
1.325475 4.8917799 -0.26311499
1.596316 5.8913422 -0.31687799
1.258229 4.6650739 -0.298711
1.557126 5.7732821 -0.36967099
1.27621 4.7758098 -0.38038099
1.333578 5.0851011 -0.45830399
1.501094 5.8341579 -0.422896
1.153083 4.5251079 -0.242428
1.215734 4.7942252 -0.199745
1.5207731 5.9971399 -0.249863
1.3386149 5.304636 -0.15057699
1.270981 5.06141 -0.068549
1.2715141 5.0885282 0.012572
1.317719 5.2996211 0.105251
1.267453 5.1228461 0.197418
1.272779 5.1701078 0.30150801
1.281664 5.2323909 0.41452199
1.288318 5.286099 0.53430301
1.197701 4.9392009 0.61152703
1.30797 5.4214458 0.79943198
1.856091 7.6933732 1.134445
1.2037621 5.015039 0.86184901
1.224596 5.1280551 1.009376
1.430825 5.9916468 1.179361
1.153278 4.8543768 1.079814
1.815096 7.6797252 1.909295
1.807021 7.68505 2.1148551
1.777535 7.5992231 2.295738
2.2147911 9.5184307 3.1342199
2.487586 10.747309 3.8318329
2.3330979 10.133391 3.8891449
2.235692 9.7622061 4.0129218
2.3414919 10.278999 4.503654
1.651141 7.2874522 3.3870909
1.43071 6.3487921 3.1171401
1.415508 6.3155041 3.262553
1.478181 6.631186 3.589736
1.748937 7.8889799 4.4586611
1.415398 6.4554062 3.931982
1.521194 7.0157371 4.5402031
1.498746 6.9512129 4.6126971
1.006806 4.832777 3.4541609
0.97863001 4.8092909 3.3603139
1.050433 5.2242379 3.531908
1.349591 6.8772001 4.1697421
1.297138 6.650753 3.8894589
1.169591 6.0341072 3.3914609
1.433893 7.490787 3.844573
1.208379 6.3526092 3.09727
1.295589 6.8544121 3.1620829
1.818275 9.7436991 3.9716361
1.894696 10.421393 3.1158259
1.154044 6.4756951 1.423535
1.361847 7.6934981 1.4958251
0.98837101 5.6216302 0.95381898
1.029489 5.8956161 0.85789299
1.059281 6.1081138 0.74592203
0.95268202 5.5315609 0.551211
0.90245801 5.276557 0.41191301
0.88499898 5.2109151 0.299303
1.0601929 6.2424669 0.35855299
0.882734 5.234376 0.198577
0.96196902 5.744936 0.112265
0.91332698 5.4935799 0.013348
1.041382 6.3090801 -0.083995
0.98606002 6.0174351 -0.16782799
0.93164003 5.7269878 -0.234327
1.046452 6.4802108 -0.34077901
0.97246301 6.0668249 -0.37985301
1.025649 6.49508 -0.50597203
0.99598902 6.5032191 -0.57355303
0.94758099 6.3851848 -0.45314801
0.86812598 5.9448581 -0.311901
0.87715101 6.0558171 -0.24711899
0.86382002 6.0129681 -0.16719501
0.79347402 5.5692739 -0.073895
0.84373403 5.9716721 0.014456
0.90142298 6.4339538 0.12521499
0.78596801 5.6576719 0.213679
0.79899698 5.8008518 0.33158499
0.79995298 5.8581562 0.45495301
0.83547902 6.1717482 0.61160898
0.77840602 5.8007898 0.70423001
0.79977399 6.013041 0.869528
0.81224501 6.1615181 1.038537
0.95133603 7.2166319 1.216379
0.79609799 6.093606 1.17654
1.384114 10.691206 2.3330741
1.212973 9.4554577 2.3064871
1.1676151 9.1856012 2.480485
1.112972 8.8377991 2.6202741
0.92563403 7.4906559 2.621712
1.161659 9.4912691 3.576318
1.22605 10.214265 4.394834
0.71040499 8.1529427 4.5156679
0.93447 11.020684 5.5753279
0.83552599 10.279433 4.4058342
0.58308202 7.2783308 2.925724
0.75677001 9.7305813 3.390178
0.65581501 8.5611506 2.7537041
0.739528 9.6539631 3.1052079
0.53422999 7.0819769 2.089164
0.71724802 9.6579313 2.5943389
0.735861 10.066902 2.4421771
0.46181399 6.4203939 1.3930759
0.447142 6.3191462 1.212831
0.43378901 6.233283 1.0441411
0.44680399 6.52983 0.938205
0.42659399 6.3428168 0.76491702
0.42495301 6.429975 0.63281697
0.42891201 6.6065211 0.50942498
0.37987 5.9583378 0.33808699
0.40661699 6.4967351 0.24351101
0.40968299 6.6701889 0.12879901
0.404713 6.7167988 0.016129
0.48853099 8.2678652 -0.108793
0.366579 6.3289919 -0.174486
0.376847 6.6398931 -0.26858601
0.363893 6.5460639 -0.34036401
0.370233 6.8029261 -0.42119399
0.38906601 7.4687648 -0.575481
0.290768 6.798039 -0.47765699
0.287696 7.1135969 -0.369605
0.28922701 7.3633151 -0.2976
0.26830599 7.0392208 -0.193882
0.231611 6.471838 0.015522
0.219586 6.5627341 0.24564099
0.20951401 6.4872198 0.367542
0.220403 7.0796318 0.54502302
0.200606 6.6937809 0.65764099
0.203261 7.0561571 0.84937602
0.25084299 9.0747404 1.301312
0.161522 6.3800459 1.221857
0.220558 9.1318703 1.976873
0.236508 10.287377 2.4896801
0.21639 10.464316 3.0788569
0.18514401 9.486186 3.042908
0.17989799 9.7998781 3.4046161
0.161871 9.412714 3.5209689
0.086253002 8.4274416 4.4530668
0.065421 9.6886063 5.7645211
0.031055 9.4918423 6.157155
-0.029034 7.8697281 5.5065932
-0.066233002 7.9514651 5.4444089
-0.25338 12.011338 5.754355
-0.227677 10.230251 4.6384649
-0.266716 11.389824 4.8670421
-0.195686 7.962019 3.191294
-0.298103 11.582323 4.3333378
-0.20458201 7.6053362 2.6427109
-0.205902 7.337832 2.3542531
-0.273011 9.3429995 2.7495241
-0.32164001 10.196576 2.4682801
-0.27748901 8.1934099 1.569535
-0.40525401 11.198132 1.606243
-0.344648 9.2269659 1.110999
-0.31904599 8.2839813 0.81411099
-0.30854699 7.7768741 0.59888101
-0.329088 8.058363 0.4567
-0.30770701 7.3264122 0.27431399
-0.306375 7.0980721 0.136931
-0.355582 7.8172421 -0.102791
-0.39881799 8.14326 -0.42326501
-0.34831399 6.0978942 -0.53247303
-0.559304 8.2734013 -0.108925
-0.56016397 8.1457386 0.019571001
-0.561288 8.0259027 0.155064
-0.58695602 8.2553711 0.30960301
-0.59368902 8.2153807 0.46642399
-0.66491902 9.054781 0.69861799
-0.66343701 8.8933897 0.87577999
-0.67071801 8.8525925 1.068231
-0.789168 9.6708889 2.347641
-0.80307001 9.7035141 2.6083131
-0.84216899 9.8959599 3.18522
-0.90540099 10.217174 4.1099992
-0.83738601 8.4440403 5.2152262
-1.007394 8.4537621 5.2325048
-1.247122 10.262491 5.934001
-1.29653 10.081329 4.3421922
-1.224713 9.3511057 3.5272739
-1.287604 9.488409 2.565099
-1.525036 10.171277 0.024652001
-0.98658299 6.2337551 -0.485641
-0.921579 5.6526451 -0.49929699
-2.266746 12.865412 0.25177801
-1.896011 10.688545 0.40608799
-1.967013 10.868304 1.0846339
-1.776364 8.662055 5.26088
-2.130553 9.4897337 6.308989
-1.916128 8.4428492 5.3209958
-3.311003 12.787257 0.031660002
-1.496565 5.5920939 -0.44543999
-1.380296 5.0633268 -0.457522
-1.671002 -5.4310012 1.6715
-1.77039 -5.7777772 1.6188101
-1.7361211 -5.689374 1.439203
-2.3224881 -7.6109319 1.9252861
-1.817912 -5.9821339 1.353099
-2.3322811 -7.6747499 1.7359509
-1.872215 -6.186522 1.237464
-1.752588 -5.8154311 1.014968
-1.609336 -5.3624878 0.80255401
-1.502455 -5.0274491 0.63135803
-1.488591 -5.0020962 0.51250899
-1.703761 -5.7251301 0.58658999
-1.580459 -5.3333092 0.42802399
-1.343307 -4.55234 0.26877299
-1.617959 -5.483109 0.32372701
-1.591109 -5.4151359 0.211137
-1.6446199 -5.6212668 0.112882
-1.414117 -4.8541999 0.012119
-1.439595 -4.9629812 -0.067878999
-1.487802 -5.151423 -0.147578
-1.539474 -5.353507 -0.22496501
-1.433522 -5.0068092 -0.27037299
-1.413251 -4.9576578 -0.318703
-1.382445 -4.8924031 -0.39119801
-1.337642 -4.818821 -0.435983
-1.3824511 -5.0710011 -0.36897501
-1.5230531 -5.6380401 -0.30319101
-1.549004 -5.7605081 -0.240905
-1.281203 -4.786624 -0.136381
-1.54196 -5.7875962 -0.078676
-1.384429 -5.2205348 0.012946
-1.305931 -4.9475999 0.098623
-1.306407 -4.9726582 0.192334
-1.692753 -6.4736252 0.37890601
-1.389939 -5.3407831 0.424649
-1.405176 -5.425014 0.550331
-1.383432 -5.3665791 0.66683799
-1.2902271 -5.0290608 0.74423498
-1.662659 -6.4807291 0.95906299
-1.340562 -5.2504239 0.905527
-1.648252 -6.4555178 1.113366
-1.935497 -7.6172071 1.504663
-1.933111 -7.6448278 1.70655
-1.925716 -7.6527362 1.909295
-1.365374 -5.452457 1.505731
-1.920065 -7.6675472 2.1174431
-1.910242 -7.6658602 2.3239579
-1.49993 -7.6119232 2.282192
-1.494501 -7.630856 2.0830269
-1.4849139 -7.628581 1.88037
-1.477096 -7.6353979 1.683071
-1.464523 -7.6176128 1.4851069
-1.087816 -5.6936359 0.96865302
-1.459676 -7.639955 1.2997791
-1.013872 -5.340045 0.77914101
-0.95364898 -5.0547242 0.61893398
-1.098249 -5.858274 0.58531898
-1.072324 -5.7566681 0.45058
-1.012601 -5.471169 0.31507599
-0.94140798 -5.119523 0.19472601
-0.88871402 -4.8645682 0.095307998
-1.399537 -7.711 0.018784
-1.0177391 -5.6444869 -0.075340003
-1.393713 -7.7296791 -0.103172
-1.38543 -7.7349291 -0.216277
-0.93815398 -5.2728248 -0.216289
-1.379227 -7.7518401 -0.31797799
-1.366944 -7.73456 -0.407763
-1.358793 -7.7406392 -0.485861
-0.910649 -5.2589598 -0.410685
-0.885934 -5.2606888 -0.465078
-1.220618 -7.567872 -0.397964
-1.217581 -7.6048679 -0.311037
-0.86777401 -5.460382 -0.152173
-0.80702901 -5.1162949 -0.068037003
-1.202754 -7.6250582 -0.101399
-1.191422 -7.610281 0.018463001
-0.84056401 -5.4100728 0.105521
-0.83571798 -5.4201131 0.205156
-0.94166601 -6.1544018 0.35256001
-1.161075 -7.5883889 0.43470699
-1.1541899 -7.6021519 0.59166902
-1.146711 -7.612083 0.75595999
-0.746288 -4.9931221 0.60746503
-1.13609 -7.6011319 0.924757
-0.74164999 -5.0016289 0.724796
-1.129463 -7.6170068 1.1037951
-0.75404602 -5.1259928 0.86580497
-3.400805 -23.305428 4.509099
-3.375617 -23.321444 5.0997672
-3.347398 -23.31629 5.6991959
-3.1969211 -23.436747 9.4779186
-3.1652119 -23.406004 10.090007
-0.71702802 -5.6455669 3.3859019
-0.59040201 -5.6351519 3.371074
-0.59461701 -5.7392998 3.3119891
-2.252125 -23.312807 10.005544
-2.1730051 -23.338274 8.1417427
-2.1406469 -23.281834 7.4982471
-0.64815199 -7.7345529 1.1125931
-0.63997602 -7.7445512 0.935031
-0.62947398 -7.7261119 0.76123798
-0.620107 -7.721241 0.59604299
-0.61169302 -7.7284112 0.439004
-0.59997499 -7.693243 0.28866899
-0.591003 -7.6928992 0.14870501
-0.58094698 -7.678031 0.018456001
-0.57062399 -7.6591101 -0.100886
-0.56116903 -7.6515441 -0.21116
-0.55144799 -7.6398802 -0.309342
-0.54028898 -7.6075678 -0.395942
-0.53064102 -7.5959501 -0.470743
-0.43609399 -7.4848552 -0.526326
-0.418264 -7.4762249 -0.38873601
-0.41050801 -7.4926462 -0.303047
-0.401499 -7.486402 -0.20634501
-0.393013 -7.4900489 -0.098522
-0.38511699 -7.5051041 0.018013
-0.376423 -7.5051708 0.144831
-0.36859801 -7.522707 0.281753
-0.359447 -7.5133562 0.425944
-0.35187 -7.5374861 0.58062202
-0.342944 -7.5329242 0.74051797
-0.333363 -7.5133619 0.904926
-0.32618999 -7.5487242 1.083079
-1.105289 -26.282017 4.3957772
-1.076317 -26.316643 5.0425558
-1.047086 -26.347761 5.7066202
-0.98761201 -26.383596 7.0727191
-0.140334 -5.9591699 3.421509
-0.126936 -5.6688719 3.373631
-0.010022 -6.333416 3.8925691
0.323405 -26.317575 8.4409857
0.36179599 -18.818535 3.1452799
0.158584 -7.7808352 1.115573
0.174409 -7.6850438 0.75488502
0.184911 -7.752871 0.59673297
0.192619 -7.7022491 0.43629
0.20122901 -7.6909871 0.28780901
0.209552 -7.669713 0.14787599
0.218197 -7.6618719 0.018371999
0.226852 -7.6549792 -0.100597
0.23579299 -7.6574688 -0.210857
0.243927 -7.6348782 -0.30849499
0.25261399 -7.630538 -0.396357
0.26129499 -7.625957 -0.47172999
0.277421 -7.5844932 -0.58399701
0.344657 -7.5185819 -0.52835703
0.371286 -7.5287061 -0.30441901
0.38246799 -7.5774808 -0.208822
0.390369 -7.5602751 -0.099440999
0.39955899 -7.568439 0.018166
0.40845501 -7.570581 0.14612199
0.41836199 -7.5911632 0.28440699
0.427645 -7.5997829 0.431032
0.437105 -7.6109228 0.58660603
0.446531 -7.6212072 0.74970502
0.45584801 -7.6292658 0.91961998
0.46425301 -7.6218219 1.0945719
1.728677 -26.370878 6.394105
0.54996598 -6.722939 4.0132809
0.75804299 -9.0105 5.7188172
0.71568501 -8.1681757 5.533567
0.61109799 -6.3041191 4.336545
0.81491202 -8.2091589 5.4677448
0.90408999 -8.8984823 5.6568131
0.50192899 -4.8840861 3.0176051
0.51279998 -4.9338551 2.951288
0.72753298 -6.9998851 4.1871271
0.54774803 -5.1542768 2.8600359
0.94355202 -8.7822914 4.6670308
0.98378903 -7.870677 1.136999
0.99237198 -7.8654618 0.953906
0.99793601 -7.8367152 0.77579999
1.006301 -7.830266 0.60747403
1.012486 -7.8070078 0.445788
1.020602 -7.7990022 0.29423901
1.0263489 -7.773078 0.151113
1.033926 -7.7614141 0.018767999
1.043463 -7.764523 -0.102909
1.050517 -7.749156 -0.215232
1.059947 -7.7514892 -0.31595999
1.063823 -7.7135 -0.404237
1.074886 -7.7277069 -0.482344
1.087672 -7.6894989 -0.59757698
1.12081 -7.668128 -0.67560101
1.156263 -7.663187 -0.544043
1.170428 -7.6374321 -0.40112701
1.184749 -7.671731 -0.313499
1.196429 -7.6885209 -0.214159
1.201021 -7.6597452 -0.101845
1.2148 -7.6896119 0.01866
1.231635 -7.738142 0.151017
1.235658 -7.7061019 0.291958
1.247888 -7.7253251 0.443131
1.260244 -7.7449422 0.603791
1.263782 -7.7105322 0.76729703
1.272395 -7.7073321 0.93992901
3.935226 -23.333721 4.5303469
4.0324121 -23.415548 6.3650069
4.102437 -23.496897 7.6497202
4.1597042 -23.503922 8.9273071
4.1890292 -23.510933 9.569046
1.5962501 -8.7249784 4.4711561
1.1631449 -6.31639 3.3935249
1.386916 -7.4829011 4.1992278
1.50102 -8.0465937 4.6984148
1.919008 -9.6655693 6.8951368
1.942716 -9.5533361 6.6748672
1.883822 -9.1018353 6.0292668
1.657589 -7.7377439 4.1811738
5.1223922 -23.382734 10.225934
5.2958369 -23.650415 7.7727919
5.2618828 -23.371992 7.047224
5.2800512 -23.326593 6.4069262
1.873121 -8.2309933 2.042398
1.882233 -8.2270517 1.8264821
1.891121 -8.2220917 1.6152281
1.898904 -8.2124443 1.408561
1.906544 -8.20226 1.207094
1.916343 -8.2013378 1.0133981
1.9236031 -8.1896563 0.826132
1.932523 -8.1850958 0.647138
1.939553 -8.1725435 0.47563899
1.947746 -8.1650276 0.31401399
1.955874 -8.1572371 0.16167299
1.962854 -8.1447954 0.020081
1.974225 -8.1505871 -0.110159
1.983555 -8.1478558 -0.230804
1.9909199 -8.1371517 -0.33831599
2.0006969 -8.136344 -0.434982
2.0089891 -8.1294556 -0.51770002
2.025187 -8.1143723 -0.64353198
2.0639541 -8.1097403 -0.72953397
2.0992391 -8.0915527 -0.58683002
2.122848 -8.1053324 -0.434982
2.1295381 -8.0926809 -0.33795199
2.1390619 -8.0908432 -0.230336
2.155988 -8.1168194 -0.110317
2.171226 -8.1362534 0.020183999
2.1823189 -8.1399717 0.162425
2.191385 -8.1361599 0.31521001
2.2074151 -8.1580954 0.47857901
2.2222371 -8.1753111 0.65189499
2.231503 -8.1720552 0.83189797
2.2429609 -8.1767912 1.020207
2.261234 -8.2061481 1.220149
2.2749269 -8.2187147 1.425043
2.2850521 -8.2183189 1.633091
2.3004689 -8.2367992 1.850807
