# .PCD v0.7 - Point Cloud Data file format
VERSION 0.7
FIELDS x y z
SIZE 4 4 4
TYPE F F F
COUNT 1 1 1
WIDTH 1537
HEIGHT 1
VIEWPOINT 0 0 0 1 0 0 0
POINTS 1537
DATA ascii
6.3922901 1.120742 0.12508
6.2503462 1.103334 0.015213
6.107759 1.085476 -0.081487
5.8892131 1.053699 -0.164664
6.1115909 1.100809 -0.25079101
6.1955032 1.123349 -0.326884
6.7317281 1.228659 -0.42304599
6.5502591 1.211257 -0.51257002
6.0546179 1.1487221 -0.53724998
6.5027852 1.2650681 -0.46505201
6.3512678 1.250911 -0.336061
6.0924702 1.207288 -0.25083101
5.852562 1.166809 -0.164251
6.1352639 1.2305861 -0.082195997
6.40587 1.2926 0.015664
5.5546589 1.12756 0.10924
6.0096912 1.227194 0.22945499
6.2747278 1.288903 0.362737
6.2520618 1.291823 0.49124199
6.1318412 1.274405 0.61502999
6.4607348 1.3505861 0.79418498
6.374052 1.340199 0.93366402
6.1971178 1.31051 1.058481
6.0964422 1.296615 1.193275
6.2869492 1.344772 1.391384
6.176425 1.32863 1.528565
6.1621742 1.332984 1.688934
6.2629738 1.362401 1.885412
6.2846389 1.374766 2.063216
6.3907018 1.405742 2.2729161
6.3998828 1.4155509 2.4514711
6.5494008 1.456609 2.6884229
6.29462 1.4076149 2.7554629
6.5224042 1.466504 3.030381
6.3381462 1.432816 3.1123891
6.6212211 1.504889 3.4227991
6.918879 1.58099 3.7499759
6.7805591 1.557678 3.838825
6.875226 1.587829 4.0502539
8.7588148 2.0228429 5.159893
8.3771524 1.944957 5.1166902
7.2677851 1.6962841 4.586885
8.0518103 1.8792731 5.0817032
6.867198 1.611195 4.4610939
7.7657099 1.822006 5.0447888
7.6878028 1.813157 5.1237068
7.0770779 1.686471 4.9098382
6.7281222 1.636386 4.8449988
7.2804279 1.8065701 5.1359472
7.3107562 1.832135 4.9953871
7.7531152 1.952561 5.1862912
7.9073129 2.001158 5.1586409
6.4446149 1.646922 3.9575479
6.4068899 1.645206 3.796865
6.4711819 1.669735 3.6876099
6.4566841 1.67399 3.524332
6.5751081 1.712852 3.42505
6.2932892 1.647239 3.115845
6.341197 1.6676461 2.972168
6.239624 1.64869 2.7570341
6.3286958 1.680087 2.6237049
6.1485529 1.639906 2.380008
6.1170292 1.639116 2.199744
6.085197 1.638159 2.0210731
6.0028739 1.623472 1.829253
6.0365949 1.640124 1.675737
5.980371 1.632305 1.4998749
6.3662081 1.745559 1.428612
6.0932961 1.678346 1.2100101
6.4422588 1.7825119 1.116992
6.3451581 1.763577 0.944022
6.232955 1.740198 0.77865499
6.0905948 1.708075 0.62118697
5.3964028 1.520151 0.4314
6.1666298 1.7448601 0.36290601
5.6626291 1.609354 0.220221
5.4146571 1.545683 0.108527
5.4196172 1.5539041 0.013514
5.9391069 1.710314 -0.081184
5.3755469 1.554792 -0.154016
5.4318452 1.577909 -0.22843599
5.348515 1.560437 -0.28924501
5.276648 1.546127 -0.33993
5.8202071 1.7200789 -0.46699801
6.9484882 2.0535259 -0.55752897
5.9637718 1.792677 -0.54289502
6.8519931 2.0596709 -0.623752
5.5788422 1.705261 -0.40952101
5.7557168 1.7739559 -0.31267899
5.6822572 1.758539 -0.240219
5.4392691 1.6902601 -0.156767
5.3396201 1.6661021 -0.073475003
5.3591208 1.679016 0.013461
5.5049701 1.731739 0.111225
6.2843661 1.984939 0.246539
5.5464511 1.758949 0.32949299
5.1948981 1.654108 0.41950801
5.9730339 1.909514 0.615812
6.1475291 1.973165 0.77686298
5.9516859 1.9179389 0.89634597
5.753521 1.861455 1.010518
5.9736991 1.940352 1.202489
5.9674139 1.945981 1.358387
6.252614 2.0470181 1.5918241
6.0363069 1.983894 1.702131
6.0985322 2.0121911 1.88908
5.8890991 1.950682 1.989617
5.8425808 1.942803 2.1387129
6.09026 2.033016 2.401377
6.066875 2.0330501 2.5638211
6.0646348 2.040132 2.733463
5.7556872 1.943642 2.7537661
5.9132371 2.0045049 2.990571
6.7374859 2.2839141 3.407428
6.483911 2.2063501 3.452508
6.787333 2.318393 3.789685
8.7460613 2.9988041 5.101685
9.1024971 3.1446669 5.7297521
7.8295569 2.7150769 5.0932231
8.6175842 2.988344 5.605844
7.514925 2.615747 5.032495
7.3046589 2.5520821 5.0192189
5.6490712 1.988384 4.0416522
5.5816922 1.993861 4.1472869
5.5496488 2.011528 4.0416422
5.5858178 2.039331 3.9412839
7.3377752 2.688611 5.0692859
7.969543 2.9305911 5.3703098
7.9462762 2.9325249 5.2058001
9.1911383 3.4161971 5.6283398
6.338829 2.381218 3.413347
6.180799 2.330044 3.163794
5.7799668 2.1866031 2.801245
5.6226501 2.134563 2.5692511
5.8673558 2.2352569 2.5158401
5.7654681 2.204109 2.3085451
5.8782778 2.255069 2.1869471
5.8526788 2.253046 2.0113001
5.9600668 2.3023319 1.879485
5.6263261 2.1809289 1.6164809
5.558259 2.1619689 1.442965
5.4783659 2.1382179 1.2727211
5.6728082 2.22171 1.166386
5.4362969 2.136364 0.97606999
5.2720051 2.078867 0.81234503
5.2363958 2.071862 0.67759001
5.2566781 2.086947 0.55541301
5.7641492 2.2961659 0.47743201
5.3613458 2.1429319 0.326949
5.3655438 2.1518359 0.216259
5.3871269 2.1677639 0.111919
5.35221 2.1609349 0.013835
5.2964268 2.145566 -0.075064003
5.0404959 2.048713 -0.14975201
5.1580448 2.1034701 -0.22496501
5.5382881 2.266036 -0.31065699
5.397738 2.2158561 -0.360724
5.3685212 2.2184391 -0.44697401
5.2737432 2.208015 -0.49842799
5.2676692 2.234282 -0.40167701
4.8173528 2.0564981 -0.27192801
4.9350882 2.113534 -0.216814
5.304915 2.2792089 -0.158913
5.329524 2.2971239 -0.076233
5.2456079 2.268178 0.013698
5.0998378 2.2121871 0.10714
5.1010642 2.219758 0.20810901
4.985918 2.176538 0.30806601
5.4150491 2.371366 0.45487699
5.3266778 2.340039 0.57134402
5.5919938 2.4643409 0.73528999
5.5136318 2.437465 0.86413598
8.8788481 3.925159 1.391557
5.532465 2.4534709 1.011342
5.5547419 2.4710701 1.163942
5.667603 2.5291719 1.3431571
6.0715041 2.7178681 1.6094609
6.4097309 2.87813 1.882229
8.8435612 3.9709809 2.5969269
5.76789 2.597976 1.86086
5.6977429 2.5743511 2.005192
5.6286941 2.5510249 2.1465881
5.989913 2.7231209 2.4609301
5.8740659 2.6786971 2.5868821
5.798665 2.6524479 2.724035
9.8907528 4.538156 4.9328332
8.5139627 3.918432 4.4890971
8.2152395 3.79251 4.561182
7.720777 3.5751221 4.4955788
5.6988258 2.654948 3.6086891
5.5816641 2.6082649 3.6655891
5.546524 2.5996921 3.764806
5.542872 2.6058321 3.8736579
7.1716008 3.3817191 5.1432981
6.6442819 3.1519401 4.9629812
6.438642 3.091115 4.997498
6.652142 3.2317159 5.0636339
6.9819441 3.412008 5.15063
5.5049858 2.7060831 3.8795381
5.4849548 2.7041559 3.758523
5.5320082 2.7353411 3.671725
5.6168542 2.7854121 3.5987329
8.3651075 4.1968122 4.4826169
5.679647 2.866039 2.7177491
5.8067522 2.9386389 2.6077111
5.854887 2.9715409 2.4556749
5.9519248 3.029495 2.3198371
7.590178 3.8633571 2.9583671
5.5780921 2.847374 2.0085521
5.9153938 3.0282121 1.954834
5.5236659 2.8357861 1.663317
5.6247392 2.8959301 1.530682
5.6900511 2.937916 1.385884
5.234797 2.7105689 1.1285909
4.7741251 2.4790649 0.89893401
5.3837218 2.80355 0.87009603
4.991704 2.6067879 0.67759001
4.6082792 2.4133661 0.51084697
4.5398402 2.384243 0.39457399
4.8205791 2.538835 0.30851799
4.9960489 2.6386609 0.21136101
4.8895192 2.5896699 0.106639
4.4581881 2.367851 0.012099
4.9766459 2.6506281 -0.074065998
4.6635008 2.4908049 -0.14551499
4.7255149 2.5309811 -0.216491
5.017436 2.694833 -0.29567301
4.9921532 2.6887341 -0.35054299
4.9333501 2.6718571 -0.43170699
4.8870721 2.6762331 -0.48574799
5.0180821 2.7783489 -0.40265799
4.9534941 2.757643 -0.29432601
6.2239342 3.464905 -0.36981201
4.6737342 2.609009 -0.216168
4.6919298 2.6263151 -0.147991
4.680654 2.6271529 -0.070505999
4.4383402 2.497926 0.012207
5.420475 3.0506771 0.014909
4.5347571 2.559135 0.100357
4.5912061 2.598022 0.19734301
4.6378908 2.631552 0.30195999
4.5505772 2.5890059 0.40285999
5.5315809 3.1471391 0.48970801
4.7293539 2.6979909 0.53469402
4.8459401 2.77196 0.671736
4.7346969 2.715636 0.78240502
4.9368358 2.839196 0.95167702
5.4819322 3.1611559 1.2115149
5.4050069 3.125174 1.351195
5.8944521 3.4173069 1.648499
5.2344208 3.0427051 1.621915
5.9292259 3.4465871 1.837204
5.3460641 3.1159101 1.820222
5.6683302 3.3302491 2.458828
9.6298742 5.6878629 4.777864
9.4025841 5.568347 4.953476
5.7129459 3.3922651 3.182369
5.6149268 3.3428841 3.2940619
5.5702038 3.325021 3.427628
8.4494591 5.0703931 5.6562181
8.0244627 4.8407488 5.7597871
7.8655558 4.8451209 6.4640121
7.9312592 4.936553 6.396347
8.0874071 5.0598459 6.3229599
8.148243 5.1110778 6.2393308
8.3777571 5.2822018 6.0870481
5.5227919 3.51809 3.4598629
5.521666 3.526402 3.302614
5.5939689 3.5817261 3.181505
5.6979189 3.6576159 3.06919
9.7913494 6.3497052 4.0536451
5.1460581 3.3457179 1.968546
5.7183328 3.7272339 2.007889
5.248661 3.4297991 1.679619
6.7761178 4.4279332 2.1684189
5.3228621 3.4871089 1.539618
5.59027 3.6715741 1.447437
4.7758331 3.1446199 1.094744
4.738071 3.127646 0.94871002
4.795269 3.1733999 0.82426399
4.409605 2.9255519 0.63673401
4.5054078 2.99665 0.531371
4.511909 3.008534 0.417283
4.6497979 3.1082909 0.31671599
4.3897171 2.9418111 0.197679
4.478178 3.008642 0.103979
4.5327301 3.0529349 0.013099
4.4848852 3.0282831 -0.071084
4.372438 2.9597621 -0.145322
4.3075662 2.9231451 -0.210237
4.6651921 3.173748 -0.29292601
5.525569 3.7590661 -0.346948
4.6201282 3.1509521 -0.34573001
5.4249191 3.6998241 -0.40595299
4.5537062 3.121165 -0.42480201
4.4960551 3.1124511 -0.47671601
4.4531679 3.1134551 -0.38144001
4.2506762 2.9866071 -0.26969901
4.3621931 3.07253 -0.215482
4.449532 3.1417811 -0.14991701
4.418612 3.127651 -0.071110003
4.4928241 3.188015 0.013204
4.2512112 3.0240071 0.100549
4.4790292 3.1938961 0.205791
4.233305 3.026094 0.29466701
4.3723869 3.133199 0.413908
4.334012 3.1133211 0.524041
4.4932871 3.2356491 0.66624099
5.1086092 3.6877699 0.903157
4.9932861 3.6133449 1.029967
4.7033 3.4118249 1.11242
10.733788 7.8054638 2.872241
4.753386 3.465039 1.4232121
9.5671387 6.9909539 3.1742229
10.44809 7.653306 3.809768
10.303305 7.5656672 4.0995588
5.6269059 4.1519499 2.615417
5.5359588 4.094789 2.759093
5.5047579 4.081604 2.927532
5.8526192 4.381804 3.8630309
7.4536128 5.5804548 4.9197698
5.5489841 4.1645489 3.828197
5.010776 3.787981 3.8606279
4.9522882 3.7528069 3.9297819
4.890883 3.7152319 3.984138
4.8217711 3.6804161 4.0936761
4.7083378 3.6285779 4.1593261
4.6633391 3.628545 4.0455971
4.7292652 3.6975119 3.978852
4.7602868 3.7306769 3.923187
4.7785048 3.753916 3.84319
4.8339529 3.8065691 3.7815621
4.8717179 3.8454781 3.6926889
4.9261932 3.8977661 3.6057019
4.959022 3.9331231 3.4924321
5.0066352 3.980361 3.3795099
5.0210338 4.0013418 3.236445
5.1109052 4.0826712 3.1331241
5.148788 4.1227322 2.9899211
5.2116599 4.1830249 2.8548541
5.2847228 4.2517619 2.7178071
5.2676592 4.2481151 2.530992
5.3245692 4.304234 2.378243
5.4392691 4.407403 2.245229
5.5209908 4.4842472 2.092268
5.6120758 4.5690651 1.938639
4.8118429 3.926852 1.502697
5.6838479 4.6384792 1.775017
4.8159218 3.939502 1.346541
4.5789652 3.75456 1.1336679
4.379869 3.5998189 0.94739097
4.09657 3.3749499 0.76083702
4.1760659 3.4485991 0.65166599
4.5270252 3.747268 0.57710999
3.989305 3.309978 0.398871
3.921757 3.261636 0.28884399
4.1379561 3.4495771 0.20152999
3.8345511 3.2042079 0.096309997
4.6286211 3.867744 0.116254
4.2324681 3.545064 0.013233
4.0970459 3.4397349 -0.070270002
4.0276022 3.3894219 -0.14488199
4.237288 3.5742929 -0.223876
5.0606122 4.2687931 -0.26737601
3.9998231 3.381937 -0.27192801
4.1817169 3.544075 -0.33888099
4.1319242 3.5183899 -0.41758999
3.893012 3.3462789 -0.44753399
3.8878541 3.3733699 -0.36134201
3.964119 3.4557171 -0.27301699
4.2142668 3.6824 -0.226014
4.9418511 4.3181591 -0.265035
3.9554019 3.4643109 -0.14471699
4.7735538 4.1808829 -0.174651
3.957037 3.4738779 -0.069165997
3.912792 3.4430859 0.012493
4.0100489 3.5369461 0.103055
3.830193 3.3862219 0.19125
3.902765 3.458461 0.29528901
4.0917692 3.6344471 0.421119
3.794575 3.3783569 0.49892399
4.2194018 3.7653739 0.680457
4.7285151 4.229588 0.90939999
4.8483572 4.3469262 1.088149
3.919955 3.522758 1.0089999
5.504447 4.9466982 1.41685
5.421051 4.883153 1.579003
5.3608322 4.8401928 1.747503
5.3027849 4.7988691 1.915868
5.2916412 4.7999692 2.1015811
8.3269358 7.6062851 4.2180858
8.629715 7.9567232 5.6221709
5.4732261 5.069952 3.941982
5.531508 5.1358981 4.164927
6.3001819 5.8495979 4.7436981
4.8828721 4.5442171 3.8287251
4.8143868 4.4909358 3.9171541
4.7768612 4.466311 4.0192838
4.7588868 4.4598699 4.1248822
4.7548742 4.4665012 4.2317519
4.7352691 4.468823 4.394073
4.7045951 4.4813819 4.5463071
4.697166 4.5161009 4.4613991
4.748219 4.5864611 4.3755221
6.4215961 6.2172551 5.7979789
5.343658 5.197722 4.5816488
6.1186409 5.95154 5.246119
6.0771222 5.9248972 5.0497088
6.2388301 6.0966959 5.007062
6.144217 6.0182161 4.7456298
8.8754272 8.7745562 5.6574001
7.901197 7.8477759 4.4622321
5.850873 5.838377 2.8710859
5.6396399 5.6537852 2.3490751
6.1359401 6.179976 2.1070681
5.8767891 5.9327221 1.807234
5.12887 5.1897349 1.3969181
3.970768 4.0272288 0.94508398
3.9797051 4.0456748 0.81348002
3.7796371 3.851234 0.64927697
3.7946351 3.875505 0.53264201
4.0040679 4.0989079 0.44091299
3.7217929 3.8188159 0.30195999
3.7799239 3.88748 0.202838
3.950686 4.0725608 0.109356
3.7109201 3.8342929 0.01279
3.726994 3.859858 -0.070479997
3.6902089 3.8306611 -0.146395
3.6647661 3.813098 -0.213586
3.56163 3.7144079 -0.26715899
3.7464299 3.9162359 -0.33505499
3.892252 4.0876231 -0.434315
3.940403 4.1768789 -0.50059903
3.5781009 3.8283 -0.367854
3.5527639 3.8189361 -0.27078801
3.7058711 3.9927969 -0.220002
3.790462 4.0934558 -0.153548
3.660604 3.9624469 -0.070860997
3.9816129 4.3199749 0.014082
3.5488379 3.8594141 0.10105
3.6067131 3.9315021 0.199586
4.5788159 4.9911451 0.25338
3.544975 3.87322 0.297324
4.3174682 4.7172418 0.362115
3.5175381 3.8522229 0.401402
3.536741 3.8822939 0.51573402
3.4076149 3.749285 0.60961598
3.952323 4.3587761 0.84341902
4.9663358 5.4770679 1.059808
5.0076518 5.535533 1.247366
4.9248471 5.456717 1.4072599
4.8552809 5.3922248 1.57033
4.7714758 5.3115368 1.727514
4.6888118 5.2316122 1.88197
4.6220269 5.1691551 2.039778
4.5836258 5.1382151 2.208277
4.5273418 5.0869951 2.365447
4.4856262 5.051918 2.526788
4.4550629 5.0292568 2.692143
4.420537 5.001967 2.851712
5.4572811 6.189537 3.7404981
4.7897782 5.4452138 3.473521
4.9369779 5.625711 3.7730019
5.4800339 6.2445259 4.1880231
4.810246 5.4941502 3.8583591
4.6729832 5.349905 3.9195049
4.5240841 5.191587 3.952682
4.4420099 5.1093812 4.0281091
4.3870559 5.0580158 4.1151061
3.28829 3.8001051 3.1782489
4.3412499 5.0169568 4.1959729
4.2739801 4.9508338 4.2426362
4.1708879 4.8541522 4.3191142
3.2629499 3.8333659 3.5223849
3.3334441 3.9532361 3.5405331
3.3212941 3.9761541 3.2765999
3.8712311 4.634522 3.8191371
3.3368001 4.0041671 3.2034891
3.905659 4.686799 3.7496221
3.815614 4.5895662 3.5510559
3.895076 4.6962242 3.502156
3.926733 4.7456059 3.3987081
3.9383931 4.7709622 3.26879
3.9731009 4.8244181 3.15047
4.047792 4.9267559 3.0540719
4.051404 4.9428382 2.897028
4.0865202 4.9975171 2.7578199
4.1490378 5.0860081 2.630028
4.2177792 5.1825409 2.499114
4.27631 5.266953 2.3565869
4.4076042 5.4415579 2.2458401
4.6237488 5.7355981 1.9735709
4.4277682 5.5055571 1.709406
3.4484329 4.2980418 1.192554
3.4418941 4.3001218 1.054505
3.3776081 4.2298608 0.90453798
3.3410721 4.1940808 0.768641
3.43573 4.3232059 0.66444898
3.6268721 4.5746131 0.57329798
3.281882 4.1493578 0.40707999
3.4379549 4.3570828 0.31428501
3.48173 4.42311 0.210576
3.512953 4.4734631 0.109626
3.4183609 4.3634248 0.013286
3.4776609 4.4497499 -0.074184
3.478848 4.461947 -0.15572201
3.300998 4.2439871 -0.21713699
3.4883909 4.4956708 -0.295414
3.4372189 4.4403701 -0.34714901
3.419066 4.4381652 -0.43109301
3.2372489 4.2427831 -0.46525201
3.3174081 4.3899722 -0.386271
3.263463 4.3395071 -0.281883
4.0653729 5.405827 -0.35114801
3.6007409 4.7995811 -0.24231701
3.4158511 4.5641599 -0.156905
3.6035631 4.8266602 -0.079121999
3.4680431 4.6564069 0.013916
3.2282541 4.3449841 0.104326
3.3530581 4.5239201 0.210651
3.747231 5.0680218 0.356913
3.643959 4.940352 0.47236899
3.228663 4.3879609 0.53498697
3.273452 4.4596658 0.66564298
3.2719829 4.4685431 0.79389799
3.1206601 4.2722759 0.88410002
4.5034451 6.1803999 1.464047
4.5858221 6.3088441 1.6879359
4.5114651 6.2217212 1.859441
4.326406 5.9809752 1.977453
4.3467031 6.0237451 2.1851139
4.00562 5.5920181 2.572679
3.940135 5.5141258 2.715575
5.4690199 7.672576 4.0251598
3.780092 5.316196 2.956892
5.3012071 7.455441 4.1467509
3.7893801 5.355557 3.307116
3.672991 5.2038641 3.365494
3.6589539 5.1967878 3.5069261
3.6223781 5.157546 3.61765
3.5785689 5.1077828 3.7105851
3.2757199 4.6870861 3.5145171
3.5501399 5.0923209 3.9260409
3.0990779 4.4563489 3.521018
2.9899271 4.3207588 3.546025
3.4358339 5.0904808 4.0705609
2.926034 4.3460398 3.398571
3.41519 5.0725842 3.966723
3.174891 4.7275019 3.601588
3.1877711 4.7586231 3.520277
3.0992701 4.638144 3.3189199
3.167968 4.7528858 3.278635
3.566854 5.3648338 3.554754
5.5553341 8.3556662 5.5364881
3.3659639 5.0754461 3.217869
3.8660009 5.933609 2.4599459
4.1916571 6.482698 2.0680189
3.0222909 4.7100959 1.0714279
3.2199509 5.0309782 0.99815601
3.3929551 5.3148642 0.90386599
3.201185 5.0273399 0.71713197
3.301697 5.1985002 0.60476798
3.115536 4.917995 0.447972
3.1246879 4.945147 0.33124599
3.2379129 5.1375332 0.227174
3.058537 4.865448 0.110762
3.1820011 5.0749149 0.014357
3.172662 5.0730948 -0.078597002
3.2208591 5.1635022 -0.16749699
3.1268959 5.0258479 -0.239048
3.0936019 4.9852262 -0.304591
3.571439 5.7702012 -0.41952801
3.415786 5.5474558 -0.50129199
3.4498739 5.6615658 -0.57798201
3.0386641 5.0392542 -0.41309199
3.4618261 5.7712922 -0.34938499
3.58623 5.994452 -0.28210399
2.8652799 4.802012 -0.153906
3.054848 5.133266 -0.078465998
3.0761931 5.1828132 0.014446
2.97844 5.0314312 0.112689
3.005111 5.0899549 0.221118
3.1155469 5.2910271 0.347698
3.1001489 5.2788992 0.47106501
3.0777471 5.2547121 0.59802401
3.1319251 5.3614721 0.74711698
3.4886141 5.988049 0.993402
3.59253 6.1829052 1.194953
3.557421 6.1388731 1.358371
4.1765771 7.2266712 1.806388
3.885427 6.7589068 2.0884609
3.756182 6.5516672 2.221518
3.4968491 6.1323009 2.452071
3.5168159 6.2344289 3.2446549
3.793335 6.7612829 3.908041
3.584146 6.4058371 3.8784471
3.6877761 6.609066 4.1760392
3.1573889 5.6739988 3.72717
4.8039422 8.6566076 5.8903041
2.739218 4.9495478 3.4768169
2.6683741 4.8347759 3.4925461
2.608007 4.73841 3.5085011
2.983382 5.4503312 4.1932492
2.9102709 5.3759151 4.2774272
2.5014269 4.6985941 3.5280409
2.667969 5.0254741 3.69081
4.5532999 8.6250639 5.9943681
3.6808119 7.0117369 4.5455842
3.8011 7.261375 4.5224319
4.8937311 9.3751345 5.5878229
3.3721199 6.4784632 3.6816249
3.117353 6.0060201 3.241118
3.608036 6.9513898 3.751282
3.3006129 6.3771892 3.254976
4.3698902 8.4914265 3.8265769
3.577924 6.972383 2.931046
2.7823131 5.4375081 2.12165
4.0224352 7.8610921 3.0673039
4.8297501 9.4659166 3.408155
4.677772 9.1943979 3.0345509
3.7547569 7.4014392 2.2232759
3.797128 7.5065451 2.0353429
3.8275759 7.588593 1.839385
3.12169 6.207027 1.330165
3.786906 7.5515361 1.411692
3.0152631 6.0302491 0.96644199
2.86219 5.740788 0.77184498
2.957602 5.9494419 0.65246099
2.879545 5.80933 0.498914
2.8457091 5.7578769 0.36369801
2.7232029 5.526145 0.230464
2.718174 5.532146 0.118798
2.835871 5.7886539 0.01545
2.814431 5.7618098 -0.084232002
3.241539 6.6558051 -0.203759
2.9006929 5.973556 -0.26818299
2.881777 5.9521742 -0.343319
2.871074 5.9476819 -0.40829799
3.044935 6.3454361 -0.54157102
2.890837 6.0967669 -0.58823001
2.955164 6.3079448 -0.48900199
2.7717769 5.9524512 -0.34088299
2.894238 6.2343378 -0.277585
2.7513831 5.9446778 -0.180291
2.469615 5.3521991 -0.077427998
2.7955461 6.0585618 -0.087646998
2.54301 5.52812 0.014585
2.60864 5.6881919 0.120609
2.5795081 5.6419449 0.232071
2.644347 5.801558 0.36104
2.7569571 6.067296 0.51280099
2.8187571 6.222466 0.67083502
2.7390361 6.0652022 0.80075502
3.12233 6.9139509 0.91281098
2.837224 6.3021421 0.99070603
3.4400589 7.664937 1.403946
4.432704 9.9074583 2.0779841
3.7996621 8.519104 2.018755
4.1618919 9.3919544 2.751925
4.7904949 10.878588 3.812186
4.757246 10.837139 4.1110668
4.2557802 9.7254143 3.970417
3.675781 8.4266148 3.6837499
3.2035241 7.367281 3.4319539
3.3502021 7.7291002 3.8185279
3.964236 9.1748934 4.7871609
3.299861 7.661643 4.2051282
3.0911331 7.1999879 4.1400628
2.927016 6.8396192 4.105021
2.7022491 6.3756599 4.255959
2.6371739 6.242259 4.2857718
3.6762829 8.7301226 6.144639
3.4832821 8.6047983 6.152801
3.6082389 8.9432878 6.2556572
3.945416 9.8779516 6.3284979
4.3004379 10.803156 6.6742582
4.46913 11.303202 6.4221892
2.9542601 7.5485649 3.6744411
2.6712289 6.848803 3.1404581
3.636024 9.3544846 4.0214758
3.63726 9.3898983 3.766186
3.5175149 9.1121664 3.392803
2.78879 7.2494059 2.4910679
2.8963151 7.5550489 2.3801169
3.9373889 10.306486 2.95557
3.528676 9.2688694 2.3996119
3.362807 8.8640757 2.0517521
2.3718009 6.2738261 1.284097
2.303261 6.1139512 1.0917749
2.3896871 6.3657341 0.97467202
2.368191 6.3308039 0.813299
2.4367089 6.5370622 0.68510401
2.4100101 6.4884171 0.53259498
2.4878531 6.7218971 0.40587401
2.2838211 6.1926751 0.246912
2.2999051 6.2811542 0.016032999
2.423346 6.6421242 -0.092873998
2.4033129 6.6110492 -0.193607
2.5007701 6.904057 -0.29655099
2.312099 6.4063702 -0.353585
2.341866 6.5125232 -0.42785901
2.320595 6.5972362 -0.60968202
2.422349 6.9899631 -0.519324
2.3295431 6.7729282 -0.37183401
2.3543379 6.8709111 -0.293322
2.1972289 6.4367352 -0.187197
2.1565909 6.341764 -0.087987997
2.1863129 6.4537091 0.016332
2.210577 6.5755129 0.25951001
2.1302631 6.3610249 0.37986699
2.2332821 6.6944499 0.54302901
2.4382789 7.3372779 0.75928301
3.3085091 9.9946918 1.266777
3.3469081 10.150187 1.532032
3.4194829 10.410864 1.831162
2.2739921 6.9779158 1.58831
3.068289 9.4896364 2.6717091
2.2738619 7.0606098 2.182009
3.162879 9.8211145 3.035115
3.1478281 9.8134546 3.305239
3.151674 9.8648014 3.597224
3.2101879 10.08833 3.9595571
3.193965 10.07787 4.2360892
2.955235 9.3623285 4.1940861
2.093436 6.6590228 3.1641469
3.416106 10.955199 5.7846389
2.50793 8.0757179 4.4680161
3.014636 9.7473335 5.6297288
3.0313499 9.8418331 5.9111009
2.962966 9.6597071 6.0114851
2.2814391 7.594811 5.3517628
2.201179 7.5826001 5.405993
2.7142451 9.4731464 6.3922529
2.8101671 9.9385633 6.144937
2.203891 7.8290758 4.6685448
2.257081 8.0539074 4.61519
2.7120171 9.7206554 5.3322811
2.387291 8.5953255 4.4968128
2.5368631 9.1751423 4.5595088
2.513705 9.1326437 4.2937279
2.7102771 9.891737 4.3814769
2.751055 10.086489 4.1892238
2.6985481 9.9394093 3.8520119
2.188216 8.0969362 2.913414
2.0061071 7.4574471 2.4767151
2.5992811 9.6624985 3.2090411
2.5652511 9.580308 2.9174359
2.3316 8.7483921 2.4253681
2.5624361 9.6595516 2.4179549
2.5602031 9.6965342 2.1704149
2.516237 9.5750933 1.895401
2.344775 8.9649439 1.548494
2.34254 8.999054 1.332955
2.3387959 9.0276995 1.1221091
2.0719309 8.0747719 0.64146101
1.914156 7.4960709 0.438099
1.811433 7.1282969 0.27513599
1.841576 7.2823629 0.144774
1.766346 7.0191431 0.017348999
1.813916 7.2436948 -0.098089002
1.784907 7.1631732 -0.203181
1.79818 7.2523079 -0.30175599
1.759388 7.1312809 -0.381322
1.8284 7.4482212 -0.47413701
1.788407 7.668849 -0.55279702
1.6557159 7.2133851 -0.29889101
1.746406 7.6491981 -0.215947
1.752194 7.7158661 -0.103933
1.8630151 8.2481937 0.020268001
1.714659 7.6742802 0.294164
1.7789299 8.0055952 0.464389
1.791977 8.1088057 0.63900602
2.1780159 10.021221 1.470024
2.1323709 9.9221344 1.942974
1.93536 9.2130594 2.769278
2.0439 9.786274 3.2062919
2.5158539 12.116271 4.2984262
2.0325339 9.9041405 4.0512319
2.092454 10.256561 4.4718332
2.0458789 10.148574 4.9586549
2.1004701 10.482165 5.3889742
1.825353 9.3341265 5.65868
1.583768 8.1489601 5.1021242
1.650212 9.3584185 6.1642299
1.431646 8.2306757 5.1345892
1.6002589 9.2637272 5.5932322
1.573296 9.1710882 5.3410988
1.705174 10.009637 5.602675
1.6833349 10.240272 4.4333329
1.798138 11.099581 4.2054749
1.544773 9.6063242 3.379678
1.590676 9.9655533 3.236526
1.488222 9.4648848 2.5666521
1.519701 9.7387438 2.3847971
1.321051 8.8710327 0.88076401
1.199362 8.1843357 0.46840301
1.19266 8.2049723 0.310164
1.212406 8.4094744 0.163754
1.256228 8.7856169 0.021272
1.326745 9.5966759 -0.50295103
1.128679 9.2729483 -0.37725601
1.077089 9.2054796 0.17862999
1.154287 10.278636 1.015733
0.94901198 9.117527 2.4556429
1.013348 9.8466101 2.9117911
1.022422 10.409481 4.1910839
1.2361701 12.893294 5.8712611
1.073696 11.337374 5.4545641
0.97760099 10.584409 5.6163211
0.60551399 10.562904 4.2394361
0.67363 13.382438 3.2419691
0.48282999 11.136916 1.0947
-0.057346001 10.566946 3.9522009
-0.097129002 9.6505833 4.6225781
-0.10392 8.3927584 4.4348469
-0.79254401 16.006117 5.5666251
-0.86718702 14.744547 2.117204
-0.88356602 12.969817 -0.170762
-1.233173 13.65826 -0.18014
-1.251846 10.465461 6.049993
-1.208653 6.6612229 -0.52093297
-1.115455 5.9889011 -0.53108299
-1.739103 5.9590631 -0.47766301
-1.633713 5.5028362 -0.50042599
-0.97869402 -2.8759179 0.81380397
-0.99388403 -3.035022 1.6874191
-1.1118751 -3.408648 1.978352
-1.058875 -3.25892 1.966882
-1.0050271 -3.105401 1.94196
-0.983621 -3.0512781 1.970371
-1.022405 -3.1841681 2.1150911
-1.099923 -3.4392409 2.3422661
-1.06912 -3.369719 2.385833
-0.98376799 -3.1511359 2.309845
-1.028131 -3.347506 2.3976419
-0.96618801 -3.171917 2.197705
-0.92737901 -3.057162 2.0723391
-0.96416599 -3.1916909 2.1086769
-0.94439399 -3.1393449 2.014878
-1.039497 -3.4699979 2.1551759
-1.005324 -3.3700709 2.018656
-0.94267201 -3.1734309 1.826655
-0.970061 -3.2794981 1.807014
-0.98723501 -3.351795 1.761364
-0.81196499 -2.768517 1.381892
-0.83207798 -2.8492701 1.345506
-0.87377203 -3.004945 1.336875
-0.79923898 -2.760504 1.151544
-0.831258 -2.883549 1.122394
-0.87330699 -3.0426209 1.099544
-0.88986802 -3.113869 1.038632
-0.73249298 -2.574419 0.78735203
-2.140506 -7.5230231 2.300818
-0.76559198 -2.7026119 0.75247699
-0.82789999 -2.9354839 0.73794401
-0.80374199 -2.8624711 0.64344603
-0.79034102 -2.8272941 0.56203902
-0.89777499 -3.2259741 0.55956697
-0.77993 -2.815098 0.41872999
-0.746526 -2.706686 0.33783901
-0.78575802 -2.8618131 0.29143801
-0.799936 -2.9266779 0.23346099
-0.83354002 -3.0635419 0.179785
-0.76805401 -2.8357739 0.109905
-0.77245599 -2.8651471 0.057193
-0.74233299 -2.766115 0.0068649999
-0.70243299 -2.6295609 -0.035751998
-0.935202 -3.5009301 -0.047600001
-1.5798301 -5.9140978 -0.080410004
-0.69893199 -2.6286371 -0.074862003
-1.561488 -5.8726501 -0.16725001
-0.74186498 -2.803128 -0.117103
-0.71228898 -2.7039919 -0.14516699
-0.75002497 -2.8606651 -0.18283001
-0.76144099 -2.9317789 -0.233077
-0.73767197 -2.895169 -0.260461
-0.75765997 -3.032079 -0.219396
-0.68600601 -2.7725461 -0.148277
-0.69033402 -2.803915 -0.116619
-0.66718 -2.7234061 -0.077173002
-0.69003701 -2.830862 -0.038274001
-0.64675701 -2.666683 0.006577
-0.81171697 -3.363806 0.066693
-0.72973299 -3.0394411 0.116933
-0.67825001 -2.8394411 0.16531201
-0.93827701 -3.9280231 0.228689
-0.73122698 -3.0769579 0.243358
-0.66771197 -2.8241811 0.28498799
-0.83335698 -3.5430601 0.43794799
-0.674559 -2.8828681 0.42440599
-0.76362902 -3.280591 0.56286401
-0.67443597 -2.912637 0.57238102
-0.9217 -3.9804759 0.78222901
-0.75906003 -3.2954221 0.73186201
-1.739833 -7.5934572 1.884838
-0.941221 -4.1297531 1.134668
-1.129867 -4.984014 1.503306
-0.76533997 -3.394223 1.115896
-0.67824501 -3.024224 1.076575
-0.69269198 -3.105427 1.190004
-0.65760601 -2.9642529 1.216634
-0.637586 -2.8897769 1.264197
-0.69122702 -3.1501811 1.4619319
-0.693165 -3.1765461 1.557274
-0.69214499 -3.1895421 1.6452301
-0.73670202 -3.413877 1.845322
-0.76493198 -3.564672 2.011687
-0.774257 -3.6285419 2.129669
-0.65925097 -3.1071589 1.889806
-0.76429701 -3.622848 2.27564
-0.70945901 -3.3822379 2.185647
-0.77778798 -3.729435 2.4712429
-0.68431598 -3.3195679 2.287379
-0.64221001 -3.267699 2.2801321
-0.71976 -3.7075329 2.5032179
-0.67054099 -3.47544 2.2960081
-0.63962901 -3.335917 2.148231
-0.658108 -3.4538741 2.1609671
-0.629457 -3.324373 2.013032
-0.61965299 -3.2933869 1.9235719
-0.72888303 -3.898726 2.1885071
-0.64333802 -3.4632771 1.8612061
-0.51895398 -2.8117759 1.441321
-0.53680199 -2.9274099 1.425522
-0.54359001 -2.9838369 1.374819
-0.67720097 -3.741766 1.624442
-0.55848199 -3.1062591 1.2646151
-0.56583297 -3.1681409 1.203666
-0.54915202 -3.0954089 1.091997
-0.69604802 -3.9499221 1.286304
-0.48528299 -2.7725959 0.82799
-0.67830497 -3.8753979 1.157323
-0.49448699 -2.844538 0.77343702
-1.00833 -5.8004222 1.577149
-0.461851 -2.675096 0.65681303
-0.48626101 -2.8360021 0.62271702
-0.53315902 -3.1312461 0.60810798
-0.51534402 -3.0478771 0.51654899
-0.55202597 -3.2879031 0.4779
-0.58578002 -3.513813 0.42862999
-0.53582197 -3.2371709 0.32222399
-0.49022299 -2.9830511 0.23261701
-0.67971498 -4.1361308 0.32253301
-0.94633001 -5.7585092 0.44904599
-0.457048 -2.801414 0.160733
-0.44815299 -2.7669821 0.104858
-0.47105199 -2.9298229 0.057193
-0.469017 -2.9388011 0.0071330001
-0.85166901 -5.3364511 0.012953
-1.191138 -7.4635258 0.018115999
-0.46996599 -2.966748 -0.039455999
-0.516083 -3.282418 -0.091452003
-0.87659597 -5.5753708 -0.15533701
-0.47941199 -3.0722859 -0.125577
-0.50388598 -3.2537811 -0.17093401
-0.46239799 -3.0088651 -0.188199
-0.666004 -4.3337522 -0.27106801
-0.49689201 -3.2838011 -0.25555599
-0.46932101 -3.20151 -0.282087
-0.41785899 -2.945184 -0.208822
-0.43814501 -3.140312 -0.164609
-0.84648299 -6.0669832 -0.318019
-0.42708299 -3.0870571 -0.12586001
-0.58359402 -4.2183509 -0.17198201
-0.41582501 -3.031455 -0.084215999
-0.57653099 -4.2030358 -0.116764
-0.55324602 -4.0681992 -0.053929999
-0.73784101 -5.4255872 -0.071924999
-0.70184398 -5.2058878 0.012591
-0.410294 -3.0701301 0.059698001
-0.77569199 -5.8043098 0.112863
-0.414415 -3.128464 0.118054
-0.443055 -3.3745871 0.19273201
-0.43573099 -3.348788 0.25985301
-0.36743301 -2.8495879 0.28215301
-0.367553 -2.8766961 0.34894899
-0.414612 -3.275116 0.47321701
-0.40174499 -3.203141 0.53945899
-0.38159299 -3.071177 0.59250098
-0.35459 -2.8810599 0.62821698
-0.71380699 -5.8554521 1.427209
-0.53226 -4.4084172 1.189525
-0.679075 -5.6243992 1.517634
-0.396014 -3.312083 0.98122698
-0.60364503 -5.0486169 1.495687
-0.63635898 -5.3749199 1.7358381
-0.57574898 -4.9115319 1.71773
-0.34811199 -2.9995749 1.1294
-0.47314799 -4.0769649 1.53506
-0.458206 -3.988467 1.608665
-0.48220599 -4.2405429 1.823225
-0.40082601 -3.5614951 1.624598
-0.351998 -3.1605051 1.5231479
-0.445039 -3.9958971 1.92575
-0.36476001 -3.309818 1.67854
-0.41115001 -3.7707291 2.0041599
-0.333814 -3.094655 1.717471
-0.381962 -3.5797629 2.0664461
-0.38196501 -3.619442 2.1654029
-0.37124401 -3.5571821 2.198144
-0.29717699 -3.4667959 2.200614
-0.29674801 -3.5094531 2.164633
-0.25666499 -3.1212161 1.797624
-0.28285101 -3.489032 1.9314899
-0.296074 -3.705229 1.963984
-0.260557 -3.358448 1.613431
-1.7700959 -23.162292 10.529956
-0.32567301 -4.327363 1.853868
-0.333657 -4.574543 1.715469
-1.664798 -23.194401 8.0774307
-0.36690101 -5.195745 1.670485
-0.383214 -5.5173841 1.626912
-0.38133299 -5.5836582 1.499262
-0.20033 -2.9839909 0.72359902
-0.386076 -5.750752 1.394522
-0.249843 -3.7869079 0.82133502
-0.39532301 -5.9919562 1.299584
-0.221195 -3.4127281 0.65474099
-0.222249 -3.4914229 0.58462
-0.231911 -3.7107561 0.53295499
-0.22277001 -3.631928 0.43782899
-0.212106 -3.5246379 0.346755
-0.195675 -3.315413 0.25555599
-0.18350901 -3.1716061 0.17989799
-0.172656 -3.044976 0.114092
-0.210365 -3.7874579 0.073109001
-0.225417 -4.1448631 0.0099489996
-0.22491901 -4.2256532 -0.055585001
-0.194501 -3.735523 -0.102953
-0.192697 -3.7850089 -0.15305699
-0.199444 -4.008637 -0.20836601
-0.19198801 -3.9507861 -0.244535
-0.169401 -3.6602499 -0.281948
-0.155926 -3.7435429 -0.32664001
-0.13682599 -3.6953671 -0.259592
-0.123546 -3.5590611 -0.18488
-0.125835 -3.749831 -0.15152401
-0.128002 -3.9504299 -0.108785
-0.12266 -3.925745 -0.051592
-0.17985401 -5.9772782 0.014333
-0.229119 -7.614532 0.018259
-0.106929 -3.6957669 0.071258999
-0.158225 -5.4686961 0.105444
-0.098752998 -3.555141 0.133045
-0.089835003 -3.374397 0.191149
-0.099220999 -3.8962159 0.29990101
-0.092758998 -3.8155129 0.37480399
-0.087017 -3.75788 0.45228401
-0.082144998 -3.7339211 0.53536701
-0.111645 -5.0748858 0.72763401
-0.065489002 -3.1417439 0.52512002
-0.061698001 -3.133472 0.60002202
-0.064730003 -3.492533 0.75597501
-0.104955 -5.6629071 1.225763
-0.100727 -5.7958689 1.402517
-0.093131997 -5.7388682 1.537559
-0.124824 -7.6917439 2.0607741
-0.078639001 -5.2173338 1.5349129
-0.115552 -7.6662869 2.255383
-0.32516801 -23.3673 7.4948869
-0.29892701 -23.426922 8.138134
-0.21755201 -23.41297 10.002401
-0.16382299 -23.471888 11.242613
0.192478 -5.3758831 1.441041
0.123077 -3.228852 0.69928801
0.218806 -5.4114809 0.90503198
0.310536 -7.6801429 1.2844501
0.15191001 -3.6524761 0.52401501
0.153506 -3.5907969 0.43245301
0.17610499 -4.0108242 0.394252
0.159392 -3.5369439 0.27243501
0.189042 -3.9897299 0.149418
0.175143 -3.6080811 0.069622003
0.19416299 -3.8177359 -0.050213002
0.19395401 -3.49494 -0.216397
0.251201 -3.4455571 -0.04538
0.298118 -4.0249629 0.0096739996
0.29626799 -3.938138 0.076114997
0.293661 -3.8441031 0.14422201
0.28239399 -3.6412151 0.20681
0.30851901 -3.9192541 0.30250901
0.304544 -3.812458 0.375586
0.60734499 -7.6030908 0.74902099
0.465325 -5.7416248 0.69312
0.47607699 -5.79107 0.832919
0.62855101 -7.6457911 1.0996799
2.5263469 -26.590088 11.410382
0.58538198 -5.6736908 3.3935721
1.0345531 -9.4902067 6.4425888
1.115869 -7.6130071 1.102944
0.717044 -4.8529291 0.59026301
1.123819 -7.605967 0.92511499
1.1317869 -7.5992231 0.75449401
1.1361541 -7.568574 0.588907
0.84923297 -5.6130261 0.32146499
1.143014 -7.554781 0.43267199
0.82756197 -5.4274302 0.20537999
1.155032 -7.575088 0.28665
0.81558502 -5.3077068 0.103498
1.171049 -7.562851 0.018343
1.199312 -7.5156622 -0.39511299
1.210013 -7.5268049 -0.47129801
1.225142 -7.5102329 -0.58553201
1.317344 -7.6310711 -0.54362297
1.3333549 -7.6187892 -0.40154099
1.34893 -7.6557322 -0.313943
1.3609771 -7.6722732 -0.214462
1.374639 -7.697546 -0.102712
1.385939 -7.7093911 0.018774999
1.393703 -7.7014561 0.15084299
1.404737 -7.7116189 0.29322901
1.418666 -7.7374158 0.44544899
1.4316519 -7.7576828 0.607014
1.441218 -7.759326 0.77501798
1.4487211 -7.749887 0.94864899
1.355566 -6.690464 3.0943739
1.2969 -6.2523508 3.5233519
1.834062 -8.1311445 5.7071099
5.5361242 -23.52899 13.337332
5.6577301 -23.55727 10.982036
5.8149261 -23.847651 9.1805811
5.868216 -23.826906 7.8699069
5.8116851 -23.480619 7.1155181
1.962937 -7.7015438 1.139269
1.964427 -7.670332 0.95271099
1.9740289 -7.6709738 0.777852
1.9815561 -7.6635609 0.60908502
2.0038979 -7.7131748 0.45127201
2.0166349 -7.7255468 0.29868701
2.024828 -7.720408 0.15383001
2.0504169 -7.781364 0.019288
2.0615289 -7.7870431 -0.105812
2.0796859 -7.8190889 -0.222688
2.092958 -7.8325801 -0.32742
2.1146049 -7.8771219 -0.42342001
2.1240749 -7.8760338 -0.50431001
2.1554639 -7.9196539 -0.63156402
2.19047 -7.9039779 -0.71503001
2.236953 -7.9292259 -0.57835698
2.2599609 -7.9405389 -0.42860499
2.276921 -7.965198 -0.33456299
2.2879381 -7.9689212 -0.22819
2.2989271 -7.9724441 -0.10899
2.3111031 -7.9800549 0.019912999
2.3193419 -7.974 0.160054
2.3262279 -7.963388 0.31035101
2.347367 -8.0014248 0.47219101
2.3475151 -7.967824 0.63915902
2.365067 -7.9933538 0.81860602
2.375133 -7.9934478 1.003363
7.2043819 -23.743135 6.003263
7.2350869 -23.745966 6.6499028
7.40101 -24.090414 8.0824575
7.4230928 -24.063131 8.7471323
7.4634638 -24.095045 9.434206
7.4064231 -23.813293 9.992692
2.812798 -8.898366 4.7043238
2.7369549 -8.5892143 4.974143
2.8091869 -8.7807779 5.2918148
2.304096 -7.1733642 4.4826651
3.119416 -9.673275 6.2467508
2.0750151 -6.409214 4.2606492
2.467037 -7.5900698 5.1770391
3.216574 -9.8187857 6.972899
3.3002379 -9.6935987 6.7870312
3.302844 -9.6646042 6.6251731
2.6724889 -7.7613459 5.0450501
2.2958541 -6.6425729 4.1815019
2.52422 -7.2760382 4.4206319
3.0383279 -8.6929255 4.8655782
8.43151 -24.033907 12.839099
3.7472651 -10.642116 5.4040232
8.3969049 -23.671921 10.729963
3.0643511 -8.3614283 1.704921
3.085341 -8.3886623 1.493608
3.08324 -8.3531199 1.2763391
3.0890441 -8.3391066 1.0700229
3.099853 -8.3386688 0.87362999
3.109318 -8.3346081 0.68450099
3.121083 -8.3366537 0.50407702
3.128274 -8.3265228 0.33274299
3.1342349 -8.3131371 0.171231
3.1405289 -8.3007383 0.021272
3.1523471 -8.3029528 -0.116661
3.1628151 -8.3015413 -0.244506
3.1795931 -8.316659 -0.35958099
3.1935971 -8.3244143 -0.462874
3.19785 -8.3067236 -0.55027997
3.2093711 -8.2794867 -0.68327397
3.2394879 -8.2437458 -0.77217698
3.2930281 -8.2674017 -0.62471497
3.321043 -8.2819271 -0.46323699
3.341711 -8.3056507 -0.361559
3.349782 -8.2979879 -0.24629401
3.3708811 -8.3224783 -0.117948
3.3773971 -8.3109312 0.021501999
3.3935721 -8.3230858 0.173235
3.4120409 -8.3407822 0.33711699
3.4333849 -8.3653402 0.51204902
3.4395609 -8.3528357 0.69508898
3.4538729 -8.3601208 0.88828999
3.4682021 -8.3673735 1.089854
3.488816 -8.3896275 1.302447
3.5030291 -8.3964052 1.520309
3.5036039 -8.3705311 1.737263
3.520762 -8.3842506 1.96799
10.219295 -24.17955 7.032093
10.370276 -24.301222 9.1776314
3.7274849 -8.7069082 3.5423379
4.0439229 -9.3561754 4.6202989
4.3785081 -9.9714851 6.251112
3.8900771 -8.8313522 5.7415118
3.897326 -8.6038361 6.6090579
3.9611061 -8.6380682 6.5065122
4.0122361 -8.6963911 6.3478212
4.0424309 -8.7352667 6.2436838
4.0775232 -8.7844315 6.125051
4.1025882 -8.811697 5.973947
4.1283379 -8.840271 5.804915
4.1386399 -8.8356647 5.600462
4.1776638 -8.8921576 5.4210238
4.1699548 -8.8491449 5.1687722
4.198504 -8.8830395 4.952796
4.1836071 -8.8250895 4.6778712
4.2454109 -8.928772 4.4815788
4.2929382 -9.0018349 4.260478
4.3582559 -9.1116638 4.0471411
4.4017439 -9.1753101 3.8061211
4.4430952 -9.2340698 3.55949
4.4080372 -9.13416 3.2527111
4.3931541 -9.0764875 2.9662571
4.437695 -9.1415033 2.722167
4.4768109 -9.1949997 2.4743941
4.0754471 -8.3460951 2.010082
4.0805011 -8.3319616 1.776186
4.0905051 -8.3279924 1.550472
4.1013641 -8.325757 1.3304
4.5125499 -9.1604633 1.463781
4.5133591 -9.1354027 1.226041
4.5122032 -9.1065302 0.998043
4.5151191 -9.085988 0.78070903
4.5103788 -9.0501385 0.57259899
4.5275998 -9.0584373 0.37883601
4.5319052 -9.0408564 0.194913
4.5310602 -9.0131378 0.024180001
4.5663099 -9.0571413 -0.133237
4.2644358 -8.4099073 -0.38080701
4.3864169 -8.625721 -0.50238103
4.254725 -8.3428288 -0.578973
4.3819399 -8.5433979 -0.738819
4.3558221 -8.3965359 -0.82463402
4.418541 -8.4218712 -0.667642
4.5835619 -8.6631851 -0.395818
4.5894909 -8.650176 -0.26951501
4.8916178 -9.1174326 0.38705999
4.8731432 -9.0578394 0.58243603
4.8850832 -9.0548859 0.79167998
4.8675761 -8.9975185 1.004591
4.8876462 -9.0097055 1.233328
4.92133 -9.0467882 1.4762681
4.9537349 -9.0813236 1.7286429
4.9791098 -9.102787 1.98641
4.9935212 -9.1040773 2.2471969
13.698473 -24.502087 11.248008
3.2637579 -5.759264 3.497704
2.7751429 -4.7421732 3.8445821
4.0396309 -6.6705132 4.1204419
5.3101878 -8.7001848 4.6202989
5.2881899 -8.6416044 4.3280492
5.2499828 -8.5569067 4.0225921
5.5056238 -8.9503155 3.930131
5.578485 -9.0452528 3.691396
6.24365 -9.8410025 0.89678699
9.1415396 -14.371694 0.964508
5.6493969 -8.7914085 -0.13726901
5.6102872 -8.7083378 -0.28511399
5.5772538 -8.6350927 -0.41514701
5.5028601 -8.498312 -0.52560699
5.7422128 -8.8454666 -0.65196902
5.860177 -8.9815865 -0.825207
5.8847461 -8.9285746 -0.93224001
5.8703361 -8.8175592 -0.74362099
5.7551308 -8.6012545 -0.53727198
5.7881832 -8.6290236 -0.419626
9.8498917 -14.465937 0.99102402
5.7350769 -8.0568132 4.9852061
5.0261669 -7.0092921 4.950809
5.1279559 -7.1337838 5.2271328
5.1191192 -7.1041422 5.3817358
6.0628929 -8.3729563 6.7057161
5.0800018 -6.8473892 5.8376131
5.1368151 -6.890583 5.696465
4.9321232 -6.6000662 5.344655
4.9651432 -6.628253 5.2377501
5.8221021 -7.7535291 5.9592848
10.159955 -13.400829 8.8855782
7.4134321 -9.2779093 0.028465001
7.3979082 -9.2365589 -0.15544701
7.5534978 -9.4084692 -0.33207899
6.939024 -8.6226492 -0.44698501
6.9797869 -8.6527967 -0.57714099
6.986506 -8.6406317 -0.68695498
7.2217131 -8.8893957 -0.88129002
7.1499648 -8.7183094 -0.98295999
7.124083 -8.6052322 -0.78423703
7.1742821 -8.6251497 -0.58243001
7.6628351 -9.1908646 -0.483262
7.8450718 -9.3652878 -0.160478
7.2178011 -8.2413654 4.6800442
6.3246078 -7.1376128 5.2620788
6.4176168 -6.8808389 5.4008369
7.3560648 -7.8322201 5.4164319
7.4727039 -7.9195552 4.9357228
13.926493 -14.353943 2.8668311
9.5004559 -9.6120787 -0.177526
9.3653021 -9.4533758 -0.366249
8.7835217 -8.8251305 -0.64640701
8.693655 -8.7145929 -0.76100099
8.8628302 -8.8430986 -0.96338099
8.86444 -8.7630491 -1.086658
8.9225006 -8.7390327 -0.87674397
9.8858023 -9.6154013 -0.55694503
9.9758606 -9.6805296 -0.38259199
14.170672 -13.56104 1.509248
14.775637 -14.107219 2.0061531
14.812041 -14.109208 2.4614
7.0735402 -6.167315 5.5835171
13.750566 -11.547116 3.4376709
10.732038 -8.7192841 -0.85485297
11.117009 -8.9893723 -1.1000969
11.114773 -8.8183641 -0.99599999
11.709525 -8.0516062 5.314908
13.771744 -8.9389629 -1.263358
8.2239542 -4.786346 6.1723928
13.536618 -7.260427 3.7165301
8.812026 -3.9766209 6.1143608
8.7427216 -3.9331319 6.2186508
7.458919 -3.3348019 5.513988
7.4675622 -3.2558401 5.5777369
7.6063571 -3.295366 5.4942632
8.7494402 -3.778549 6.182189
8.775094 -3.77756 6.042201
8.832859 -3.7902751 5.9074469
8.9586916 -3.831975 5.797245
11.383088 -3.8982041 5.1400738
11.390613 -3.8860149 5.455512
8.7372684 -2.9694691 4.419981
8.5840321 -2.9062791 4.5683842
8.3721247 -2.8237071 4.6684322
8.3784981 -2.8150139 4.877037
8.3378954 -2.790606 5.0468879
8.9313774 -2.977699 5.6014128
8.5833654 -2.8506069 5.5587182
8.7709131 -2.9015939 5.8428249
8.1799812 -2.6955581 5.5868268
7.858078 -2.569273 5.5794382
7.8774662 -2.535161 5.7903781
7.8174152 -2.475827 5.614459
6.7458391 -2.1192219 4.6865602
7.9235582 -2.4892049 5.5047598
8.3598566 -2.615612 5.6820631
8.7636395 -2.730783 5.805409
8.7079401 -2.702327 5.6037488
8.1787462 -2.527698 5.0931702
8.2807827 -2.548708 4.9732108
11.008077 -3.3741281 6.352951
8.4843903 -2.5898139 4.687119
8.7691774 -2.6656051 4.6201491
8.7347546 -2.6440699 4.3711672
11.21527 -3.380733 5.309773
12.158244 -3.6495731 5.4229269
12.719819 -3.8020539 5.3195672
12.923468 -3.846591 5.043067
14.906069 -3.5826621 2.935051
14.043697 -3.3066421 4.244081
9.3875856 -2.18736 3.3481779
9.0769978 -2.1038971 3.4848869
13.383344 -3.085664 5.5033078
13.049696 -2.992805 5.7195301
10.787423 -2.447639 5.2981882
9.8873568 -2.2313631 5.1094422
9.7631979 -2.191448 5.2869658
7.271152 -1.6143661 4.2752681
7.1750059 -1.5842789 4.3717098
6.8858552 -1.512061 4.332931
6.859901 -1.4980249 4.4407821
7.1547689 -1.553715 4.7492919
6.754087 -1.450308 4.662025
6.4326129 -1.350073 4.599051
6.496387 -1.332016 4.5404911
6.9331241 -1.396437 4.5876632
7.140173 -1.429526 4.6054139
6.7572498 -1.344702 4.2344909
6.7866511 -1.342373 4.1160541
9.8595963 -1.938311 5.7677288
10.050475 -1.963717 5.6505032
6.9158649 -1.342936 3.7224121
6.8813481 -1.319667 3.3560231
6.999186 -1.333853 3.2297921
9.4989538 -1.798811 4.1300521
9.2574606 -1.741962 3.7745039
9.5161467 -1.779215 3.6208069
9.1778622 -1.704939 3.242522
12.725495 -2.3181789 3.465071
9.6599169 -1.243203 2.6090889
9.9171238 -1.2646151 2.9408591
9.7580681 -1.209832 3.677557
10.001994 -1.228284 4.0378418
6.7744408 -0.82395399 2.915354
6.832582 -0.82298601 3.119559
6.7236962 -0.80195099 3.243278
6.6252809 -0.78242201 3.362932
7.0895891 -0.82892001 3.7714651
6.9741502 -0.79901999 4.029346
6.8629818 -0.77820998 4.1094069
7.0355749 -0.789518 4.3512578
7.1895051 -0.79835099 4.5749459
6.7248359 -0.73884797 4.388483
6.706099 -0.72105199 4.5518231
6.699666 -0.68891799 4.7125649
8.9960365 -0.88288599 6.1890111
8.2948847 -0.79464197 5.5229912
8.3856077 -0.79351997 5.4638362
7.1089039 -0.66439003 4.515615
6.7672782 -0.62453598 4.1768932
6.9751792 -0.635566 4.1671858
7.0787892 -0.63673103 4.0796261
7.9424629 -0.70512098 4.3997211
7.2674279 -0.63669902 3.8546219
6.926775 -0.59875 3.5047231
7.2033691 -0.61424398 3.4627211
7.2970309 -0.61370802 3.319382
11.320057 -0.93882298 4.8525062
12.458974 -1.004189 4.674891
12.516963 -0.96502602 3.692935
7.3016672 -0.197607 1.398422
7.0386381 -0.18231 1.523796
7.0620131 -0.17472 1.7091711
6.9991961 -0.16510899 1.875501
6.8440142 -0.145556 2.1954501
12.582824 -0.25300899 4.3715968
12.48496 -0.23655801 4.6703372
9.7636929 -0.173655 3.912868
11.297855 -0.200941 4.5276942
10.938071 -0.18185399 4.6733661
7.795475 -0.120564 3.5340691
7.7581229 -0.110975 3.716291
6.706461 -0.088152997 3.3809371
6.9782319 -0.083632 3.6873751
6.6573482 -0.072053999 3.6736
6.4722161 -0.062544003 3.7152219
6.2965651 -0.053534999 3.746377
8.412817 -0.061771002 5.1707182
8.5932684 -0.043150999 5.5743098
9.9515133 -0.049972001 6.4553809
8.8501234 -0.023915 5.9726949
8.3706312 0.084214002 5.4300952
8.6310406 0.096844003 5.4590411
6.3337908 0.078423999 3.8930931
7.2700162 0.090016 4.4685478
6.619318 0.089635998 3.9386289
6.914084 0.101648 3.96911
6.7243099 0.106668 3.7107999
6.7310748 0.114583 3.557034
7.2737608 0.13226999 3.6672211
7.7457428 0.149838 3.710676
8.9287949 0.17272399 4.2774291
7.012157 0.15192901 2.9962809
6.9443202 0.158516 2.7832689
6.7998781 0.163109 2.5439529
6.6339612 0.16683701 2.3050721
6.8784142 0.180966 2.2067499
6.6899309 0.183771 1.968662
6.892065 0.19733299 1.847037
6.6053958 0.19679201 1.598879
6.5941129 0.20411 1.427765
7.4507689 0.239287 1.427192
7.1813922 0.23897199 1.200721
6.958704 0.239641 0.99808401
12.048408 0.42892599 1.4506299
11.486472 0.72955799 -0.46482101
11.402847 0.73752499 -0.31449801
11.389434 0.80303401 0.64654797
12.019189 0.87547398 1.183441
7.1635981 0.530146 0.86430901
6.8879609 0.51779097 0.99013799
6.542973 0.499488 1.096554
6.4638672 0.50098902 1.2412241
6.6149478 0.52042699 1.436015
6.5001659 0.51898199 1.577714
6.609489 0.53600198 1.776395
6.7062559 0.55168498 1.979386
6.8294501 0.569812 2.1978941
6.5785499 0.55656803 2.2932589
7.0979738 0.60881197 2.6644599
7.278832 0.63284802 2.9275839
7.3412452 0.64686102 3.148315
7.2230191 0.64489299 3.287179
6.84442 0.61910999 3.2916591
6.9289379 0.63486499 3.5074241
7.0915012 0.65806103 3.763056
8.0782032 0.759094 4.4770188
7.5535111 0.72749501 4.5148768
7.2040501 0.70227802 4.4486499
7.0397849 0.69451499 4.4739218
6.7443628 0.67328602 4.396647
6.552319 0.66948098 4.4449782
6.8728328 0.73450899 4.8363991
6.8563371 0.76497102 4.7235351
6.5939631 0.75120997 4.398725
6.452559 0.742688 4.2132492
7.401876 0.86066097 4.712852
7.4138551 0.87078899 4.5879321
7.3325109 0.86986399 4.3931851
8.1255541 0.97351003 4.6974192
7.2023458 0.87139398 4.0030842
6.8535099 0.83726197 3.6481321
7.4870071 0.92348701 3.8027101
7.2206411 0.89914203 3.485184
7.3315849 0.92159998 3.3495209
7.114017 0.90265203 3.0634589
7.074008 0.90592003 2.8576579
7.064343 0.91301697 2.6641099
7.1610808 0.93398398 2.5085089
6.5783949 0.86575401 2.127959
6.6713109 0.88586098 1.979668
6.9898901 0.93643302 1.889215
6.612359 0.89366901 1.6144
6.717895 0.915874 1.46732
6.7448711 0.92753798 1.3034641
6.8153491 0.945292 1.149792
6.725111 0.94073302 0.97339499
7.0832701 0.99922901 0.86072499
7.344378 1.044759 0.72849703
8.5904245 1.232188 0.66777599
6.7379918 0.97447401 0.38552099
6.4096918 0.93458998 0.242314
