# .PCD v0.7 - Point Cloud Data file format
VERSION 0.7
FIELDS x y z
SIZE 4 4 4
TYPE F F F
COUNT 1 1 1
WIDTH 1553
HEIGHT 1
VIEWPOINT 0 0 0 1 0 0 0
POINTS 1553
DATA ascii
4.3047881 2.4497809 2.843044
4.7136641 2.689723 3.22893
6.6870198 3.826061 4.7350688
6.4914389 3.724165 4.7331638
6.5726552 3.801254 5.1240878
6.6894312 3.910378 5.4217429
6.4824371 3.8298831 5.1551552
7.4338932 4.4153409 5.7307181
7.507297 4.4707351 5.6679139
7.5916991 4.5329428 5.5921359
4.2644958 2.553025 3.0547819
4.8491778 2.910708 3.364938
4.2742391 2.572356 2.8634541
4.264029 2.5729661 2.7479529
4.4640751 2.7007501 2.756772
4.5350819 2.7509141 2.6737809
4.3413758 2.6403129 2.433754
4.302628 2.623594 2.2843461
4.2085528 2.5729451 2.1072569
4.3891711 2.690372 2.0628109
4.8302169 2.9684329 2.1204281
5.035274 3.1025209 2.0543849
4.3008862 2.656914 1.621317
5.0672522 3.1303439 1.910216
4.351171 2.6949611 1.505564
4.5978112 2.8551209 1.449839
4.2064199 2.6188469 1.1988651
4.2284651 2.6393881 1.078756
4.0462809 2.5322089 0.913854
4.0053282 2.5130551 0.79015201
3.9179759 2.464591 0.66349798
3.6723509 2.3160429 0.52240801
3.9686389 2.509346 0.461101
3.9208441 2.4855011 0.35721099
4.2308068 2.6888909 0.28386801
3.8825929 2.4739151 0.172222
4.7438941 3.0227201 0.210427
3.9465859 2.5211451 0.090259001
3.9603779 2.536433 0.011273
4.0488129 2.599704 -0.063203
3.448674 2.2200251 -0.112885
3.498322 2.2577331 -0.16814899
3.869472 2.5036311 -0.23926599
3.9079311 2.5349629 -0.28797501
3.7994061 2.4771171 -0.349002
3.773051 2.4849911 -0.39386201
3.773941 2.5107861 -0.318205
3.407017 2.2781091 -0.212773
3.4543171 2.315542 -0.16794699
3.365186 2.261461 -0.111592
3.678663 2.478334 -0.058265001
3.8161399 2.5773981 0.011038
3.8000259 2.5729511 0.088448003
4.310194 2.9256821 0.194876
3.8126149 2.594404 0.261141
4.6718779 3.1791141 0.31999499
3.58042 2.442493 0.333505
3.718848 2.543256 0.442435
3.9076531 2.679039 0.57007402
4.0079331 2.754643 0.69712597
4.3777561 3.01631 0.888385
4.1586142 2.8724439 0.967632
4.1438522 2.8693669 1.090813
3.9810331 2.7634671 1.172527
4.1387682 2.8800211 1.350733
4.0356188 2.815202 1.44743
4.2325912 2.9599271 1.656437
4.456872 3.12448 1.890651
4.1542101 2.919497 1.899032
4.612998 3.2499399 2.2610581
4.4363079 3.1331711 2.320183
6.3630152 4.4939198 3.327848
4.4719868 3.1661561 2.483757
4.447391 3.156508 2.61216
4.3750219 3.112788 2.70664
4.3859382 3.1282289 2.846468
7.5188189 5.4288712 5.8652749
4.4242511 3.202306 3.5427859
4.2780819 3.1116681 3.5700791
4.2157421 3.096375 3.6599779
4.2303109 3.1374259 3.6060669
4.281426 3.190779 3.5390899
4.3303771 3.235085 3.5063241
4.4181528 3.3086569 3.490942
7.4470029 5.5904179 5.723134
7.51649 5.6562352 5.5968108
8.4996958 6.4115729 6.1112242
8.4154463 6.3633809 5.8215261
8.5231485 6.4603848 5.6508908
4.2852392 3.2559791 2.7129419
4.3622651 3.3224969 2.626415
4.4094272 3.366513 2.5147209
4.4225488 3.384675 2.3791111
4.2547121 3.2640641 2.14873
4.0851121 3.1414919 1.927407
4.5809231 3.531256 2.009104
4.2165198 3.258162 1.708964
4.2996321 3.3303609 1.59982
4.0696602 3.159807 1.380232
3.917959 3.0493181 1.2012171
4.0287089 3.143029 1.105831
3.5287321 2.759572 0.85763103
3.957309 3.1021409 0.840258
3.2083111 2.521018 0.58488798
3.3491049 2.6379521 0.51297098
3.584466 2.830085 0.44849399
3.203923 2.5356729 0.314401
3.364862 2.6694109 0.243219
3.635416 2.890928 0.17375501
3.7152281 2.961452 0.091569997
3.6093431 2.8839071 0.011074
3.375459 2.7034559 -0.056807
3.392375 2.7234831 -0.119735
4.0455942 3.2479031 -0.142791
3.8726959 3.1164961 -0.200754
3.6548221 2.9481609 -0.24377599
3.597343 2.9087031 -0.28600001
3.6054051 2.92909 -0.35744101
3.5972371 2.9503031 -0.405586
3.898675 3.2279339 -0.35531899
3.567672 2.9678741 -0.240925
3.8032451 3.171319 -0.19998699
3.487519 2.914922 -0.1251
3.3004279 2.76507 -0.056557
3.423846 2.8752389 0.010716
3.1827569 2.679095 0.080181003
3.3261831 2.806426 0.162801
3.3077321 2.797437 0.24531101
3.223201 2.7323799 0.325142
3.5159271 2.987551 0.453087
3.352155 2.8550971 0.52981502
3.1897969 2.723218 0.601206
3.444211 2.947336 0.75751799
3.4710009 2.977247 0.87549502
3.5254841 3.0311 1.006204
3.964818 3.416837 1.2663569
4.5613708 3.940094 1.61467
3.965806 3.4336939 1.543097
5.5749488 4.8382778 2.3673849
3.7103641 3.2276371 1.708214
4.1609201 3.628068 2.064729
3.7763381 3.3004689 2.0096221
4.26158 3.7772601 3.142174
4.2085218 3.7389641 3.2313421
4.1723671 3.715529 3.324034
4.1681871 3.72049 3.4338801
4.1526899 3.715327 3.5240829
4.408627 4.0093131 4.1696458
4.1313858 3.836833 3.465297
4.0994458 3.8160419 3.3322151
4.1148319 3.8392889 3.2303469
4.1348839 3.866997 3.123816
4.2310009 3.9661031 3.0641699
4.3439188 4.0814471 3.004627
8.3253746 7.8588018 5.189631
3.644558 3.448328 2.1434
3.72667 3.5342259 2.0579751
4.0426502 3.8428121 2.086098
4.3592339 4.1534009 2.0914631
3.8446929 3.671679 1.704994
4.3785462 4.191237 1.782971
3.492712 3.3510859 1.296652
4.0733209 3.9081509 1.5122
3.479718 3.346384 1.168059
3.3446169 3.2239411 1.005358
3.401736 3.2866349 0.90557998
3.2422669 3.1398461 0.75422102
3.2346771 3.13978 0.64618599
3.149591 3.0643079 0.52873999
3.866184 3.761497 0.64903802
3.035991 2.9606521 0.41643801
3.062402 2.99335 0.32951501
3.3048201 3.2378211 0.261989
3.5215011 3.4581299 0.184633
3.139497 3.0901761 0.084902003
3.1599729 3.1175599 0.01064
3.152534 3.11745 -0.058238
3.4128051 3.3826799 -0.132254
3.298228 3.2767129 -0.18776
4.0970898 4.070363 -0.233238
3.324518 3.3105071 -0.243569
3.184582 3.1785409 -0.278164
3.931278 3.92382 -0.34338501
3.4090331 3.418401 -0.371481
3.1473219 3.1854341 -0.39038801
3.712369 3.757324 -0.460475
3.4004271 3.473727 -0.34124401
3.241406 3.3267021 -0.24113201
3.8923349 3.99476 -0.289556
3.267817 3.3616049 -0.18933401
3.9649789 4.0787759 -0.229727
3.2716 3.373323 -0.129337
4.100461 4.2279549 -0.16210499
2.9710419 3.0705521 -0.056124002
3.1309371 3.2433281 0.010805
3.178611 3.3003819 0.088312998
3.120528 3.2476089 0.168484
3.321913 3.4652369 0.271826
3.153522 3.297245 0.35107401
3.15556 3.3070519 0.44888499
3.2325101 3.3955779 0.56410098
3.1330531 3.2987731 0.65214598
2.971436 3.13589 0.72191602
3.2912841 3.481524 0.91723901
3.9815221 4.211659 1.109599
4.2308421 4.4858232 1.3344851
3.5454681 3.7678959 1.2517771
3.3671579 3.586658 1.317871
4.2861352 4.5655422 1.677549
4.2254071 4.5113368 1.818247
3.4034491 3.6422329 1.598718
5.0926342 5.4626279 2.5941491
4.3632121 4.6911168 2.396122
4.2448978 4.5745621 2.500591
4.044508 4.3687692 2.543323
4.0211439 4.3536568 2.68647
4.041574 4.385994 2.8566589
4.0110512 4.3630209 2.9875219
3.9480009 4.3044562 3.086127
3.9270589 4.291626 3.20981
3.8645351 4.2331529 3.2900851
3.8152621 4.1889482 3.371074
3.7550559 4.1324701 3.4317861
3.6953599 4.0762701 3.479717
3.691097 4.08109 3.569452
3.6103261 4.0104609 3.6416819
3.55897 3.9905429 3.7413869
3.553371 4.0217118 3.6744249
3.5586729 4.0466199 3.5716851
3.6019599 4.105442 3.5427859
3.592627 4.104404 3.449784
3.622313 4.1480379 3.38466
3.6553049 4.1956382 3.310739
3.696444 4.2528138 3.234329
3.7072229 4.2752419 3.1223669
3.7184191 4.2982221 3.00297
3.752692 4.348043 2.8952451
3.8368759 4.4560289 2.8164849
3.8422561 4.4727669 2.6728461
3.858597 4.5023661 2.5331089
3.8829899 4.5414858 2.3942139
3.9680331 4.6518731 2.2868259
3.992188 4.6912231 2.1396971
4.0502148 4.770618 2.007025
3.470401 4.0973039 1.579502
4.1431522 4.891582 1.885694
3.390928 4.0129228 1.407402
3.398582 4.0314631 1.275764
4.1873031 4.9670601 1.571835
3.30021 3.9240069 1.109638
3.1394501 3.7416799 0.93510199
3.0736821 3.6719439 0.80020601
3.109679 3.7237189 0.69542402
3.0218401 3.6270969 0.56804299
2.7621181 3.32319 0.42435399
3.026202 3.6495259 0.36480701
3.114502 3.7649109 0.27668801
2.756099 3.3395469 0.161979
3.242965 3.938796 0.098333001
4.1835079 5.0811481 0.126853
2.896234 3.526001 0.010937
2.999639 3.6605451 -0.062166002
2.944524 3.601819 -0.12804399
2.9359021 3.5997901 -0.187599
3.588886 4.4004321 -0.229323
2.942771 3.616775 -0.242065
3.503089 4.3054271 -0.288156
2.709208 3.337635 -0.26576099
2.9649251 3.670047 -0.363042
2.716949 3.395246 -0.37909701
2.6966839 3.4021931 -0.304759
2.847631 3.6098261 -0.23869599
3.330689 4.2221789 -0.27918699
2.8393869 3.607981 -0.18542001
2.8611259 3.6443 -0.12752099
3.5419941 4.5115409 -0.157868
3.1450379 4.0155258 -0.066999003
3.0279651 3.875308 0.011788
2.5705149 3.297739 0.080586001
2.669651 3.4331329 0.162689
3.2652919 4.1991191 0.19898801
2.8358359 3.655592 0.261989
2.7002261 3.4891479 0.33948901
2.6826839 3.474807 0.43109801
2.608649 3.3870299 0.514404
3.059531 3.9820149 0.71982998
3.15133 4.111361 0.86563998
2.7592199 3.608464 0.86966598
3.2863531 4.3082089 1.172671
3.0718679 4.0367398 1.22732
2.762634 3.639056 1.22394
2.6579299 3.509587 1.2950391
3.9159441 5.1706948 1.907988
3.904994 5.1687078 2.07757
4.582581 6.0802321 2.64468
7.8198981 10.451101 5.576139
6.131258 8.2141342 4.6463089
6.8274279 9.2584772 6.6030698
4.8100801 6.5546322 4.9968772
4.5325098 6.1914449 4.8528962
4.6766362 6.4039259 5.1438422
4.496748 6.187705 5.162127
4.3757648 6.1403842 5.1624999
4.4531941 6.2798548 5.1025658
4.5537572 6.43749 5.1149988
4.6028109 6.522882 5.0490651
4.7474241 6.7444482 5.0691361
4.827909 6.8757319 4.9985771
4.1587729 5.9668651 3.842942
4.210465 6.0560241 3.718086
5.6897349 8.1836967 5.0243669
4.2557139 6.136291 3.5767629
5.7652588 8.3128948 4.8454771
4.3996668 6.455276 2.297996
2.554116 3.756824 1.216954
3.807802 5.6148639 1.641444
2.8405671 4.1990938 1.097158
3.5037489 5.1794491 1.35331
2.885287 4.2759018 0.98756403
2.396853 3.560966 0.71730101
2.6435821 3.937386 0.67981499
2.5352881 3.7855909 0.54821199
2.377728 3.559258 0.42034701
2.4885621 3.734544 0.34531999
2.4765241 3.725857 0.25333899
2.4578609 3.7071061 0.16639
2.412344 3.6476519 0.084285997
2.5247359 3.827246 0.01099
2.652545 4.0311618 -0.063386999
2.4924049 3.7973969 -0.125018
2.3966069 3.660696 -0.176704
2.4353149 3.729259 -0.23123001
3.07636 4.710907 -0.29209599
2.4492249 3.7600989 -0.27742299
3.0048771 4.6131468 -0.34036201
2.604954 4.0195508 -0.36856601
2.5717239 4.0089631 -0.415227
2.60887 4.1087351 -0.34166399
2.3766041 3.7622221 -0.231022
2.4022591 3.812628 -0.18199
2.410048 3.834852 -0.12466
2.4965751 3.982801 -0.061744999
2.4486871 3.9165001 0.011071
2.396601 3.843122 0.087292001
2.3708539 3.811681 0.167923
2.5332489 4.0833292 0.272109
2.6803811 4.3317199 0.39196599
2.4801559 4.0185561 0.46373999
3.0754011 4.9959879 0.70590198
2.540966 4.138566 0.69613302
2.4343269 3.97522 0.77894402
2.5597341 4.1909218 0.94017899
2.7015591 4.4347038 1.1238101
3.4420431 5.6650252 1.6038181
3.384728 5.5851631 1.7494839
3.321949 5.4959679 1.88908
3.264375 5.4149351 2.027791
3.235997 5.3819938 2.1813691
3.173003 5.2911339 2.3074939
3.127079 5.228334 2.4410789
3.1013319 5.1989889 2.586144
3.0777559 5.1731172 2.7285819
3.078043 5.187325 2.8890569
3.059814 5.1702809 3.0284841
3.6251149 6.1254921 3.5879979
4.5643539 7.7330432 4.7445812
3.2855279 5.5812478 3.573595
4.3648629 7.414752 4.7475629
3.658169 6.230813 4.1473289
3.243304 5.5537262 3.952785
3.1616831 5.4284339 3.973078
3.1216631 5.3740878 4.0314841
3.0685971 5.3111081 4.1395469
2.990067 5.2312002 4.216084
3.956888 6.9979882 5.5042939
3.958519 7.0774651 5.1287079
3.5724339 6.4046602 4.5072951
2.8036289 5.0401011 3.4314089
2.793992 5.0365419 3.306015
2.7918501 5.0465121 3.1822729
2.788182 5.0537338 3.0496869
2.81299 5.1127539 2.9416089
2.79475 5.093605 2.7827909
2.8522329 5.2127209 2.6934891
2.8666389 5.2535539 2.55668
2.9020901 5.333251 2.4328959
2.961791 5.4580598 2.322557
3.055764 5.6468978 2.2302589
3.177268 5.8877621 2.1456721
3.005487 5.5849519 1.865657
3.165283 5.8983269 1.793215
2.2036779 4.1294322 1.012973
2.414047 4.536335 0.98380297
2.0944149 3.9467521 0.74663901
2.142278 4.0482988 0.65654498
2.1281979 4.0330338 0.54869002
2.362627 4.4899168 0.49823999
2.3455529 4.4700642 0.388437
2.1935451 4.1922188 0.26792499
2.2544379 4.3208098 0.18231501
2.683877 5.1438632 0.217044
3.147192 6.0489922 0.13142
2.270817 4.376987 0.011819
2.1373551 4.131475 -0.061101999
2.1030519 4.0767822 -0.126256
2.0791171 4.041903 -0.18356401
2.0997541 4.0937071 -0.238851
2.109266 4.1240602 -0.28637001
2.092063 4.113975 -0.35514
2.5172739 5.0076399 -0.48861399
2.0942359 4.2147999 -0.33038899
2.0217321 4.0927348 -0.236985
2.0710261 4.2048192 -0.189294
2.1476779 4.3732572 -0.13409699
2.1572859 4.4057689 -0.064438
2.2488639 4.6063371 0.012286
2.3074191 4.7402558 0.101609
2.2147729 4.5633922 0.18975399
2.340554 4.836853 0.30427799
2.09305 4.3382411 0.370637
2.128159 4.4241381 0.48211399
2.3025711 4.8009858 0.64067602
2.1125 4.4178519 0.70195103
2.0577691 4.3162718 0.799052
2.0816181 4.3793869 0.92833298
2.046726 4.3189311 1.034337
2.115092 4.4766278 1.197925
2.102236 4.4627018 1.321493
2.6300581 5.600019 1.81994
3.037883 6.4683728 2.102145
2.644443 5.6476822 2.000001
2.9988589 6.4239869 2.4625709
2.3774059 5.1237378 2.263289
2.3369861 5.0828862 2.679549
2.4226291 5.2852969 2.9308059
2.4415729 5.3429761 3.103879
2.416733 5.3049049 3.216574
2.435492 5.362556 3.380688
2.3433721 5.1756792 3.3802781
2.3185301 5.1366558 3.463727
2.3288021 5.1754112 3.589294
2.3314891 5.1975021 3.695164
2.2426989 5.0307789 3.717201
2.1207759 4.817287 3.68291
2.120451 4.8778 3.6416581
2.1659889 5.0143509 3.620302
2.1911271 5.0887489 3.5939419
2.249722 5.2415581 3.6074669
2.252965 5.2659779 3.520277
2.1552329 5.05374 3.2688119
3.4573829 8.1332378 5.0727739
2.247345 5.3038101 3.1784079
3.0073221 7.120358 4.084002
2.200809 5.227726 2.859235
3.4314499 8.177454 4.247622
2.601676 6.2815609 2.542902
2.3120351 5.6190958 1.9486949
1.813503 4.4662652 1.043221
2.270556 5.591887 1.306141
1.82086 4.4993649 0.92927301
1.844733 4.5735989 0.82410502
1.9479671 4.8457351 0.74863398
1.959587 4.891046 0.633986
2.116173 5.2996721 0.56039798
1.987843 4.9950991 0.41367799
1.794789 4.5252752 0.27567101
1.908703 4.828824 0.19424
1.926425 4.8902631 0.101301
1.903563 4.8487082 0.012485
1.883936 4.8151231 -0.067919001
1.7942719 4.6016941 -0.13594
1.877182 4.830874 -0.209309
2.2307601 5.7407961 -0.248733
2.005461 5.1787758 -0.288311
1.808229 4.6856079 -0.31049699
2.033118 5.3049531 -0.437154
1.853946 4.9054632 -0.45717499
1.8684289 5.0140181 -0.37562701
1.683157 4.549068 -0.25181201
2.1249981 5.7432342 -0.31791499
1.727507 4.6856222 -0.201682
1.878629 5.1137819 -0.14994401
1.79212 4.8958559 -0.068483002
1.805437 4.9500098 0.012629
1.801066 4.9558959 0.101629
1.8273979 5.046577 0.200782
1.716897 4.7586441 0.28646901
1.738741 4.8367748 0.395495
1.772887 4.9497852 0.51631999
1.807646 5.0653262 0.64712697
1.787775 5.02808 0.764952
1.636551 4.61973 0.81899601
1.769776 5.0142708 1.018026
1.702503 4.8415742 1.110696
2.836678 8.0969296 2.0757909
2.5460379 7.3215232 2.2802169
2.463814 7.1117082 2.4138041
3.294852 9.5104694 3.2279749
2.296057 6.6524372 2.444525
3.048501 8.9673462 4.2933149
4.0625062 12.041826 6.406271
1.946303 5.7912931 3.2281461
2.298986 6.8937068 4.1712241
1.7526619 5.2759309 3.307672
2.143888 6.4536161 4.0460048
1.717762 5.1910071 3.360574
1.622938 4.9236069 3.278738
1.647999 5.0192499 3.4268701
1.42769 4.4527011 3.2718501
1.646834 5.1361709 3.774066
1.52741 4.8409281 3.475563
1.581655 5.0537329 3.509809
2.202419 7.0949488 4.69842
1.964323 6.3802471 3.9718649
2.1357341 6.9947391 4.0354528
1.972856 6.4882541 3.5831959
1.878762 6.2047019 3.2679541
2.6556709 8.8444538 4.1859722
2.774761 9.280221 4.1379089
2.3685689 7.955337 3.325938
1.620809 5.4670248 2.132689
3.21557 10.892627 3.9450359
2.789335 9.4893217 3.1720879
2.216223 7.5720649 2.3208539
2.235009 7.6693039 2.139955
1.7206939 5.9559021 1.341676
2.817425 9.7947369 1.951248
1.57883 5.5128589 0.95827001
1.641889 5.7582889 0.85831797
1.6067311 5.6599231 0.70793301
1.5522881 5.4924011 0.56049502
1.455601 5.1732321 0.413524
1.448315 5.1703792 0.304052
1.555549 5.578115 0.21663199
1.5035909 5.4161201 0.108334
1.342279 4.8569188 0.012078
1.679746 6.1056061 -0.083181001
1.5140001 5.5282612 -0.157758
1.754275 6.4056101 -0.182795
1.554755 5.703052 -0.23872501
1.456032 5.365459 -0.28862301
1.504161 5.5684099 -0.35659
1.657226 6.192121 -0.49323699
1.636446 6.2302361 -0.56156802
1.444832 5.606575 -0.40643901
1.372396 5.3771529 -0.288104
1.621339 6.35253 -0.34036401
1.357532 5.3447981 -0.222706
1.634499 6.435257 -0.26814201
1.520202 6.0145049 -0.170744
1.525116 6.0636029 -0.08213
1.3785959 5.5080819 0.013609
1.473666 5.917119 0.117526
1.353308 5.460876 0.210464
1.502799 6.0943928 0.355443
1.354471 5.520462 0.43738401
1.373189 5.624959 0.56860697
1.384959 5.7018881 0.70602202
1.388177 5.7442379 0.84710902
1.375851 5.7223139 0.98348701
2.4291329 10.154873 1.999009
1.55497 6.5340328 1.453571
2.4945159 10.536319 2.619725
2.4779639 10.575375 3.1951251
2.4266031 10.410637 3.4283111
2.451807 10.574273 3.770474
2.1275361 9.2243862 3.540586
2.184638 9.5224943 3.9147279
2.326679 10.250753 4.7648001
1.6982681 7.5634899 3.9075911
1.590083 7.2388468 4.4095469
1.162762 5.444098 3.756918
1.09789 5.2598872 3.759733
1.276528 6.2609682 4.3749619
1.444335 7.5297012 3.8648291
1.566461 8.2179222 4.0070109
1.842104 9.914113 3.77144
1.409603 7.6857829 2.506032
1.59087 8.7312365 2.6106789
1.601209 8.8462706 2.4082899
1.201036 6.7244482 1.478319
1.190316 6.7094731 1.304592
1.097676 6.22932 1.0569969
1.095232 6.2579441 0.91067702
1.126742 6.482348 0.79167598
1.035894 6.0009542 0.59802401
0.99258798 5.7901721 0.45203799
0.96876001 5.6908851 0.326893
0.93304199 5.5197811 0.209418
1.177495 7.0155492 0.137104
1.121073 6.7272081 0.016347
1.063715 6.4290342 -0.085597999
1.035517 6.3040991 -0.175834
1.069401 6.5579629 -0.26834401
1.083407 6.6927471 -0.35197699
1.0406621 6.4763999 -0.40552199
1.119807 7.0737419 -0.55108398
0.978827 6.3748279 -0.562262
1.069536 7.1879811 -0.51015002
0.95547903 6.525538 -0.34238601
0.92643398 6.3788209 -0.26031399
0.89748198 6.2303071 -0.17324799
1.054826 7.383388 -0.097970001
0.94674402 6.6822462 0.016177
0.94158697 6.7019219 0.130437
0.85611397 6.1453128 0.232109
0.86761397 6.2812042 0.35906199
0.854146 6.2371769 0.48441401
0.91830999 6.7641129 0.67034602
0.90960997 6.7588758 0.82058603
0.98532301 7.3864012 1.06818
0.83555198 6.3196111 1.065238
1.336297 10.198024 1.969111
0.79542297 6.1255722 1.3368109
1.288419 10.013152 2.442647
0.91421002 7.1700921 1.9363101
1.103025 8.7317209 2.588949
0.91507798 7.3122511 2.363415
0.92039597 7.4246759 2.598743
0.88636202 7.2187481 2.7201591
1.211439 9.9619703 4.0211039
1.204304 10.000143 4.302906
1.164665 9.7664776 4.4584589
0.88688397 10.129095 5.610405
0.74089599 8.5763111 4.5483689
1.066352 12.513268 6.3306489
0.81405097 9.6854649 4.6554079
0.82646197 9.9718056 4.5356631
0.81928998 10.17229 4.08917
0.74948001 9.4424791 3.5426879
0.73644298 10.015207 2.429713
0.643565 9.1897535 1.5394289
0.59802699 8.8339167 1.065364
0.464908 6.987864 0.68774301
0.438586 6.7098041 0.51740402
0.43639901 6.923408 0.25951001
0.444561 7.185925 0.138761
0.419395 6.9092631 0.016590999
0.41348001 6.9451022 -0.091389999
0.40290099 6.9026332 -0.19030499
0.41354799 7.229279 -0.29243499
0.44865599 8.1760664 -0.50622302
0.28677401 5.9883981 -0.522659
0.26691899 6.918231 -0.19055299
0.268637 7.1793561 -0.094371997
0.25833201 7.125298 0.01709
0.25077599 7.1462731 0.137817
0.24076401 7.0959501 0.26560399
0.238792 7.2874079 0.412884
0.248404 7.8598299 0.60509598
0.245774 8.0734062 0.79319602
0.24775299 8.4613171 1.018535
0.27988699 10.383201 1.7357301
0.21167199 8.2061815 1.5716029
0.222472 9.9679642 2.670933
0.197521 9.3353043 2.746702
0.18977199 10.07463 3.5000999
0.18501 11.202504 4.4893842
0.14624999 10.302788 4.6706681
0.085105002 10.139893 5.820498
-0.083048001 8.1648979 5.4119458
-0.093021996 8.2094488 5.3256068
-0.127617 9.3476181 5.7456498
-0.15842301 9.9186954 5.6940522
-0.181713 7.9221249 3.3852041
-0.233923 9.2612896 3.4649191
-0.26156101 9.900095 3.440053
-0.27387899 9.5291672 2.804271
-0.30492201 9.8159056 2.376096
-0.34084699 9.2439966 1.113029
-0.354222 9.3134336 0.91526401
-0.32075199 8.183507 0.63018298
-0.338833 8.3957043 0.47580901
-0.35576501 8.5686188 0.32081801
-0.375453 8.7963562 0.169689
-0.325059 6.253047 -0.481805
-0.31519499 5.56494 -0.48592201
-0.65790498 9.6345358 0.023147
-0.70139003 10.098793 0.195106
-0.71899903 10.181505 0.38182601
-0.71709001 9.8297443 0.75838298
-0.91996199 11.852508 1.986588
-0.77719098 9.4458971 2.538965
-0.78231102 9.3748417 2.767302
-0.91343898 10.228487 4.3869772
-1.009995 10.8813 5.508709
-1.293579 10.687559 6.1794262
-1.237431 10.124906 5.6282802
-2.2706499 16.941322 5.0280471
-1.065138 6.8544931 -0.428846
-0.90279299 5.722095 -0.44574699
-0.83080202 5.111279 -0.45144299
-1.011584 6.0458698 -0.43031901
-2.341084 10.229637 6.0236082
-1.623997 6.1386948 -0.392564
-1.382116 5.1758051 -0.41222
-1.270812 4.6718822 -0.422088
-1.527735 5.515233 -0.40174699
-1.879351 6.7238941 -0.36245
-1.453665 -4.6624012 1.696402
-1.7903121 -5.765554 1.936174
-1.579891 -5.1087241 1.573011
-1.694255 -5.50105 1.541958
-1.668487 -5.4396968 1.376649
-1.7251509 -5.6476822 1.2780091
-1.175658 -3.8647721 0.77339101
-1.219625 -4.0259891 0.70296198
-1.869043 -6.1697211 1.07727
-1.185338 -3.929147 0.58829403
-1.06292 -3.538141 0.44451901
-1.19115 -3.9816539 0.40812999
-1.119005 -3.756279 0.30158901
-1.160464 -3.9119689 0.23106401
-1.586375 -5.3477302 0.31586799
-1.161237 -3.931211 0.15334401
-1.136973 -3.865509 0.077656999
-1.1107939 -3.792671 0.0094720004
-1.108003 -3.7993929 -0.051986001
-1.5130759 -5.1884089 -0.070992
-1.068723 -3.6805241 -0.105484
-1.019141 -3.5402679 -0.191257
-0.99495298 -3.471333 -0.22324701
-1.388935 -4.8884921 -0.391045
-1.0839601 -3.8832591 -0.35147899
-1.083783 -3.953037 -0.287743
-0.99572498 -3.6650331 -0.19716799
-1.036365 -3.832098 -0.160321
-1.330345 -4.9191289 -0.205798
-1.045904 -3.8851571 -0.110739
-1.028259 -3.837276 -0.052182999
-1.38076 -5.1527481 -0.070073001
-1.00974 -3.785639 0.0093909996
-1.009028 -3.800606 0.075787999
-1.53159 -5.795856 0.22425801
-1.015853 -3.862241 0.226145
-0.95825899 -3.660464 0.29115501
-1.031064 -3.957211 0.401582
-0.99538702 -3.8384349 0.47713199
-0.98923498 -3.8329401 0.56743503
-1.307601 -5.0664968 0.75005299
-1.647228 -6.4130168 1.106444
-1.611014 -6.3022089 1.245361
-1.4674751 -5.7684708 1.288162
-1.434112 -5.6646819 1.413805
-1.366135 -5.4223881 1.497968
-1.34313 -5.3571959 1.6246541
-1.5198539 -7.6568799 2.2963021
-1.5125819 -7.6666789 2.0933781
-1.163337 -5.932579 1.462719
-1.505792 -7.6789708 1.893304
-1.4938591 -7.664999 1.690051
-1.174389 -6.063148 1.182369
-1.223973 -6.3584809 1.08205
-1.004896 -5.253078 0.76665503
-1.009033 -5.307972 0.65011299
-0.985901 -5.2191482 0.52159798
-0.972853 -5.1828971 0.40577501
-0.902448 -4.8386779 0.27872401
-1.069574 -5.7347651 0.33034101
-0.972866 -5.2498851 0.199735
-0.97688299 -5.3058181 0.103979
-0.91569 -5.0059252 0.012198
-1.027469 -5.653903 -0.075484
-1.3845 -7.6185532 -0.101714
-1.364627 -7.5588989 -0.211408
-0.89318699 -4.9804168 -0.204345
-0.88713598 -4.979785 -0.26259601
-0.89253199 -5.0438609 -0.31666699
-0.891101 -5.104486 -0.39871699
-0.87360001 -5.1445618 -0.45491701
-0.835504 -5.0618839 -0.36015099
-0.81589502 -5.015224 -0.263789
-0.74362302 -4.604538 -0.188366
-1.221848 -7.5657248 -0.309504
-0.76046097 -4.7436118 -0.13222601
-0.800605 -5.03126 -0.066919997
-0.80967897 -5.1264381 0.01244
-1.028089 -6.5092921 0.015795
-0.79121399 -5.0474138 0.098467998
-0.77407199 -4.975626 0.188371
-0.76245099 -4.9384842 0.28296399
-0.94419003 -6.1156292 0.35041201
-0.87681103 -5.7231078 0.445517
-0.82730901 -5.4419961 0.54055798
-0.78751999 -5.2208552 0.63529998
-0.79453599 -5.3090038 0.76949298
-1.147045 -7.6644282 1.11089
-0.82975 -5.588397 0.94409502
-1.137139 -7.65868 1.2938451
-0.92644697 -6.2896709 1.2171561
-1.131688 -7.6830568 1.486799
-1.121564 -7.6759081 1.678841
-1.113219 -7.6808138 1.8777829
-0.77329999 -5.3790851 1.45579
-1.104695 -7.6842709 2.079663
-1.095935 -7.6863151 2.283885
-3.3178501 -23.463713 7.5999422
-2.3022521 -23.478859 10.078221
-2.2167931 -23.443275 8.1794777
-2.1874089 -23.420944 7.544055
-2.1571591 -23.388599 6.9092259
-2.12977 -23.387192 6.2910008
-0.465262 -5.3128071 1.021034
-0.49801099 -5.7633109 0.96667498
-0.42191499 -4.949276 0.71202499
-0.65448201 -7.6773939 1.1045049
-0.43158001 -5.1327348 0.61976999
-0.541565 -6.5310612 0.64356798
-0.63071603 -7.6061811 0.74950999
-0.521689 -6.380784 0.492623
-0.61731702 -7.5504122 0.582923
-0.440817 -5.4694738 0.31072301
-0.43647799 -5.4948359 0.206203
-0.436589 -5.5779009 0.107833
-0.382332 -4.9582672 0.01192
-0.39157099 -5.1557059 -0.067919001
-0.40286899 -5.3869109 -0.148679
-0.54930198 -7.4607081 -0.30211899
-0.54155803 -7.4733129 -0.38899499
-0.53318799 -7.4777021 -0.463462
-0.515248 -7.4691172 -0.57609499
-0.50457698 -7.841979 -0.685067
-0.44876099 -7.5160851 -0.52856702
-0.43096101 -7.5095139 -0.39049801
-0.423751 -7.535943 -0.30482301
-0.41495901 -7.5347252 -0.20769399
-0.40803701 -7.5683551 -0.09956
-0.28185201 -5.342555 0.012823
-0.40007201 -7.5834322 0.018201999
-0.280417 -5.4347601 0.104885
-0.39257401 -7.6084638 0.146835
-0.38344401 -7.6020122 0.28474399
-0.374823 -7.6055698 0.43120199
-0.36793399 -7.645525 0.58898401
-0.35774499 -7.6169229 0.74882603
-0.347666 -7.5892429 0.91412503
-0.33921 -7.5967031 1.090032
-1.092537 -26.529819 5.7463861
-0.90942699 -23.394817 6.271853
-0.85710102 -23.445314 7.5242052
-0.75128597 -23.529816 10.057007
-0.72388899 -23.523811 10.668263
-0.004092 -5.7648158 3.3090019
0.144188 -7.6118159 1.091309
0.152713 -7.5976529 0.91436398
0.161136 -7.5808129 0.74462301
0.16947199 -7.5617418 0.582003
0.177496 -7.5308409 0.426566
0.185179 -7.489471 0.280258
0.23550799 -7.437252 -0.38629901
0.24492501 -7.4617281 -0.46154901
0.26199701 -7.4563432 -0.57410002
0.33220699 -7.4821968 -0.52576602
0.39180201 -7.6299248 0.018312
0.399717 -7.6120968 0.14691199
0.40948001 -7.6296749 0.28582799
0.418901 -7.6402669 0.433294
0.42877901 -7.6583319 0.59021199
0.438636 -7.6754951 0.75498301
0.44811201 -7.6854191 0.92631
0.73942202 -8.1410656 5.719862
0.575679 -6.0290041 4.1467218
0.66358298 -6.4751492 3.8726699
0.71823299 -6.6306529 3.194464
0.95218599 -7.6353569 0.92583197
0.96018898 -7.6278219 0.75498301
0.96425003 -7.589375 0.58867699
0.98027498 -7.5754962 0.28575301
0.99290401 -7.6040249 0.147799
1.005129 -7.6290498 0.018444
1.015167 -7.6371598 -0.101202
1.02768 -7.6634722 -0.21281099
1.035537 -7.6549792 -0.31196499
1.0467891 -7.671484 -0.40195599
1.058736 -7.6926599 -0.48006099
1.077166 -7.6950049 -0.597884
1.122907 -7.7604399 -0.68359101
1.163077 -7.7842202 -0.552517
1.181322 -7.7832599 -0.408696
1.191542 -7.7899752 -0.31826001
1.2054729 -7.8206429 -0.21779101
1.218549 -7.8452439 -0.104288
1.2289439 -7.8523908 0.01905
1.240751 -7.8682938 0.153522
1.254209 -7.8944001 0.29902399
1.271018 -7.9410419 0.45539901
1.2839659 -7.90488 0.78645301
1.293852 -7.9080558 0.96417999
1.589977 -8.5373993 5.1667991
1.138206 -6.0726209 3.797271
1.657285 -8.7859716 5.6546741
1.454371 -7.5661039 5.1996059
1.548858 -7.5836668 5.1301889
2.0077579 -9.7160158 6.2747159
1.81089 -8.7124491 5.4691801
1.4955159 -7.1536489 4.3481898
1.520968 -7.233664 4.2429099
1.779906 -8.4651613 4.9652448
5.0560298 -23.638718 12.185508
5.082356 -23.628298 11.576099
5.1718559 -23.515079 9.0050764
5.2667642 -23.429602 6.4330611
5.2976518 -23.440413 5.8144259
1.82935 -7.8821349 0.97361702
1.843982 -7.9037042 0.79700798
1.857676 -7.92103 0.62603998
1.87761 -7.9645638 0.46337101
1.8903559 -7.9773502 0.306687
1.902644 -7.988008 0.158262
1.919672 -8.0183849 0.019762
2.020395 -8.1474152 -0.64591098
2.056335 -8.1311998 -0.73118401
2.094444 -8.123704 -0.58893102
2.1198499 -8.1443043 -0.43689999
2.1293781 -8.1423063 -0.33988899
2.1440351 -8.1598282 -0.232207
2.1586981 -8.1771288 -0.111092
2.170119 -8.1820784 0.02029
2.187423 -8.2089825 0.163735
2.1947441 -8.1983747 0.31749099
2.210007 -8.2173719 0.48185799
2.217557 -8.2075701 0.65419698
2.228663 -8.2109909 0.83551401
2.242734 -8.2252302 1.025822
2.2591391 -8.2477856 1.225824
2.272548 -8.2592764 1.431471
2.2868509 -8.2738771 1.643433
2.30039 -8.2855196 1.86096
6.5865579 -23.512922 6.541223
6.7024369 -23.820602 7.2791958
6.7403369 -23.849438 7.9483919
2.3641291 -8.1840448 3.861465
2.778331 -9.4537182 5.4369669
3.0873361 -10.328415 6.8177872
2.6892021 -8.5273561 5.926291
7.5867949 -23.769758 15.335172
7.6091671 -23.74511 14.835181
2.9151671 -9.0610113 5.463562
7.6566672 -23.70459 13.745081
2.3825631 -7.3183751 3.879683
2.5000839 -7.6493239 3.8545239
2.6126461 -7.9625549 3.7987111
7.8754482 -23.908575 10.753534
2.8540151 -8.6307545 3.6424639
3.162781 -9.4181976 2.9225149
2.7977419 -8.2364254 1.882535
2.811831 -8.246563 1.668066
2.8170221 -8.2306433 1.453722
2.8238609 -8.2196169 1.245832
2.834064 -8.2183619 1.046011
2.840591 -8.2065105 0.85281301
2.8478129 -8.1967278 0.66769999
2.8545821 -8.1856499 0.490904
2.860348 -8.1718063 0.323883
2.869617 -8.1679697 0.166857
2.87326 -8.1482239 0.020709001
2.885767 -8.1536465 -0.113614
2.889333 -8.13379 -0.237572
2.9014909 -8.1381941 -0.348928
2.9093461 -8.1305189 -0.44830599
2.9255459 -8.1460686 -0.535101
2.934504 -8.1120386 -0.66378701
2.9750011 -8.1065941 -0.75281
3.0251479 -8.1268787 -0.60874897
3.039957 -8.1092596 -0.44960201
3.0629051 -8.1418447 -0.351309
3.0658829 -8.1212769 -0.23892
3.374095 -8.937706 -0.26293901
3.0733421 -8.1126165 -0.113955
3.421613 -9.0005369 0.023080001
3.4456501 -9.0322943 0.18631899
3.470386 -9.0656691 0.36313501
3.513247 -9.1144581 0.75163198
3.5126059 -9.0815153 0.95621401
3.520798 -9.0715322 1.170849
3.5283179 -9.0598183 1.393685
3.540421 -9.0599298 1.625465
3.5574169 -9.0724888 1.8656909
3.5694809 -9.0723572 2.10992
3.568325 -9.0387545 2.3511679
3.5722289 -9.0182514 2.59848
3.588342 -9.0284224 2.8578899
3.638725 -9.1243887 3.1504059
3.647548 -9.1158628 3.410522
3.648391 -9.0874863 3.6624939
3.707339 -9.203475 3.9757271
10.481042 -23.767559 14.910173
10.801116 -23.9657 10.533129
10.845262 -23.915737 9.1215219
4.0968332 -8.9242277 2.37586
4.0834422 -8.8679962 2.1128809
4.0812311 -8.8362474 1.863435
4.0776858 -8.8018188 1.621015
4.1013579 -8.8261414 1.3951041
4.1146302 -8.827939 1.171924
6.5941892 -14.062801 1.195154
4.2334452 -8.8675652 -0.27045
4.02177 -8.3991861 -0.37608501
4.0284762 -8.3882732 -0.48309401
4.1437688 -8.6028013 -0.59032601
4.1819162 -8.6308823 -0.73797601
4.1950598 -8.5568447 -0.8308
4.215857 -8.4995337 -0.666031
4.277679 -8.5742645 -0.497455
4.9949808 -9.7842703 0.84530801
7.2397871 -14.141037 1.560102
12.329417 -23.609354 7.1350799
12.36413 -23.609245 7.8396559
4.690556 -8.9063778 3.49649
4.7545848 -8.977499 4.0705729
4.7089009 -8.8664341 4.288764
4.5763431 -8.5928373 4.413044
4.1977038 -7.85993 4.2679248
4.1381912 -7.7269769 4.4184899
4.5500708 -8.4960537 4.8582692
4.544683 -8.4624653 5.0753369
4.5292239 -8.4103012 5.2707748
4.2344751 -7.7765689 5.6001539
4.6963782 -8.2571449 5.8383298
4.7087131 -8.2566013 5.6551008
4.1545172 -7.265296 4.8039522
5.1625142 -9.0038385 5.7268348
4.6606059 -8.1067324 4.9407921
5.0795388 -8.7183113 4.0430489
5.1779542 -8.3888311 -0.60945499
5.1545959 -8.3079348 -0.75232202
5.1802011 -8.2635756 -0.85025501
5.235991 -8.2673187 -0.68696898
5.2867012 -8.3048029 -0.51109099
6.0073071 -9.3648834 -0.146148
9.16465 -14.106666 1.29443
5.0614109 -7.4080558 5.1499362
5.8999338 -8.5712671 6.580996
5.0555511 -7.2185621 6.1664662
5.477262 -7.6873312 6.12287
5.9050741 -8.1273708 4.8117828
10.727971 -14.068252 0.042406
6.529705 -8.420372 -0.81991303
6.5914211 -8.4191179 -0.932154
6.6410089 -8.4019918 -0.75181502
7.267344 -9.1290379 -0.471237
7.3590169 -9.2222681 -0.32473299
9.7549028 -11.578722 7.631979
5.6904178 -6.4305611 5.4307108
7.7797022 -8.5693235 4.328784
8.7760305 -9.2712603 -0.351365
8.8221149 -9.2983828 -0.51764202
8.6597271 -9.0850248 -0.77593303
8.0737762 -8.4311657 -0.89824498
8.1717262 -8.4547567 -1.025082
8.4076548 -8.6186895 -0.845231
8.9185696 -9.1001987 -0.66149402
9.0311584 -9.1937866 -0.52046698
13.999786 -14.087924 0.74298
13.595023 -13.617433 1.480631
13.032435 -12.993675 2.2143519
13.071075 -13.002052 2.6427801
7.602788 -7.422503 3.6907401
10.597518 -10.250695 6.6833529
6.5909791 -6.100122 6.1489
6.1666622 -5.6809149 5.5572438
6.4472671 -5.884397 5.193387
10.369339 -9.3981743 7.394371
11.184556 -10.04296 6.421556
10.767916 -9.205452 -0.57211798
9.9557848 -8.4315939 -1.003889
10.078794 -8.455821 -1.146932
11.068601 -9.1558399 -0.74574202
11.388554 -9.0057297 5.0432668
10.867675 -7.8991532 6.090076
12.506353 -8.4416885 -1.31542
12.401506 -7.0166221 3.4475019
16.343742 -8.9490433 -0.244762
16.42012 -8.941391 -0.75507599
16.408592 -8.9104586 -0.96935099
16.457104 -8.9120722 -1.15702
16.847418 -8.5501833 2.708194
16.848646 -8.5262508 3.155499
16.864559 -8.5097532 3.616493
16.909151 -8.5076323 4.0965228
7.7152281 -3.659946 5.7629199
7.7869282 -3.6497369 6.0174069
7.7593012 -3.5929279 5.8545618
7.8210521 -3.5994821 5.7064099
7.895124 -3.622472 5.634717
11.139764 -4.081737 5.3778949
10.973709 -3.992029 5.8863692
7.7571878 -2.8117371 4.359633
10.639949 -3.856648 5.9797788
7.6469951 -2.761754 4.4861979
7.3975301 -2.6619649 4.5127282
7.353075 -2.626708 4.7989502
7.531517 -2.680608 5.0560131
7.1108332 -2.521579 4.8940511
7.2784648 -2.5620351 5.207438
7.9500942 -2.79845 5.6879611
7.404398 -2.5677991 5.4836602
7.49123 -2.5590329 5.4201159
7.0904469 -2.4037621 4.9622388
7.11308 -2.402241 4.8701062
7.4881091 -2.519227 4.9966822
7.228157 -2.422431 4.6853251
7.3259168 -2.4457481 4.5951529
7.5655231 -2.5159931 4.5764489
7.5824852 -2.5118589 4.4074502
7.6809759 -2.534605 4.2736731
10.266211 -3.3876929 5.712091
9.9209948 -3.2610071 5.264287
10.226219 -3.3481989 5.1539078
10.335493 -3.3707111 4.9278789
11.38146 -3.6826301 4.7932639
15.54609 -4.1090341 3.078522
14.365351 -3.779108 3.2146931
8.0109177 -2.038063 3.312176
11.458125 -2.900913 5.049325
7.9399362 -2.000391 3.7115979
11.507273 -2.884927 5.6822152
10.156039 -2.5336411 5.2764411
9.3011932 -2.3089161 5.0636582
10.330184 -2.551609 5.8712859
10.23041 -2.514369 6.0470061
8.5466547 -2.0900149 5.2348032
8.611393 -2.074079 5.7457352
6.0206652 -1.435315 4.1770272
7.3631601 -1.755363 5.1084251
5.9944792 -1.399671 4.3072391
7.4314628 -1.7351969 5.3397608
6.0714312 -1.387935 4.2642322
8.600769 -1.9451309 5.8445258
8.4395514 -1.898376 5.6113162
8.8728609 -1.985027 5.7503529
8.533227 -1.898633 5.3728342
8.6443863 -1.912837 5.2675271
8.72509 -1.9200751 5.1280322
9.1912146 -2.0114551 5.191545
8.2187061 -1.788632 4.44419
8.3322268 -1.803196 4.2974048
11.598767 -2.496026 5.6826472
7.8812099 -1.686448 3.6533849
8.1527739 -1.73465 3.5608089
8.058054 -1.704723 3.3002739
13.666055 -2.8579731 4.8496742
11.883644 -2.456439 3.5696111
12.915352 -1.98817 2.828033
12.387127 -1.833436 4.3496132
8.7052307 -1.267815 3.524929
8.5099478 -1.2292891 3.6731651
8.2756882 -1.185644 3.789628
8.200551 -1.165154 3.9672699
6.2585688 -0.881823 3.1860299
6.1357641 -0.85725802 3.2734621
6.1758661 -0.85554302 3.4402561
5.9646678 -0.81923097 3.4558589
6.0237799 -0.82021701 3.6170149
5.7673931 -0.77848899 3.576828
5.6493921 -0.75588602 3.604795
5.5239501 -0.73256701 3.6146209
6.3586478 -0.828246 4.3275051
5.7858481 -0.72631401 4.0802102
5.1034231 -0.61658502 3.519629
5.994679 -0.72426498 4.1342931
5.1585279 -0.61108798 3.442961
6.5176911 -0.77209699 4.3501081
5.3169031 -0.62359202 3.4725831
5.2897949 -0.61418903 3.3680029
5.3863759 -0.61905903 3.332299
5.5682082 -0.63340902 3.33426
5.374414 -0.60504597 3.104398
5.5760779 -0.62118697 3.0957961
6.0851188 -0.67074502 3.2346871
8.4571142 -0.92225599 4.2884021
8.5821486 -0.92581201 4.1344442
8.6734505 -0.92547798 3.9539461
8.7153168 -0.88901198 3.0430231
8.34585 -0.84153801 2.6901829
8.8636942 -0.883362 2.6202741
16.445759 -1.619693 4.4268861
11.625308 -0.52074999 3.423147
11.676421 -0.482324 4.370821
11.080004 -0.44479999 4.4432631
10.134889 -0.37153199 4.857573
6.0957789 -0.20222101 3.3653729
5.992444 -0.191837 3.441422
6.0953722 -0.18804701 3.628264
5.728569 -0.170081 3.522372
5.7776752 -0.16483299 3.6555741
6.7652612 -0.193009 4.280427
5.8855548 -0.161071 3.819243
6.276113 -0.157194 4.2368822
5.346734 -0.109085 3.74196
5.2809768 -0.083231002 3.616236
6.1233258 -0.096506998 4.193048
5.677536 -0.076301001 3.763391
5.832787 -0.071621999 3.78387
5.6993842 -0.063373998 3.604795
6.5307541 -0.065034002 4.0140481
5.9914751 -0.052715 3.5648611
5.9077458 -0.045127001 3.3911419
6.077992 -0.039368998 3.3537779
6.3623791 -0.033833001 3.361757
9.9207258 -0.041235 5.0009599
8.4361944 -0.025281001 4.0407062
9.9659042 -0.018308001 4.517498
10.820032 -0.007313 4.6222949
11.347302 0.018649001 4.244009
12.347434 0.048948999 3.959995
6.1263552 0.031392001 1.802161
6.0032072 0.037732001 1.608201
11.09699 0.58527797 1.592905
5.877193 0.32364601 1.126899
5.7378912 0.322658 1.243742
5.6989169 0.327097 1.381117
5.7779918 0.33886099 1.5504971
5.3541799 0.320243 1.577808
5.6542978 0.344789 1.816767
5.4919028 0.34128499 1.911323
5.5319228 0.35021901 2.0731361
5.4134789 0.349038 2.17365
5.4607978 0.35845399 2.3378611
5.7207041 0.382184 2.5989439
5.731781 0.38961601 2.751689
5.7325268 0.39635199 2.896596
8.6526861 0.59825498 4.3721271
5.6050482 0.39407599 2.9688671
8.2968817 0.58333099 4.39467
7.9333239 0.567038 4.3886089
6.1968732 0.45015401 3.5663741
5.9205999 0.437004 3.5321369
6.030241 0.452135 3.716634
5.6015401 0.42653099 3.552947
5.3683672 0.415052 3.4927189
5.35183 0.426274 3.6232221
6.1143522 0.51560801 4.2934799
7.5594592 0.63747001 5.308229
6.058877 0.53928101 4.1648011
7.3870311 0.65749598 5.0777578
5.4444952 0.49734801 3.6236169
5.5778551 0.51605898 3.6336689
5.544456 0.51946002 3.521944
6.054915 0.57438499 3.738102
5.8676 0.56348902 3.5070829
9.8760128 0.96000302 5.6955462
5.7343602 0.56414002 3.179374
8.1131477 0.798163 4.4982762
5.874548 0.58481699 3.1192961
5.6648641 0.570593 2.870038
5.5072532 0.561176 2.6514699
5.4577169 0.56252998 2.4870601
6.6201091 0.682338 3.016757
5.8811698 0.61308497 2.526037
5.3708239 0.56618601 2.16398
5.145751 0.54849899 1.935464
5.2228708 0.56286001 1.824698
5.3143601 0.57896 1.714461
5.2685852 0.58016199 1.559183
5.365519 0.59714901 1.446216
5.9787121 0.67242002 1.455664
5.4606218 0.62057 1.189381
5.5842228 0.64119202 1.076129
8.28088 0.96056801 1.393068
8.4531708 0.99049902 1.2200069
10.840601 1.28302 1.3134871
10.854152 1.297401 1.073493
10.267894 1.239415 0.79582298
10.258522 1.250383 0.58520699
11.855625 1.473008 0.23025399
11.493913 1.4416161 0.027765
10.011768 1.279349 -0.277796
9.9514074 1.2833771 -0.40522
10.081291 1.312026 -0.527785
9.8791504 1.297397 -0.61599499
9.817378 1.312475 -0.76214302
9.8306255 1.3607661 -0.86519301
9.8056526 1.403754 -0.695373
7.9840322 1.161909 -0.41885799
7.74471 1.1362621 -0.316122
7.5925012 1.1229351 -0.211243
7.484623 1.11587 -0.099402003
7.3237462 1.100577 0.017751001
6.9514089 1.052888 0.13550501
10.322829 1.588058 0.59142601
7.4043999 1.1479 0.57655501
7.3618689 1.150059 0.731722
8.5614786 1.33746 0.85095602
7.3782792 1.161397 0.89871401
8.298398 1.316117 1.204398
5.3266311 0.85113698 0.90140599
5.4874091 0.88336098 1.064095
5.2608862 0.85316998 1.153423
5.1904478 0.84793103 1.272472
5.220263 0.85896897 1.417235
5.1884022 0.85991299 1.547048
5.2371511 0.87424803 1.7028559
5.8306379 0.98027802 2.0537291
5.5132322 0.933496 2.091352
6.4635029 1.094394 2.451822
5.3209991 0.90731001 2.162864
5.7271471 0.98340601 2.4824309
5.6810379 0.982279 2.613394
5.6545372 0.98446703 2.7490971
6.010848 1.053691 3.0761981
6.0740719 1.0720429 3.25898
6.3188519 1.12282 3.5412271
5.8727951 1.0505919 3.4244959
5.9619699 1.073698 3.6042321
5.753181 1.042992 3.5935841
5.6927729 1.038867 3.6598499
6.0458422 1.110561 3.9874029
6.8074508 1.250461 4.489706
6.9911051 1.300981 4.799077
6.076303 1.159979 4.3284512
6.767633 1.291955 4.82092
6.8109112 1.333032 4.7517819
7.090589 1.404881 4.7909751
5.8226981 1.160695 3.851351
5.9447851 1.1922081 3.8346381
6.149034 1.240606 3.855392
6.1389651 1.2459919 3.7269471
5.855629 1.195563 3.43047
6.2222881 1.277961 3.504993
6.3261342 1.306944 3.413146
5.4336782 1.129154 2.7975669
5.677331 1.186663 2.778039
5.7302432 1.204666 2.6542671
5.9416809 1.2563291 2.594394
5.9888482 1.273566 2.4533529
5.3654628 1.147511 2.0521181
5.3960948 1.160622 1.9172291
5.6763649 1.2278 1.8625751
5.122139 1.114146 1.541968
5.1890292 1.135013 1.422928
5.2304511 1.150437 1.295753
5.4968381 1.215719 1.2183599
5.5539851 1.235131 1.089291
5.8272991 1.303013 0.99782699
5.7917509 1.302125 0.85093999
5.9905591 1.354138 0.73899299
6.0362992 1.3718441 0.60789502
6.1362562 1.402053 0.484337
5.3673878 1.2329431 0.311854
5.1565838 1.190822 0.197978
5.432488 1.2611901 0.107487
5.9724889 1.393863 0.0147
5.3453932 1.254055 -0.072122
5.4941468 1.295693 -0.15536401
5.4357982 1.288595 -0.225611
5.5110741 1.313197 -0.29411799
5.3385301 1.2786421 -0.33937401
5.557713 1.344789 -0.43999299
5.2982121 1.308085 -0.47576001
5.830183 1.468186 -0.42205501
5.4538431 1.3868949 -0.29214799
5.6448679 1.44245 -0.235296
5.655334 1.452119 -0.16070201
5.1160049 1.319976 -0.069403
5.081984 1.3174911 0.012584
5.8312888 1.5189821 0.116139
5.0618401 1.324826 0.19573601
5.136847 1.35083 0.30077299
5.5004339 1.45328 0.43776801
5.62711 1.493739 0.57173401
4.7533731 1.267709 0.59193498
4.9022021 1.313507 0.72749197
5.8250008 1.568013 1.008046
5.2297459 1.41429 1.037205
5.5412121 1.505434 1.242685
5.208703 1.421592 1.306335
5.0323138 1.379674 1.397828
4.9372058 1.359768 1.50641
5.147666 1.424176 1.712934
5.246047 1.4579591 1.891307
5.1683559 1.442837 2.006928
4.9577851 1.390272 2.0631821
4.9975982 1.407701 2.2180419
5.3889408 1.524693 2.538667
5.418612 1.539899 2.6981239
5.3263059 1.520357 2.792165
5.2304478 1.4995691 2.8749659
5.0515771 1.454649 2.9006169
6.0317721 1.736905 3.4634449
5.2737508 1.525263 3.1511929
6.4143152 1.855134 3.8327069
5.3824949 1.563502 3.3347709
5.2097659 1.5198931 3.3354399
5.2937822 1.55108 3.4888041
5.3641839 1.578487 3.6271379
5.54738 1.64641 3.905159
6.401618 1.89994 4.5065122
5.6232581 1.697423 4.1100221
5.6249719 1.726513 4.0286479
5.4011302 1.671559 3.7473691
5.3389211 1.659106 3.6265941
5.181222 1.616703 3.4326799
5.260829 1.648262 3.3883259
5.099081 1.604093 3.1803551
5.0480499 1.594487 3.038686
5.0901742 1.614307 2.9465129
5.3093572 1.690611 2.9441071
5.1109681 1.633991 2.7048399
5.1352139 1.64832 2.5832181
5.2030821 1.676775 2.477977
5.039681 1.630591 2.2628269
4.9721808 1.615135 2.0947981
4.788096 1.5614901 1.883618
4.7302051 1.548701 1.728886
4.9183831 1.616641 1.6604069
4.7610698 1.5710649 1.474803
5.1082611 1.692224 1.441558
4.7525678 1.580523 1.211799
4.7948241 1.600764 1.093986
5.365881 1.798354 1.083462
5.1434569 1.730459 0.90684497
4.9414749 1.668898 0.74764103
4.8170061 1.6331069 0.612005
4.3621402 1.4845459 0.452501
5.0553522 1.72702 0.41106901
4.3613052 1.495587 0.26108399
4.2444401 1.461024 0.167923
4.501956 1.555527 0.091801003
4.6190672 1.602001 0.011718
4.4024549 1.532607 -0.061232999
4.9042449 1.713693 -0.142984
4.8623981 1.705412 -0.20809799
4.2078619 1.481335 -0.231593
6.1379962 2.16082 -0.33782399
4.1764832 1.475752 -0.273844
4.2128339 1.499617 -0.34409201
4.3540978 1.572754 -0.40358901
4.3824868 1.606078 -0.327658
4.0603929 1.498757 -0.22469699
4.619236 1.711135 -0.198938
3.983994 1.481084 -0.116984
4.0668111 1.51726 -0.057016999
4.1197019 1.542447 0.010544
4.0843949 1.5346479 0.084092997
4.3647652 1.645782 0.174502
4.5316691 1.7147321 0.27437001
4.2812061 1.6256551 0.35237801
4.4760141 1.70558 0.470386
4.7155972 1.8031501 0.60746503
4.9120202 1.884811 0.75416797
4.9372802 1.901088 0.88410002
5.0589991 1.954707 1.038334
4.7787318 1.852809 1.109215
4.6486468 1.808588 1.206861
4.6987929 1.834325 1.351251
4.7334132 1.854175 1.495404
4.801568 1.887313 1.654604
4.7127752 1.858729 1.75973
4.7133908 1.865297 1.895879
4.7536201 1.887611 2.0494211
4.6370831 1.8475699 2.1324
4.8992362 1.958612 2.3916891
4.7829218 1.918563 2.468312
4.7748141 1.921748 2.594558
4.80264 1.939428 2.7366829
5.4486761 2.200314 3.1048131
4.809628 1.948755 2.8634181
4.7876301 1.946314 2.9665029
5.1994109 2.1207609 3.3409071
5.2765231 2.1593599 3.504045
5.142808 2.1116109 3.5160649
5.1569071 2.124408 3.617887
5.2265229 2.1672931 3.8184519
5.1524768 2.1646969 3.910512
6.4925289 2.72769 4.9275551
5.1809468 2.205024 3.8552091
5.204812 2.229476 3.7528939
5.1134601 2.1973729 3.6102681
5.2302008 2.254735 3.6021221
5.3016801 2.292861 3.550123
5.2278318 2.2681301 3.3905039
4.4858661 1.952413 2.8081961
5.507731 2.397166 3.4478941
4.6659989 2.0372679 2.809309
4.902246 2.1471961 2.827781
4.8462939 2.129406 2.6683791
4.738719 2.0887041 2.480407
4.5764999 2.0235491 2.268245
4.5494418 2.01791 2.1261139
4.6127801 2.0524149 2.0230119
4.9522238 2.2103369 2.0282969
4.5901642 2.0551391 1.746933
4.8365989 2.1722181 1.700413
4.7722902 2.1499951 1.539711
4.7787719 2.159601 1.404814
4.4483619 2.016505 1.181698
4.4708009 2.0329361 1.062892
4.64224 2.1174059 0.97684598
4.6406021 2.1231699 0.85278398
4.53971 2.083385 0.71599799
4.2965121 1.977824 0.56911802
4.0171542 1.854881 0.43451801
4.7009668 2.177248 0.39864001
4.4711761 2.0771351 0.279176
3.973702 1.851639 0.16399799
4.1637969 1.946112 0.088583
4.2419748 1.988654 0.011229
4.1099138 1.932566 -0.059657
4.986732 2.3448629 -0.072384
4.4518342 2.0996649 -0.135473
6.4716139 3.0522759 -0.196936
4.4790659 2.1188681 -0.20010801
4.1142321 1.952127 -0.236414
4.4521232 2.118793 -0.30482
4.5711498 2.1884689 -0.38997099
4.1760998 2.0232389 -0.404544
4.3853722 2.149832 -0.34285399
6.325469 3.1009221 -0.49453399
3.8567901 1.901832 -0.22324599
4.0447121 2.0003381 -0.18223201
4.2662392 2.1160619 -0.131071
4.4718289 2.224515 -0.065606996
3.907671 1.949536 0.010467
3.842099 1.922402 0.082801998
4.0388541 2.0267141 0.169044
4.6080918 2.3190601 0.29212299
4.6312199 2.3374491 0.39917701
4.6821179 2.369962 0.51534301
4.0980668 2.0803101 0.55299097
4.021698 2.047425 0.646896
3.941622 2.012423 0.73955202
4.4856672 2.296757 0.96481198
4.358542 2.2380641 1.060354
4.500298 2.3174591 1.224733
4.5453238 2.347265 1.370399
4.4460201 2.3025301 1.472828
4.5320172 2.3537581 1.637808
5.1969242 2.7067561 2.0353539
4.487278 2.3437769 1.893427
4.417294 2.3137679 1.9980921
4.5639558 2.397351 2.202327
4.4207878 2.3287051 2.2649419
4.4681568 2.360302 2.4203629
4.609036 2.4415741 2.6292181
4.2586479 2.262301 2.547946
4.4224372 2.355911 2.7648621
4.4896049 2.3983929 2.921699
4.8816042 2.6151071 3.294889
4.9706588 2.6702509 3.467916
4.875092 2.626215 3.502167
7.5895052 4.0998702 5.5955338
7.1504431 3.8841791 5.491612
7.073699 3.9281149 5.539885
4.8606539 2.721401 3.613533
6.5103092 3.654958 4.7219391
4.9377151 2.7796459 3.4825771
4.5180702 2.550328 3.0867851
4.2765131 2.420531 2.820642
4.2794499 2.428772 2.715102
4.330976 2.4646721 2.632971
4.5394578 2.5903111 2.634619
4.5911689 2.626893 2.533541
