# .PCD v0.7 - Point Cloud Data file format
VERSION 0.7
FIELDS x y z
SIZE 4 4 4
TYPE F F F
COUNT 1 1 1
WIDTH 1558
HEIGHT 1
VIEWPOINT 0 0 0 1 0 0 0
POINTS 1558
DATA ascii
-1.646987 8.3231382 5.366034
-1.975708 8.7502079 0.69025499
-2.184582 9.4702702 0.023295
-1.4694999 6.1419849 -0.485948
-1.356168 5.554142 -0.49842799
-3.3139889 12.857309 0.25590199
-2.1470001 -7.6743469 2.1347799
-2.13256 -7.656817 2.338069
-1.674113 -7.624126 1.304394
-1.654417 -7.5762 1.1116
-1.420911 -6.5432 0.80565298
-1.620291 -7.503119 0.75380999
-1.605808 -7.4779181 0.58852398
-1.5810961 -7.4466739 0.28478101
-1.575972 -7.4650421 0.147047
-1.568454 -7.4721379 0.018300001
-1.561325 -7.4811521 -0.100387
-1.554652 -7.4925108 -0.21061
-1.546329 -7.4959269 -0.3091
-1.535046 -7.4849238 -0.39666799
-1.525529 -7.482492 -0.472101
-1.441161 -7.5111709 -0.53689998
-1.426861 -7.530694 -0.397912
-1.42187 -7.5520492 -0.31035101
-1.4106359 -7.5402789 -0.211133
-1.406707 -7.5677052 -0.10111
-1.398079 -7.5699558 0.018451
-1.3919539 -7.5859189 0.148647
-1.383912 -7.5914912 0.28866899
-1.377104 -7.6039271 0.43759099
-1.3701659 -7.6158538 0.595429
-1.365507 -7.6406031 0.76221502
-1.3541369 -7.6278558 0.93216401
-1.347149 -7.6398401 1.112025
-3.8925469 -23.501223 8.909441
-0.9077 -5.8131952 3.377203
-1.475516 -9.8995991 6.754734
-0.75079399 -5.614665 3.48153
-0.81088197 -6.117816 3.671725
-2.9264181 -23.319254 10.6534
-2.7905419 -23.327032 7.5345879
-2.7588811 -23.290497 6.899066
-0.84536397 -7.5077949 1.262529
-0.83477497 -7.4915848 1.080525
-0.82324398 -7.4665709 0.90385097
-0.80705601 -7.478343 0.57878
-0.79821098 -7.4774699 0.42583099
-0.78881502 -7.4712191 0.28104299
-0.779948 -7.4699979 0.14475399
-0.77279401 -7.4851909 0.018037001
-0.76296502 -7.4745131 -0.098692998
-0.757007 -7.502048 -0.207528
-0.74801201 -7.4996452 -0.30437899
-0.74120802 -7.519381 -0.392261
-0.73412901 -7.5368729 -0.46815199
-0.64899999 -7.568531 -0.53325897
-0.63269901 -7.5844059 -0.39511299
-0.62451297 -7.5921478 -0.307648
-0.61714101 -7.610126 -0.210142
-0.609788 -7.6290078 -0.100532
-0.60149503 -7.6363249 0.01836
-0.59255201 -7.6356201 0.147606
-0.58396298 -7.6393542 0.28661299
-0.576042 -7.6520548 0.43453801
-0.568708 -7.6732092 0.592053
-0.56134403 -7.6944399 0.75762099
-0.55241603 -7.6945529 0.92822099
-0.54112798 -7.661407 1.100957
-1.51816 -23.417419 6.2863441
-1.4634629 -23.410517 7.5226779
-1.437623 -23.431053 8.154212
-1.333084 -23.500813 10.669915
-1.304829 -23.482229 11.264644
-1.275683 -23.445765 11.836206
-0.407516 -9.261446 6.25631
-0.14608601 -4.8473082 3.0670691
-0.140458 -4.8464341 2.9799049
-0.16364899 -6.716795 3.5500269
-0.39709699 -26.24514 8.4180822
-0.30609199 -26.232271 6.3473082
-0.245682 -26.247133 5.0252571
-0.053385999 -7.5684481 1.084923
-0.027115 -7.5476398 0.58077502
-0.018405 -7.5498829 0.42752701
-0.0097209997 -7.5676999 0.283099
-0.00098300003 -7.567595 0.145853
0.0077579999 -7.5809741 0.018170999
0.016527001 -7.593327 -0.099744
0.025341 -7.6070771 -0.209372
0.034148 -7.6147161 -0.30752701
0.042962998 -7.620616 -0.39563099
0.051943999 -7.647223 -0.47277901
0.069255002 -7.6111851 -0.58568501
0.14125399 -7.705739 -0.54103202
0.15868001 -7.6880069 -0.39920801
0.16844 -7.7288628 -0.31220701
0.177338 -7.7280378 -0.21275599
0.186341 -7.7310882 -0.101582
0.19491901 -7.7175169 0.018503999
0.204638 -7.747859 0.149379
0.21437199 -7.7766042 0.291024
0.223396 -7.778327 0.44064301
0.23331501 -7.8094201 0.601183
0.242182 -7.8046832 0.76680797
0.251764 -7.8224969 0.94172102
0.44670299 -8.7949696 4.6530161
0.376021 -6.644978 4.2093358
0.48220599 -7.4518991 5.2251
0.59799403 -8.6224852 5.9178362
0.52534902 -7.0993428 4.5022521
0.46452701 -5.9948888 3.4513781
0.751185 -7.7212491 1.112025
0.76024801 -7.7217002 0.93359703
0.77376997 -7.7670059 0.76651502
0.78518999 -7.7903848 0.60248703
0.79527599 -7.8000021 0.443979
0.80521798 -7.8081002 0.293641
0.81497997 -7.814157 0.15142199
0.82793403 -7.85044 0.018921001
0.83863002 -7.8647318 -0.103894
0.85347998 -7.9171138 -0.219166
0.86040998 -7.8957839 -0.32076201
0.87256902 -7.922359 -0.41377699
0.88046598 -7.9099531 -0.49203101
0.90230602 -7.93927 -0.61483902
0.944785 -7.9837999 -0.70087397
1.009055 -8.2018251 -0.58010697
1.015371 -8.0986052 -0.423731
1.030038 -8.1393957 -0.33133501
1.032169 -8.0812654 -0.22422899
1.044507 -8.1032543 -0.107322
1.054859 -8.1096592 0.019602001
1.064046 -8.1069508 0.15758801
1.072335 -8.0975924 0.30556601
1.086136 -8.1296263 0.46444499
1.096192 -8.1331997 0.63148701
1.105693 -8.1327 0.80599898
1.115127 -8.1316938 0.98759401
1.127965 -8.1552114 1.1801341
1.139294 -8.1675739 1.378069
1.149492 -8.1716738 1.579877
1.159883 -8.1769524 1.787351
1.17083 -8.1860933 2.0007739
1.3251621 -8.7588463 3.7843421
1.220089 -7.8793569 4.0192242
1.304603 -8.3611994 4.4712858
0.98611403 -6.1790681 3.722856
1.529752 -9.3763123 6.1625972
1.1255881 -6.2594051 4.022254
1.675892 -9.3196507 5.988749
1.323873 -7.1713438 4.0238581
1.591145 -8.4546595 4.1206212
1.567925 -8.2785959 3.8193541
4.4315372 -23.251083 10.111614
4.563632 -23.213331 6.9591761
1.620985 -8.1456404 2.009475
1.626636 -8.1249437 1.793273
1.636885 -8.1272287 1.5872101
1.641505 -8.1017561 1.3813649
1.650898 -8.0999756 1.1849591
1.661847 -8.1057138 0.99559802
1.669185 -8.0939226 0.81156999
1.677597 -8.0874224 0.63555402
1.680473 -8.0543795 0.46591499
1.693362 -8.0694733 0.30844399
1.699451 -8.0520849 0.158609
1.7086591 -8.0496302 0.019724
1.715735 -8.0371981 -0.107953
1.724327 -8.0318804 -0.2261
1.735388 -8.0380993 -0.33210099
1.743333 -8.0298691 -0.42658299
1.755052 -8.0389404 -0.50869101
1.766416 -8.0021324 -0.63056701
1.807196 -8.0105286 -0.71589899
1.8462451 -8.0107689 -0.57709599
1.8636841 -8.0017672 -0.42653099
1.87507 -8.0087204 -0.33218199
1.887213 -8.0187969 -0.226732
1.899124 -8.0277071 -0.10836
1.9069459 -8.0193653 0.019757001
1.920529 -8.0351343 0.159226
1.934898 -8.0540466 0.309865
1.9436311 -8.0494013 0.46891201
1.953841 -8.0508146 0.63747197
1.9663661 -8.0617371 0.81489301
1.9764121 -8.0624113 0.998824
1.991436 -8.0832081 1.193331
2.0014119 -8.0834455 1.391584
2.014133 -8.0946856 1.596988
2.0314209 -8.1240072 1.81231
2.0411091 -8.1228218 2.026407
5.8756299 -23.269428 6.4291801
2.3438749 -9.2375011 2.8034251
6.0226712 -23.621313 7.8179898
2.2318981 -8.7115602 3.1237409
6.0917168 -23.663376 9.138895
2.3159771 -8.8688364 4.1550078
2.3048611 -8.784646 4.3500009
2.2793679 -8.6467381 4.507616
2.2455389 -8.4786167 4.6343288
2.28315 -8.5804644 4.899261
2.317759 -8.6701708 5.1514301
2.3356111 -8.6965752 5.3575182
2.3355629 -8.6564198 5.5105462
2.4015901 -8.8603859 5.805943
2.453651 -9.0111217 6.0581102
2.474267 -9.0046263 6.3021798
2.505677 -8.956459 6.5075831
2.7291341 -9.5840502 6.8228841
2.7489729 -9.5695782 6.5991931
2.7472689 -9.5221376 6.4287152
2.7485731 -9.4854574 6.245852
2.737469 -9.4063778 6.0210719
2.754993 -9.4259529 5.842752
2.7492559 -9.3660851 5.602951
2.7488079 -9.3245907 5.3640161
2.7518389 -9.2952271 5.1220541
2.7503819 -9.2509375 4.8650212
2.7300789 -9.1054993 4.3090038
2.6979229 -8.9605188 3.9976599
2.6932001 -8.9075069 3.728755
2.7159309 -8.9453306 3.4964471
2.7217519 -8.9273052 3.2418661
2.7239289 -8.8975449 2.984273
2.7408669 -8.9160252 2.7438791
2.749568 -8.907589 2.497304
2.7540319 -8.8855762 2.2507529
2.76403 -8.8815022 2.0130429
2.77033 -8.8655481 1.778255
2.773464 -8.8396568 1.548164
2.763984 -8.7739086 1.3186229
2.747997 -8.6880407 1.096424
2.750479 -8.6610422 0.89239401
2.762568 -8.6643629 0.69976902
2.783349 -8.6947374 0.516967
2.820688 -8.776413 0.34485501
2.8372159 -8.7928715 0.17807201
2.8469779 -8.7883368 0.022142
2.6849549 -8.2556124 -0.114034
2.65011 -8.0848045 -0.343602
2.757937 -8.3810024 -0.45805299
2.722255 -8.2404194 -0.53652
2.8250549 -8.4856558 -0.68818402
2.8721249 -8.4956264 -0.78181702
2.7685709 -8.066103 -0.598665
2.8592019 -8.267787 -0.454164
2.8601279 -8.2396021 -0.35223699
2.796787 -7.9973321 -0.111289
2.923182 -8.3278351 0.021155
3.482995 -9.8135576 0.58967298
4.9390268 -13.865063 1.13255
4.959651 -13.872189 1.446733
3.1349559 -8.736618 1.116852
3.140065 -8.71908 1.328414
3.1358039 -8.675765 1.541571
3.1422751 -8.6623211 1.7641521
3.158668 -8.676156 1.998237
3.158139 -8.6435947 2.226531
3.1840589 -8.6835299 2.477638
3.1964929 -8.6863775 2.7227139
3.2041619 -8.6762342 2.9662549
8.7952299 -23.647451 9.4363079
8.9999208 -23.776289 12.815242
8.9544744 -23.492018 13.87214
3.0704119 -7.4781308 4.6401701
3.116781 -7.5661411 4.5151849
3.4304781 -8.3004141 4.7455149
3.44591 -8.3105011 4.5350742
3.4928081 -8.3961773 4.3556161
3.652873 -8.7524204 4.2990952
3.6572151 -8.7343788 4.0451961
3.653996 -8.6984692 3.7804561
9.970808 -23.431904 7.49085
9.8519087 -23.078341 6.7220979
3.6990011 -8.2908192 -0.249871
3.7310419 -8.3367348 -0.368862
3.6560669 -8.1439619 -0.46344501
3.6847401 -8.1824808 -0.55478501
3.851202 -8.4996214 -0.71802801
3.9819231 -8.6811056 -0.83262402
3.9055319 -8.4117279 -0.65104502
3.856221 -8.2554932 -0.47303599
3.8618751 -8.2427473 -0.36761099
11.352679 -23.244381 6.2588859
11.513296 -23.299379 9.0273504
11.554808 -23.315399 9.7323198
4.299468 -8.6252289 4.1170869
4.2237868 -8.4488964 4.281755
4.4619842 -8.7976217 5.6621919
3.829808 -7.5080051 5.1801429
4.4383311 -8.651391 6.3073559
4.6924028 -8.7682114 6.1121821
12.564753 -23.348372 15.219319
12.568933 -23.291405 14.603575
8.8037853 -16.002502 6.8310499
12.929484 -23.437357 9.2977238
7.8564658 -13.822235 1.223387
4.763845 -8.2253017 -0.38387299
4.739234 -8.1610117 -0.48993799
4.7420058 -8.1440353 -0.58261299
4.7513442 -8.1168022 -0.72370601
4.809762 -8.1299658 -0.82350498
4.8968039 -8.1902943 -0.66988301
4.893455 -8.1418095 -0.49315199
5.3796959 -8.9040737 -0.28632501
5.3314919 -8.8012266 -0.135167
5.408567 -8.9051857 0.024972999
7.1647968 -11.584091 1.9524651
5.0751128 -7.915657 4.7398839
5.6675439 -8.7279196 6.3959818
4.1785011 -6.4185271 4.8438091
5.7294288 -8.7343054 7.0495362
5.1562228 -7.570148 5.2574649
5.2565179 -7.6790681 4.9169669
9.8189106 -13.754603 1.6595941
9.8759289 -13.76686 0.95942003
9.8856249 -13.746721 0.63341099
6.3599849 -8.77948 -0.142405
6.3712411 -8.7735758 -0.29843
6.08986 -8.345356 -0.53633898
5.9240432 -8.0983782 -0.62031502
6.1167002 -8.3212156 -0.79467201
6.1204052 -8.2458506 -0.89524299
6.1458092 -8.2003679 -0.719392
6.7593589 -8.9539804 -0.453078
10.486433 -13.758008 0.33340499
10.514568 -13.76182 0.647879
10.560475 -13.78876 0.983504
10.594365 -13.799816 1.338698
9.7137432 -12.207978 7.0718532
8.9909019 -11.219386 7.5966549
5.7377629 -7.0923982 5.6068912
9.1840353 -10.829936 7.835145
6.017818 -7.0796781 4.909492
8.6965132 -10.1119 5.3441148
12.044627 -13.713475 3.050014
12.178812 -13.737522 1.412657
12.21684 -13.716334 0.68712997
7.9942789 -8.8922787 -0.32910699
7.908762 -8.77672 -0.477128
7.609467 -8.4249668 -0.58937699
7.3456578 -8.1139755 -0.676651
7.4969282 -8.242672 -0.85735297
7.5987859 -8.2773619 -0.97957301
7.5746069 -8.1747694 -0.78234702
8.0517321 -8.6494589 -0.61348498
8.2358856 -8.8063555 -0.33185801
8.180789 -8.7271633 -0.15712801
12.940414 -13.708996 0.70522398
13.009083 -13.749856 1.071871
12.645437 -13.303692 1.802478
12.103281 -12.703862 2.1112559
12.117443 -12.689271 2.5150759
12.120551 -12.663175 2.9291999
12.054482 -12.535937 3.7638011
12.054681 -12.507162 4.202848
12.142095 -12.508356 5.5907788
7.8330522 -8.0134411 4.490128
9.7386169 -9.8938932 6.6494098
6.8771749 -6.9545498 5.1678371
9.2206621 -9.2813005 7.5095978
9.8034573 -9.3341732 6.8235421
9.4831038 -8.9665508 5.5753541
9.7832508 -8.8303051 -0.362728
9.0883398 -8.1459656 -0.75452203
9.0946913 -8.1137686 -0.93783301
9.3335781 -8.249547 -1.085964
9.2618074 -8.1100159 -0.864209
10.735612 -9.3566904 -0.73931301
10.923409 -9.1484404 4.191309
12.176701 -8.8775883 -0.414754
12.165501 -8.8478546 -0.60750699
11.283898 -8.1269608 -1.070022
11.346903 -8.0926876 -1.215022
10.639068 -7.0786729 5.4590688
11.317712 -6.8131599 3.5388179
15.280937 -8.8171234 -0.91589803
15.265346 -8.5505629 -1.228281
15.313482 -8.5309381 -0.91004002
15.350709 -8.5283871 -0.70919502
15.382146 -8.5225458 -0.48400399
15.391273 -8.5042801 -0.230984
15.41818 -8.4725418 0.33906999
16.189152 -7.7788458 9.0539436
6.5004358 -2.496356 4.5169158
6.4050179 -2.442682 4.6262231
6.2579508 -2.3533809 4.6781669
6.3501921 -2.354495 4.6370978
6.360971 -2.341713 4.4926438
6.4168372 -2.353833 4.4336529
9.4017048 -3.436383 6.3308411
9.4741297 -3.450388 6.1970081
9.7459164 -3.5365739 6.168457
8.9137583 -3.2229099 5.4406619
8.9894133 -3.238466 5.2722249
9.9495649 -3.5713339 5.5854869
12.947531 -3.702069 4.3188291
12.748421 -3.613174 4.9558401
10.481814 -2.931396 4.9336591
10.28967 -2.8647809 5.1158938
6.9208312 -1.909567 3.793422
6.75178 -1.854488 3.8634641
9.9435196 -2.718755 5.9170752
9.1663151 -2.4948161 5.6520329
8.8340626 -2.3933871 5.6252179
8.7034969 -2.347182 5.7011781
8.8416176 -2.373421 5.9383841
8.9693956 -2.385433 6.2635822
7.3578529 -1.920315 5.3208418
9.0093765 -2.3067451 6.3675351
7.976243 -2.0225091 5.4539328
8.8585424 -2.2462311 6.0572252
8.032855 -2.026953 5.374042
8.0536489 -2.022269 5.251647
9.0668097 -2.2766731 5.912313
9.8234596 -2.454545 6.2231879
8.7987394 -2.187665 5.3943319
10.302307 -2.548821 6.0918102
10.335588 -2.544322 5.873219
6.9973459 -1.71394 3.8065031
6.7948031 -1.655967 3.525429
6.8611269 -1.663704 3.38151
10.628256 -2.564122 4.9559531
11.635378 -2.7928021 5.1117878
11.637969 -2.7791541 4.7943792
12.385776 -2.897048 3.741756
14.257815 -3.3000381 3.5408621
13.667742 -3.1467681 3.0353241
12.262648 -2.2005429 3.0143299
12.799786 -2.2817349 3.4829249
11.522012 -2.0401721 3.442055
10.535627 -1.8529 3.4307539
10.731048 -1.874442 3.783927
10.78627 -1.871201 4.0944271
12.383661 -2.118722 5.3671422
7.4017992 -1.2487 3.5953381
7.1565018 -1.198784 3.657768
7.0001702 -1.164253 3.7495079
6.903965 -1.140015 3.861048
7.2362709 -1.186269 4.2090588
6.740087 -1.096892 4.0628781
6.8242741 -1.102471 4.2486291
6.3563471 -1.0193141 4.0714302
6.3887281 -1.016899 4.1963782
4.8462162 -0.75985599 3.310519
4.6884718 -0.71284097 3.3182881
4.7779102 -0.70377201 3.306644
4.9313598 -0.71468502 3.302635
4.9717002 -0.71464598 3.2581661
6.3580618 -0.90640098 4.0618081
6.755271 -0.95502502 4.1931248
6.9030528 -0.96775401 4.147244
6.7879839 -0.94359702 3.9337649
7.2025399 -0.99269998 4.0117798
7.2990541 -0.997379 3.892462
7.3197312 -0.99154699 3.7234869
7.4406872 -0.972794 3.006809
14.792685 -1.88165 4.7824111
11.341953 -1.4293489 3.3627551
7.7184038 -0.52968299 2.687336
7.4458752 -0.484925 3.1875999
10.744854 -0.69977599 4.5999022
10.462783 -0.66921097 4.7524142
10.281981 -0.645648 4.934464
9.6827717 -0.59673899 4.8902278
7.4062181 -0.43054301 4.2583432
9.1612902 -0.51121902 5.6393552
5.1275239 -0.280157 3.247736
5.0591979 -0.27052599 3.2864649
4.7847829 -0.24471401 3.2333219
4.8510022 -0.225509 3.3979781
4.75352 -0.19885699 3.257493
8.9458733 -0.343023 5.80723
8.9465618 -0.33265001 5.662158
8.9219837 -0.310983 5.3115001
8.845583 -0.29804099 5.0802422
10.10194 -0.30512801 5.0945878
9.6181545 -0.27934101 4.6087542
10.621209 -0.29613501 4.8164072
11.463343 -0.306281 4.8988628
10.853321 -0.277376 4.350276
10.182862 -0.24841399 3.809624
10.39951 -0.241605 3.6133029
12.378245 0.416839 3.6432669
5.0056791 0.174392 1.606353
4.719171 0.16989499 1.640292
4.864327 0.180774 1.820563
4.8437891 0.18564899 1.9423
10.414538 0.42337501 4.7247529
8.9929533 0.376055 4.3111229
9.6208239 0.413497 4.8542171
8.8401394 0.39022401 4.6754398
8.9573936 0.40583199 4.9475722
8.5898218 0.39917001 4.935874
9.0072126 0.439538 5.5424862
5.3142991 0.308844 3.724761
6.6712141 0.41879901 4.5766482
9.3907404 0.61142701 6.2373281
8.5193157 0.56462002 5.5383921
8.5513077 0.576711 5.4205551
8.8692865 0.60851198 5.463944
8.6717043 0.60506999 5.1719122
4.2952552 0.30471301 2.4716711
9.1442184 0.65938902 5.0586882
4.392261 0.32185099 2.3269751
8.9115028 0.65300602 4.7212219
4.3803601 0.326098 2.2141969
4.4795022 0.338707 2.151674
8.6099081 0.66106999 3.9143109
4.6501141 0.36247399 1.992545
4.5092931 0.35676301 1.8124911
4.6466742 0.37305999 1.743494
4.5211611 0.36827299 1.575652
4.4422388 0.367035 1.4295321
4.7064071 0.394362 1.389295
4.5756001 0.388758 1.2301511
9.6558552 0.86558098 1.620026
11.687942 1.06142 1.6822979
13.778155 1.3965909 -0.381161
12.438381 1.480085 -0.65029502
11.775611 1.4150831 -0.478984
10.049315 1.314316 1.21947
9.8569098 1.300806 1.425186
9.5696774 1.2742029 1.613268
9.9833832 1.341084 1.928495
4.4663939 0.61054403 1.09069
4.621778 0.63720202 1.2498159
4.9791098 0.692352 1.478754
7.6672592 1.066143 2.277112
4.2944221 0.602229 1.390747
4.5232468 0.63966799 1.586808
4.0660062 0.57981598 1.536111
4.099709 0.58947998 1.659621
4.3729739 0.63394898 1.887653
7.4499822 1.080022 3.2158849
4.1284909 0.60339499 1.891305
4.188231 0.61709499 2.0276959
4.2467771 0.63075399 2.164232
4.686904 0.70168 2.5040319
4.2465339 0.64079398 2.3696749
4.5331888 0.68942702 2.631968
4.528554 0.69410402 2.7258
4.4514909 0.687576 2.768363
4.4193568 0.68786103 2.8286741
5.2811818 0.82200199 3.3802969
4.227808 0.66307598 2.7759991
4.594738 0.731547 3.1399021
4.452652 0.730133 3.1571901
4.5904632 0.77462101 3.1874399
4.3322549 0.74139398 2.913147
5.3255601 0.91138202 3.5810771
4.3760662 0.754116 2.880486
4.3867331 0.76119399 2.815845
4.1324201 0.722009 2.57829
5.2418962 0.91585499 3.2705121
4.1202722 0.72481102 2.4890621
4.6089869 0.81629401 2.686728
4.565814 0.81411701 2.559056
4.1841998 0.75107998 2.246155
4.2987509 0.77679598 2.2020431
4.256496 0.77425897 2.07219
4.2268629 0.77393401 1.947866
4.1239319 0.76003802 1.791404
4.0057731 0.743065 1.6324691
4.2113938 0.78626102 1.602319
4.500824 0.84570599 1.590746
4.2628002 0.80610102 1.391358
4.8761878 0.92795098 1.460129
7.4744959 1.422416 2.238168
4.3393602 0.83101398 1.183574
6.6091909 1.273648 1.62851
7.172267 1.390785 1.581118
7.005271 1.366845 1.366456
9.1122932 1.788933 1.55179
6.2277818 1.230145 0.90996802
9.793458 1.9462759 1.201432
9.122695 1.8239729 0.91360199
9.0126019 1.823725 0.52069902
6.4283919 1.31634 0.126467
6.660162 1.3718489 0.016299
6.6697612 1.381891 -0.089472003
6.693604 1.3949389 -0.188187
6.7672982 1.418487 -0.279239
8.5024071 1.792478 -0.45110601
8.4623508 1.794299 -0.53479201
8.6618633 1.857605 -0.68166298
7.0948229 1.556023 -0.63321799
8.4843998 1.860782 -0.75723898
6.6511331 1.491094 -0.47849801
6.566422 1.488117 -0.34954101
8.2698727 1.874162 -0.440218
6.5915589 1.501852 -0.27302501
8.3441782 1.901177 -0.34561899
6.6657672 1.526893 -0.188215
6.1309872 1.411889 -0.082641996
5.7898512 1.340402 0.014245
5.587605 1.300418 0.11057
6.0064921 1.405251 0.230763
9.6147757 2.2729781 0.760225
7.6491799 1.8176709 0.77208602
6.132997 1.464897 0.75870502
7.0793571 1.6909389 0.87577802
9.328845 2.2396951 1.375239
6.0711389 1.465024 1.0436471
6.8494182 1.661238 1.349345
4.8333001 1.1781991 1.076641
4.1660342 1.020661 1.037778
4.2488232 1.046127 1.172188
4.620945 1.143445 1.400301
3.9911089 0.992522 1.31898
4.1441779 1.035702 1.483777
3.940732 0.98972303 1.519646
3.9646361 1.000631 1.6384211
3.950593 1.001971 1.741119
3.8612969 0.98409897 1.8062561
4.279325 1.095942 2.1158199
5.2167921 1.3360291 2.57933
3.9347789 1.012576 2.0480981
4.0806122 1.055161 2.227001
4.2430382 1.102429 2.4189529
5.0082588 1.301249 2.8552051
4.2578821 1.111568 2.525933
4.3276129 1.135151 2.661886
4.3201332 1.138556 2.7458479
5.2461109 1.382594 3.334393
4.3791218 1.1595449 2.865021
4.3059001 1.145519 2.8902819
4.7808242 1.283767 3.3407259
4.993989 1.365937 3.6227131
4.7660499 1.327436 3.3874309
4.4768748 1.2581199 3.082202
4.4584622 1.258536 3.00511
4.2566028 1.2068959 2.7982061
4.4401832 1.264531 2.837481
4.633646 1.325449 2.8674331
4.6445971 1.334421 2.7738471
4.0076332 1.156467 2.3015561
4.0363421 1.1698329 2.2204599
4.2080078 1.224894 2.209245
4.9177642 1.437694 2.454057
4.097744 1.203133 1.9358931
4.4023299 1.2981271 1.960724
4.2081451 1.246183 1.758559
4.1575832 1.2364661 1.622287
3.964458 1.184052 1.437184
4.3287559 1.298336 1.4493819
3.9600451 1.192764 1.216586
4.3750811 1.323326 1.224458
4.437973 1.347978 1.122202
4.6022959 1.4037319 1.041317
4.7152328 1.444176 0.94412798
5.9961681 1.8365 1.200609
5.43681 1.672092 0.95052302
4.9692721 1.534622 0.74551201
7.4614739 2.30427 1.119404
4.830595 1.497954 0.60854101
4.0944791 1.274902 0.42112899
4.8209429 1.507249 0.38866699
4.6456671 1.458384 0.275727
4.073452 1.283953 0.15977301
5.0806441 1.607921 0.102708
4.6632228 1.481778 0.011728
4.5753741 1.459718 -0.063084997
4.8065219 1.539626 -0.13891201
4.861609 1.563502 -0.206242
4.863862 1.570464 -0.26534399
4.9115219 1.592165 -0.319197
7.574739 2.455498 -0.49227801
5.0666471 1.655471 -0.41014799
4.5119562 1.49749 -0.41444501
4.2944589 1.447502 -0.31813499
5.0223331 1.6928411 -0.37205601
4.3989272 1.494113 -0.241184
4.2775249 1.458424 -0.182514
4.1831169 1.431662 -0.121689
4.6781988 1.607186 -0.064975999
4.0102358 1.38292 0.010168
4.5643859 1.5799609 0.093092002
4.5016799 1.564114 0.178278
4.1847091 1.459433 0.25096399
3.9383321 1.378649 0.32107601
4.3238182 1.5192339 0.45005801
4.3847728 1.546376 0.55944198
4.7151809 1.669072 0.71699202
4.8031778 1.706503 0.85179502
5.6560841 2.016932 1.1496511
5.1163712 1.831185 1.176056
5.0996122 1.831874 1.311039
4.3153782 1.55577 1.228857
3.9251111 1.420222 1.227874
4.2353201 1.538035 1.445107
3.856303 1.405465 1.425699
3.9539659 1.446261 1.574645
4.133903 1.517527 1.76451
4.0849919 1.5049551 1.859761
3.9382091 1.456072 1.903278
4.1009359 1.5216579 2.0950849
4.0402021 1.50446 2.1732349
4.136992 1.545972 2.3335149
3.971133 1.489254 2.340205
4.172956 1.570469 2.5592871
4.0110002 1.514842 2.550931
4.477212 1.696858 2.942728
4.1677909 1.5851229 2.820121
4.2427392 1.619275 2.945791
4.3514342 1.672343 3.1460559
4.0469489 1.576941 3.039089
4.0128441 1.585158 2.9541161
4.77566 1.886487 3.5156751
4.1522508 1.651388 2.9617641
4.363523 1.741281 3.0475581
4.1489639 1.6612459 2.826535
4.0760312 1.637544 2.699769
3.8084221 1.5351681 2.4430439
3.9927189 1.614848 2.4721689
4.006207 1.625724 2.385618
3.7325151 1.519708 2.1293621
3.980305 1.6259919 2.167383
4.0707421 1.668453 2.1071801
3.8225999 1.571933 1.873552
3.822861 1.577237 1.766655
3.7403359 1.548272 1.6220551
3.855324 1.601114 1.5613329
3.7782531 1.574258 1.421762
3.9578879 1.6545 1.375783
3.8475599 1.613628 1.2273099
3.7723689 1.587253 1.0963711
4.1951609 1.77088 1.101743
3.4487801 1.460533 0.81054801
4.356874 1.845104 1.023972
3.8246479 1.624956 0.79557902
4.2935338 1.830054 0.77993298
4.1257658 1.764208 0.64320701
4.011941 1.721054 0.52527499
4.4272408 1.905298 0.47331801
3.6999841 1.59741 0.310105
3.71137 1.607446 0.229028
3.5442059 1.539933 0.144559
3.590977 1.565219 0.075498998
4.8823719 2.1281061 0.10265
3.2480581 1.4202369 0.0084969997
3.3853221 1.4849401 -0.048558
3.500634 1.540375 -0.105264
3.3967681 1.499379 -0.14995
3.4562299 1.530422 -0.196234
3.862067 1.7155 -0.26125699
4.182652 1.8695379 -0.35253099
3.654922 1.654073 -0.349742
4.5734172 2.069747 -0.43763399
4.5480528 2.0837719 -0.351188
3.8970799 1.796482 -0.22277901
3.683933 1.703413 -0.163912
3.3453109 1.551553 -0.101494
3.261981 1.517514 -0.047258001
3.245084 1.514238 0.0085829999
3.732625 1.747022 0.079429999
3.6128931 1.696098 0.149306
4.130662 1.9450229 0.25854
3.7748239 1.782831 0.32122901
3.681246 1.7438641 0.40001899
3.7394941 1.776774 0.49815699
3.635148 1.7323771 0.57722598
3.9511139 1.888586 0.73180503
3.895062 1.8673511 0.82698101
3.4370151 1.6526721 0.82535398
3.8275199 1.845917 1.028136
3.94433 1.907849 1.173741
3.5164571 1.705928 1.149703
3.5842631 1.7439719 1.2783639
3.4713261 1.694007 1.341699
4.0591512 1.986702 1.6902471
3.475585 1.706093 1.551385
3.6210811 1.782733 1.724227
3.5443349 1.750064 1.791806
3.5714929 1.76864 1.908903
3.538923 1.757628 1.991832
3.5716901 1.779074 2.1083391
3.6429491 1.819856 2.246964
3.528878 1.767993 2.265574
3.503202 1.7602251 2.3326011
3.7394061 1.884348 2.5735779
3.7971611 1.918982 2.690768
3.765568 1.9085129 2.7384479
3.6872611 1.8795969 2.7930751
3.8057561 1.962329 2.9960909
3.6317201 1.893996 2.804405
4.0747051 2.137074 3.0496061
3.7147961 1.953813 2.722666
4.4090471 2.3189559 3.2314999
3.7018609 1.952498 2.6469369
3.6570461 1.934297 2.5426841
3.525012 1.869701 2.374017
3.47017 1.845776 2.256115
3.550559 1.893833 2.2203929
3.5458291 1.8966 2.1246901
3.577297 1.918782 2.046298
3.4296949 1.844741 1.865273
3.6121199 1.948272 1.86034
3.4546731 1.868536 1.67787
3.520889 1.909637 1.6049449
3.6541071 1.987383 1.555728
3.5743489 1.949391 1.414215
3.467958 1.896593 1.267675
3.65488 2.004334 1.226181
3.736876 2.0549541 1.142431
3.630923 2.0021811 1.003209
3.6111879 1.996768 0.89304101
3.398062 1.884083 0.74387002
3.1206131 1.734988 0.59665197
3.3364871 1.860082 0.54756999
3.0920961 1.728549 0.42624101
3.029763 1.6983221 0.341086
3.359324 1.888184 0.296525
2.794575 1.575031 0.181651
3.299855 1.864859 0.141792
3.1010511 1.757267 0.068696998
3.139571 1.7839119 0.0086549995
3.5846679 2.042325 -0.054193001
4.3891768 2.500685 -0.066356003
3.287003 1.877798 -0.104191
2.8559501 1.635946 -0.132921
2.76074 1.585667 -0.16528299
2.7616711 1.5904731 -0.19702201
4.0441961 2.3416109 -0.35958999
3.5793729 2.0947399 -0.361554
3.2154541 1.9018691 -0.26225299
2.7493629 1.63482 -0.16606
2.9480331 1.757588 -0.138611
3.205538 1.916157 -0.102788
2.7016521 1.619217 -0.041374002
2.712853 1.630213 0.007586
3.110393 1.874028 0.069987997
2.9150219 1.760931 0.1274
2.861675 1.733241 0.18945301
2.9478381 1.790114 0.26537701
3.049978 1.85699 0.35066399
3.036314 1.8535039 0.42803299
3.105329 1.900592 0.521887
3.393765 2.082545 0.66538298
3.7952981 2.3350101 0.853118
3.606889 2.2248771 0.91715401
3.6777351 2.2744751 1.046244
3.726259 2.310416 1.174517
3.327466 2.068505 1.1525249
3.369046 2.099791 1.273172
3.3870251 2.1164651 1.387309
3.6178279 2.266536 1.596714
3.435854 2.158102 1.625774
3.4690411 2.184571 1.751334
3.5149391 2.219182 1.884286
3.400265 2.152318 1.927478
3.5383101 2.245461 2.1124671
3.4270229 2.1804259 2.1461799
3.7284789 2.378324 2.4402101
3.5494809 2.2699499 2.4184041
3.4458599 2.209336 2.435375
3.468657 2.2296431 2.534306
3.5783629 2.306041 2.6923709
3.605093 2.3292069 2.784162
3.4223709 2.222441 2.753917
3.7515099 2.4610579 3.1394169
3.618552 2.3979709 2.972194
3.499943 2.331099 2.787185
3.3420351 2.2315359 2.60675
3.607146 2.414619 2.7452891
3.5625801 2.3907931 2.636935
3.4475729 2.319428 2.4721889
3.275157 2.2089629 2.267565
3.298013 2.229965 2.1967199
3.3688109 2.2835431 2.1503849
3.3789549 2.2961609 2.059351
3.576237 2.4363019 2.0726221
3.479342 2.3762159 1.909883
3.504879 2.3996401 1.8145829
3.5113161 2.410044 1.7064871
3.4066939 2.3440621 1.54662
3.2541969 2.2447159 1.373199
3.2252469 2.2302811 1.257597
3.2838299 2.2764349 1.175384
3.3838229 2.3515861 1.103875
3.375823 2.3518479 0.99544901
3.5112841 2.4522841 0.926884
2.9954081 2.0971839 0.70005703
2.8651769 2.0109689 0.58494997
3.5362051 2.4880781 0.61979401
2.9816151 2.1030591 0.439024
3.1219971 2.2075119 0.37548801
2.796571 1.982287 0.26376501
3.527257 2.506387 0.245028
3.0074279 2.142271 0.138129
2.8665271 2.0469351 0.067887001
2.8028729 2.0064011 0.008262
3.4769609 2.488939 0.010249
2.749938 1.973345 -0.044459999
3.4163029 2.457552 -0.115829
2.6882329 1.93855 -0.13384899
2.6400399 1.908463 -0.169119
2.691294 1.950286 -0.205476
3.3142359 2.413475 -0.31547499
4.1226449 3.0021701 -0.39242601
3.3435631 2.4587059 -0.36181399
2.6181221 1.944067 -0.22892
3.035912 2.2652631 -0.196649
2.749243 2.05634 -0.138651
3.4661579 2.5925691 -0.174807
2.7592471 2.0688269 -0.094919004
3.0254159 2.2738979 -0.049713999
2.781821 2.095875 0.0083480002
2.880198 2.175251 0.069564
2.8148439 2.1310329 0.132073
2.7231431 2.0665901 0.19358
2.7995911 2.1297441 0.27067
3.427424 2.6136489 0.42327899
3.085716 2.3587489 0.467336
3.087146 2.3655369 0.55750299
2.9677091 2.279495 0.62533098
2.626477 2.0222509 0.63462102
3.2101929 2.4776361 0.87760001
3.6523199 2.8256481 1.117263
3.1959791 2.4784789 1.083433
3.144815 2.4446521 1.171715
3.12464 2.4347999 1.2704231
3.2547431 2.5422571 1.434559
3.3046329 2.5874081 1.5697401
3.1486809 2.471211 1.60383
3.1128731 2.448952 1.692013
3.443552 2.71558 1.987914
3.2341001 2.556509 1.974563
3.148772 2.495002 2.025141
3.1834331 2.528487 2.1480491
3.2625411 2.5975101 2.3010731
3.1724491 2.5318041 2.329792
3.077605 2.4619739 2.344873
3.0095689 2.4132819 2.3709381
3.3345449 2.6802349 2.705734
3.535619 2.8486249 2.9452469
3.0647249 2.480984 2.661057
2.958328 2.41769 2.6733201
2.9621429 2.4438419 2.629271
3.1733329 2.630492 2.7319391
3.212167 2.6689799 2.7090609
3.184747 2.652451 2.62128
3.271997 2.731565 2.6196561
3.0278139 2.5336831 2.348963
3.121731 2.6184411 2.338753
3.409812 2.8668351 2.4580851
3.318284 2.7964621 2.292872
3.2122581 2.713501 2.119669
3.6803031 3.1162009 2.309777
3.338026 2.833046 1.984611
3.0622871 2.6051509 1.717548
2.948194 2.513994 1.552501
3.223907 2.7555699 1.586205
2.992115 2.5634749 1.368606
3.8177991 3.270874 1.746276
3.011719 2.586338 1.273172
2.916353 2.510329 1.131924
2.372494 2.046993 0.83942097
3.1360209 2.7057669 1.109568
2.553961 2.2087409 0.81695902
3.1509149 2.725003 1.007912
2.623961 2.2746069 0.75153297
2.8995759 2.5194349 0.73540801
2.9475989 2.567173 0.65318602
3.1834271 2.7790689 0.60574698
4.1215281 3.598012 0.78425002
2.937896 2.570749 0.46972501
2.6628489 2.335537 0.34783
2.8642399 2.5180621 0.29345599
2.6891489 2.3696799 0.20296501
2.5188029 2.2247691 0.125718
3.0115769 2.6662569 0.077522002
2.7263019 2.4193439 0.0087369997
2.6365991 2.345216 -0.046351999
2.7189071 2.424094 -0.100256
3.5769589 3.1891069 -0.131896
2.922771 2.611949 -0.15830299
2.8110709 2.518002 -0.195923
3.9030671 3.4961519 -0.27203199
2.689966 2.415164 -0.22349299
2.5771611 2.3247111 -0.26706401
2.411711 2.1958759 -0.284345
2.6969991 2.478641 -0.25714099
2.8725231 2.6522889 -0.20297401
2.898833 2.682822 -0.159514
2.6763909 2.482729 -0.100476
2.6852691 2.496778 -0.048163999
2.613096 2.4353321 0.0085619995
2.7376449 2.5573609 0.072204001
2.604157 2.4383299 0.13345601
2.6441181 2.4815121 0.20534
2.596997 2.4429719 0.274353
3.5839429 3.3713839 0.37861601
2.6473 2.4960909 0.35731
2.742722 2.592083 0.45407599
2.8910861 2.7386661 0.57084101
2.851774 2.707715 0.65714198
2.7925 2.6576049 0.73804098
2.7666149 2.639106 0.82746899
2.748934 2.62834 0.920196
4.5550952 4.3552661 1.524802
2.8049331 2.688066 1.040737
2.8595021 2.746736 1.166353
2.9475861 2.8379419 1.3122621
3.7789741 3.6384039 1.682395
3.157361 3.046983 1.5241359
2.9709229 2.8737299 1.5459189
3.30158 3.2010059 1.8426189
3.4181449 3.3217261 2.0361509
3.3979011 3.3097301 2.150167
3.222749 3.146431 2.157289
3.0117381 2.947253 2.1241701
3.0771539 3.0182691 2.2774551
2.9007361 2.85185 2.2445481
2.988025 2.944495 2.4079499
2.9317851 2.8957989 2.4517369
3.159162 3.1276381 2.732234
3.061363 3.0378599 2.727649
3.0799899 3.063457 2.817903
4.9287472 4.9251041 4.702301
2.8157489 2.8399351 2.798301
3.0203149 3.08901 2.863425
3.0875621 3.1724861 2.7998099
3.0071061 3.104213 2.571384
2.816493 2.9142051 2.326308
2.9274631 3.0360789 2.3271611
2.91346 3.028584 2.2204599
3.1583869 3.2908361 2.2992711
2.949687 3.080534 2.0428159
3.1910119 3.340317 2.094018
3.446981 3.6166689 2.1343639
2.931479 3.082947 1.704627
3.000097 3.1624529 1.630344
2.695399 2.847888 1.362043
2.701308 2.860775 1.2618721
2.693181 2.858808 1.155347
2.9206779 3.1075261 1.142431
2.752404 2.9353061 0.97357798
2.511924 2.6850851 0.79574102
2.6852789 2.8770859 0.75345898
2.4546881 2.636152 0.60192603
2.4422801 2.6289389 0.51436698
2.4762051 2.6716771 0.43830699
2.4472589 2.646601 0.35398701
2.4473519 2.652873 0.277729
2.843781 3.0897901 0.237791
2.485889 2.707238 0.137493
2.4461949 2.670233 0.069794998
2.4260001 2.654367 0.0086190002
2.153899 2.3621521 -0.041990999
2.198956 2.417202 -0.089938998
3.583981 3.939692 -0.146588
2.440295 2.6887569 -0.146641
2.507601 2.7693689 -0.19395299
2.468183 2.7322121 -0.22762799
2.4252651 2.697264 -0.27911001
2.5670791 2.8818009 -0.336454
2.470593 2.799557 -0.262113
3.159692 3.580411 -0.33522099
2.103688 2.394989 -0.16549
2.163924 2.469341 -0.132598
2.832989 3.2328379 -0.17359699
2.1560781 2.466157 -0.090158999
2.2465129 2.575634 -0.044893999
2.404537 2.7632761 0.0087799998
2.204252 2.5390639 0.064804003
2.2178371 2.5607109 0.126727
2.3375449 2.7052641 0.202456
2.3611939 2.7390621 0.27826601
2.4899361 2.895196 0.37499899
2.1910081 2.5536039 0.40485701
2.383002 2.7839129 0.52529299
2.3628881 2.7669089 0.60802501
2.626157 3.0824311 0.77527201
2.580668 3.036181 0.86237001
2.658406 3.1350069 0.99450803
2.827404 3.3420911 1.172706
3.3127789 3.9158211 1.374022
2.5320089 2.9999781 1.154783
2.6262691 3.1190071 1.307681
3.305836 3.926074 1.646053
2.6527729 3.157917 1.43259
2.7355609 3.2641549 1.5928611
2.850821 3.4097281 1.780876
3.002337 3.599432 2.0023661
2.776027 3.335978 1.967271
2.709887 3.2642059 2.032016
6.8219562 8.2174158 5.1154618
3.1714439 3.829212 2.5063319
6.7603941 8.1625214 5.3426099
2.9752979 3.600884 2.46806
3.0168049 3.6597731 2.617029
3.0215371 3.6741951 2.7305369
2.9358671 3.57849 2.753922
2.9447949 3.6064129 2.944664
3.1122839 3.838753 3.3351319
2.988965 3.721864 3.3400741
3.010603 3.784678 3.3111629
3.1203539 3.941407 3.3319161
3.7459581 4.742928 3.9204659
3.751379 4.7611432 3.833569
2.8731761 3.6640301 2.7702839
2.9118099 3.722188 2.712615
6.433907 8.2442369 5.7703152
8.9480247 11.493241 7.6961632
2.6227479 3.3849671 2.051023
2.6680839 3.4517469 1.977592
3.034061 3.934659 2.1225791
6.1488199 7.9931412 4.0408168
2.633884 3.4321461 1.618083
2.7660551 3.6130619 1.580574
2.097436 2.7463 1.108261
2.805443 3.673336 1.4823641
2.1017809 2.758621 1.020171
2.5706501 3.3821659 1.138032
2.1029251 2.773464 0.84212202
2.2228451 2.9387009 0.79743302
1.9747339 2.6170039 0.62766403
2.1663091 2.8778279 0.60192603
2.012064 2.679389 0.48031199
1.957805 2.6134541 0.39291099
2.7672901 3.7029779 0.45396701
2.094696 2.8097601 0.26967299
2.057317 2.766324 0.19521999
2.3352051 3.147603 0.146615
2.072227 2.799933 0.067135997
2.084203 2.8229611 0.0084109996
2.0949831 2.844465 -0.046404
2.2585621 3.0740409 -0.104989
2.0620401 2.813401 -0.140871
2.1696711 2.967468 -0.190842
2.1761789 2.9836421 -0.228306
2.005923 2.7636659 -0.262768
2.3588641 3.281899 -0.352348
2.5156131 3.534507 -0.30454901
2.1754169 3.0716021 -0.19540501
2.2738991 3.218569 -0.15915
2.1968679 3.1172071 -0.104961
2.100148 2.9873371 -0.047967002
3.072588 4.370575 -0.070178002
2.050921 2.9245231 0.0085619995
2.0035901 2.8641059 0.067367002
2.372093 3.3992701 0.155063
3.6256189 5.1956048 0.23700599
2.3483291 3.373553 0.23276
1.951129 2.8099051 0.263228
1.9890389 2.8716099 0.343041
1.998464 2.8923831 0.42301601
1.970621 2.8591859 0.497765
2.040695 2.968224 0.60192603
2.0081 2.9280879 0.67974901
1.92594 2.8152981 0.738208
2.09938 3.0764849 0.90114802
1.97253 2.8977511 0.939044
2.8735149 4.2318978 1.504717
2.3506651 3.470556 1.344328
2.627244 3.8886139 1.630121
2.4324861 3.609375 1.627892
2.613925 3.9079061 2.131176
2.3916421 3.584594 2.063982
2.301522 3.45821 2.0940111
3.007905 4.5309968 2.873564
2.9100709 4.394701 2.9083469
2.8273201 4.2805171 2.9445989
2.790062 4.2348051 3.017247
2.7844219 4.2369399 3.116045
2.7443521 4.1865482 3.1659551
2.746918 4.2011032 3.2559891
2.7222049 4.3037748 3.303335
2.712503 4.2994752 3.215131
2.7120371 4.3098278 3.1296589
2.7274809 4.345552 3.052527
2.7405109 4.3775902 2.9645109
2.7661631 4.4300041 2.8817761
2.8063991 4.5060768 2.8048899
2.8657761 4.6133561 2.737699
2.312341 3.7320881 2.10286
2.49073 4.0304461 2.1476901
2.9810231 4.8238292 2.570457
3.0225201 4.9037142 2.460824
2.648773 4.319768 1.895179
2.5677631 4.198596 1.709527
2.153568 3.5305381 1.32631
2.3131499 3.8020761 1.309149
1.985341 3.2718201 1.025212
2.023571 3.343569 0.94559401
1.999632 3.3126869 0.83741099
1.851557 3.075454 0.687271
1.817227 3.026376 0.58989501
2.3325911 3.8846519 0.75718802
1.7770261 2.9672239 0.49577901
1.921937 3.2176709 0.45096999
1.837217 3.0839601 0.352521
2.161447 3.63781 0.32560199
3.1968441 5.3804278 0.48157501
1.867467 3.151365 0.207431
1.942265 3.2862771 0.142802
1.92167 3.2600751 0.072935998
1.979558 3.367209 0.009362
2.3446851 3.9989049 -0.060892001
1.922547 3.287693 -0.104823
1.864534 3.1969969 -0.14946599
1.818661 3.1266739 -0.187784
1.824023 3.1442959 -0.224728
2.001189 3.4682231 -0.30811
1.798196 3.1501391 -0.31621799
1.796216 3.1808951 -0.256441
2.314676 4.0990281 -0.33046001
1.780543 3.1703179 -0.188769
1.9516309 3.4844129 -0.16128901
2.4569941 4.3866811 -0.203054
1.799755 3.2220221 -0.101577
1.924024 3.453918 -0.051934
1.790511 3.2230361 0.0088369995
1.776262 3.2061601 0.070643
1.858133 3.3631401 0.143736
1.823648 3.3097949 0.21399
1.9368989 3.5250239 0.30949101
1.804418 3.2929671 0.36874399
1.924368 3.521564 0.48286599
1.709931 3.137809 0.51223803
1.954 3.5956149 0.68384302
1.834902 3.3858211 0.737288
1.975385 3.65518 0.89917499
1.938542 3.596982 0.98862898
2.305182 4.289093 1.304415
2.794935 5.200345 1.581548
2.1866269 4.0798559 1.361639
2.048526 3.8328781 1.393801
2.7177529 5.0850301 1.849138
2.134409 4.0047431 1.576308
2.684895 5.0376072 1.982854
2.026443 3.812824 1.61493
2.633496 4.955018 2.0987091
2.5794499 4.8669691 2.2071249
2.548089 4.821312 2.3296111
2.5168691 4.77565 2.4470119
2.472064 4.7038822 2.5452039
2.450074 4.67521 2.660727
2.4181111 4.627274 2.7586401
2.3993521 4.6044049 2.864867
2.360579 4.5428581 2.9386251
2.3433709 4.522583 3.0305409
2.3327341 4.5148759 3.1233759
2.310858 4.4852939 3.191077
2.291398 4.460248 3.2527239
2.252198 4.4090981 3.3412859
2.191555 4.340035 3.4019909
2.195178 4.3978562 3.3653979
2.201668 4.4366202 3.2827461
2.2133911 4.4732752 3.2374859
2.227896 4.515769 3.1846631
2.239393 4.5524011 3.118139
2.24454 4.5762668 3.0325861
2.271584 4.6450348 2.9679959
2.303926 4.7250781 2.9006169
2.3210421 4.77424 2.8048899
2.322165 4.7907028 2.6836841
2.389199 4.9436069 2.6298709
2.420054 5.0223212 2.527107
2.4451239 5.089469 2.4121101
2.4681821 5.1527748 2.289325
2.4888649 5.211473 2.160013
2.0711119 4.3497262 1.6734329
1.932797 4.0714092 1.445412
2.5575981 5.3875408 1.912659
1.967536 4.157033 1.352891
2.611069 5.5166969 1.795388
1.977416 4.1904969 1.241277
2.62831 5.5698581 1.649861
1.625684 3.455502 0.92395902
1.568455 3.3439269 0.79933703
2.0706589 4.4146209 1.055277
1.7993931 3.8479121 0.81325501
1.812533 3.8877649 0.71680701
1.767812 3.8033619 0.601206
1.581231 3.412312 0.45252299
1.542224 3.3382871 0.361121
1.586656 3.444962 0.29184499
1.841007 4.009469 0.249834
1.867955 4.0806422 0.16788501
1.6748869 3.670141 0.077753
1.574858 3.4615819 0.0091150003
1.544275 3.4048381 -0.049109999
1.555928 3.4411581 -0.103943
1.512659 3.355834 -0.14865901
1.519014 3.3803999 -0.192398
1.741511 3.8876221 -0.26335499
1.553875 3.490453 -0.293993
1.511101 3.437264 -0.327335
1.729876 3.9850409 -0.30497
1.476509 3.42312 -0.193538
1.46937 3.4174709 -0.150232
1.564487 3.6503651 -0.109308
1.543808 3.613709 -0.051619001
1.5060461 3.5366759 0.0092139998
1.731753 4.0798559 0.085423
1.7245719 4.076086 0.16556799
2.0859189 4.930141 0.200259
1.503746 3.5656841 0.219134
1.549737 3.686698 0.307726
1.723363 4.1131001 0.43793899
1.399598 3.3512869 0.436993
1.799428 4.3086672 0.561831
1.583272 3.803515 0.59056401
1.723242 4.153347 0.75141901
1.731813 4.1877308 0.86759698
1.676064 4.0663009 0.95184398
1.573065 3.8290229 1.001563
1.723303 4.208487 1.218248
2.3447161 5.74505 1.825302
2.3576241 5.7959232 2.0067191
2.7994931 6.9282432 2.794775
2.5303161 6.325428 3.088181
2.4374931 6.1139822 3.1525619
3.007443 7.5691199 4.105649
3.0163219 7.6172209 4.3287988
3.0231769 7.660531 4.5441718
2.5674119 6.5278311 4.0263591
3.1719401 8.0924911 5.171401
2.806607 7.2846079 5.2684121
2.689836 7.0793948 5.2990561
3.153002 8.5060053 5.8845081
2.3237431 6.3138399 4.135004
2.300844 6.2740788 3.975955
2.8858199 7.869225 4.9868169
2.265491 6.1999292 3.7888989
2.995949 8.1989603 5.0105472
2.2561691 6.196753 3.6388161
2.7953501 7.6776552 4.5084209
2.2732019 6.2661481 3.521996
3.8664191 10.735628 5.465363
1.958776 5.4786911 2.485574
1.954277 5.486187 2.3335869
1.958599 5.5185761 2.19014
1.321391 3.736943 1.376809
1.976732 5.5902739 2.0596349
1.3162481 3.7361901 1.2704231
2.0113909 5.7093658 1.941366
2.0061049 5.7155209 1.7818429
1.3184251 3.7702949 1.069977
2.0485809 5.8583188 1.66254
1.442462 4.14042 1.060824
1.343437 3.870635 0.88669503
1.375668 3.97842 0.80592102
1.338309 3.8849721 0.68664402
1.241894 3.6187229 0.54842103
1.208302 3.534215 0.449417
1.2478271 3.663712 0.380081
1.213517 3.576571 0.290618
1.267899 3.7511749 0.224223
1.265003 3.7569759 0.148297
1.236165 3.6854889 0.074920997
1.368062 4.0944829 0.010347
1.355616 4.0729561 -0.056387
1.2677521 3.8237951 -0.110876
1.206674 3.653764 -0.155398
1.195241 3.6333001 -0.198567
1.24971 3.8138051 -0.248114
1.231235 3.7871101 -0.306422
1.3962981 4.3636699 -0.39941999
1.147754 3.6451681 -0.26827499
1.195331 3.827281 -0.208159
1.212294 3.897486 -0.16484
1.254143 4.048594 -0.116654
1.380088 4.473556 -0.061496001
1.6786849 5.4414558 -0.074800998
1.1914589 3.8780899 0.0097239995
1.239387 4.0508552 0.081646003
1.240749 4.072196 0.15925001
1.189396 3.919966 0.231968
1.204291 3.9857261 0.32038501
1.183113 3.9321129 0.40324399
1.201098 4.0087461 0.50353301
1.185516 3.9735329 0.59439498
1.230028 4.1402588 0.72175097
1.089661 3.6834409 0.73540801
1.139186 3.8673739 0.87252301
1.322356 4.5085092 1.1367821
1.7821929 6.128715 1.87751
1.655952 5.7193742 1.909605
1.815922 6.2992439 2.2771809
1.671067 5.8221412 2.2654569
1.59636 5.5863309 2.3280079
1.565492 5.5024791 2.4439311
1.54045 5.438436 2.5622001
1.509328 5.3522801 2.6635649
1.483899 5.285584 2.7674079
1.46892 5.2556639 2.8833749
1.460535 5.2491908 3.0064189
1.447407 5.2254872 3.1123641
1.436452 5.209465 3.2151239
1.430195 5.2103682 3.3207791
1.412784 5.1704412 3.3899181
1.407234 5.1737719 3.478025
1.380228 5.121398 3.5795889
1.348532 5.0979419 3.68979
1.5773391 5.9629121 4.3158388
1.306622 5.0339599 3.5608709
1.306255 5.0810552 3.4772141
1.305685 5.103394 3.417074
1.301241 5.110724 3.335397
1.306345 5.1558251 3.2689409
1.3007931 5.1590562 3.1655271
1.307318 5.2104359 3.0834899
1.315799 5.270184 2.9972401
1.324692 5.332129 2.9029961
1.34018 5.4213948 2.8151219
1.365526 5.5515752 2.738297
1.400872 5.7239132 2.6711941
2.5772481 10.691715 4.1133428
1.354166 5.6465602 2.016979
1.3694921 5.7398372 1.892503
1.040462 4.3833332 1.325235
1.462707 6.1942282 1.704977
1.110271 4.7262602 1.174643
1.077136 4.6092339 1.024395
0.990964 4.2628479 0.837888
0.97352701 4.2099891 0.72208101
0.99965 4.3459301 0.63923401
0.96701097 4.2265139 0.52169198
0.92509502 4.065011 0.409401
0.983051 4.342968 0.34263399
1.205811 5.3270888 0.42027599
1.190715 5.2889371 0.30699199
1.57534 6.9973712 0.406156
0.91074002 4.067368 0.15592299
0.87148702 3.9133921 0.077271998
1.043983 4.7137618 0.011572
0.89862001 4.0798469 -0.054876
0.92462999 4.2212839 -0.118937
0.922943 4.2371101 -0.17512999
0.92324603 4.2622819 -0.226408
0.93627 4.3468218 -0.27489299
1.12105 5.2640419 -0.41413799
0.88091803 4.2329078 -0.376926
0.86020797 4.2318301 -0.30314901
0.90441799 4.5028849 -0.238436
0.803617 4.025219 -0.165768
0.783144 3.946523 -0.110739
0.810516 4.1094718 -0.055020999
0.88756698 4.5278139 0.011059
0.87602502 4.4966111 0.088293999
0.87434697 4.5159178 0.17207199
0.90850198 4.7216892 0.27227899
0.786448 4.1131091 0.322227
0.83577597 4.398766 0.43969801
0.77656198 4.113143 0.50365299
0.789011 4.2058911 0.61340898
0.73070401 3.920187 0.666372
0.750633 4.0532141 0.789186
0.80206299 4.3592162 0.95924699
2.00071 11.022889 3.001112
1.999066 11.086913 3.3139341
1.031303 5.7579021 1.876012
1.210099 6.7561388 2.2012529
1.737897 9.7681026 3.4462869
0.98939002 5.5986161 2.1263831
0.94409198 5.3786941 2.1881559
0.91727197 5.2616911 2.2816839
1.5775779 9.1117439 4.191752
1.684332 9.7959251 4.7608099
1.800415 10.54419 5.3921251
0.91592401 5.4789038 3.18853
0.88667798 5.419776 3.4733031
0.86235899 5.309783 3.489454
0.86514801 5.4060898 3.6948249
0.83164001 5.3557649 3.7924111
0.74531198 4.9510822 3.428108
0.81705302 5.5144892 3.694885
0.75383198 5.1287761 3.362654
0.76805401 5.2679458 3.3669341
0.75904602 5.2488122 3.259516
1.240258 9.0187464 4.3603678
1.37391 10.254697 4.1457062
0.96323401 7.253304 2.736624
0.972269 7.4537382 2.4107511
0.558842 4.4036031 1.073993
0.59681702 4.7468719 1.035394
0.59323603 4.7630248 0.91893101
0.65312898 5.2939 0.891352
0.64644802 5.2901731 0.76395899
0.61896199 5.1145229 0.61988902
0.59425199 4.9584951 0.490421
0.55140799 4.646565 0.36004999
0.534289 4.5473852 0.25927499
0.57718301 4.96205 0.186876
0.53466398 4.6434522 0.090085998
0.56946701 4.9966388 0.012054
0.51050597 4.5259061 -0.059827998
0.56188297 5.0338202 -0.13940699
0.52926302 4.7919302 -0.194701
0.52223998 4.7790761 -0.24958301
0.53313899 4.9317961 -0.30667099
0.61333901 5.799418 -0.44873899
0.51512301 5.0966048 -0.44657901
0.435482 4.51789 -0.318625
0.42669401 4.5368419 -0.23657
0.474242 5.1058431 -0.20708901
0.486242 5.301733 -0.146533
0.56795198 6.1926551 -0.171157
0.44831201 4.9513168 -0.065305002
0.45213699 5.0588198 0.012174
0.54308403 6.1569471 0.119126
0.43455401 4.992619 0.187474
0.400365 4.6623449 0.264985
0.40208101 4.7469192 0.36657101
0.42277399 5.0609431 0.49872801
0.394236 4.7861519 0.57783902
0.394095 4.8532538 0.69797802
0.474372 5.8418622 0.84015602
0.373777 4.6701031 0.78289998
0.36634901 4.6449528 0.89204198
0.373813 4.810792 1.044278
0.343649 4.4899392 1.089514
0.79766202 10.595372 2.8463731
0.58010399 7.8270078 2.3087189
0.56855702 7.79422 2.5063379
0.818232 11.216953 3.6069641
0.661632 9.3701687 3.513262
0.35052299 5.04776 2.0274761
0.66947299 9.6408405 3.8723259
0.65150899 9.5425634 4.0860519
0.49513301 7.5090222 3.6044099
0.378598 6.0636849 3.352329
0.421538 6.7514091 3.7325399
0.41100299 6.7079811 3.8575981
0.31294101 5.416873 3.4316111
0.224172 4.9869771 3.4179389
0.27494499 7.026649 4.3219352
0.21902999 5.9515901 3.4185219
0.245855 6.68048 3.837188
0.21607099 6.2676759 3.3136389
0.22279701 7.1909208 3.261169
0.27123401 9.4652386 3.7942181
0.27785099 10.106205 3.781249
0.25789201 10.247482 3.2875259
0.21808299 9.0853453 2.6733279
0.205321 8.989603 2.408808
0.141111 6.5096021 1.575363
0.133551 6.509892 1.409152
0.110709 5.7210059 1.095497
0.102315 5.6250591 0.940139
0.097944997 5.7523589 0.82468897
0.087839998 5.5373578 0.66636002
0.083224997 5.6611538 0.55599999
0.070297003 5.192174 0.39956099
0.065306999 5.2771411 0.29885101
0.051022001 5.0768008 0.097851999
0.049059998 5.5197659 0.013231
0.047672998 6.1702838 -0.081053004
0.040148001 6.1175518 -0.168378
0.029546 5.4704609 -0.22093
0.023897 5.6373582 -0.29266599
0.017387999 5.6531801 -0.34949401
0.0041720001 5.5475988 -0.426873
-0.052639 6.158618 -0.432349
-0.075773999 6.969202 -0.361828
