# .PCD v0.7 - Point Cloud Data file format
VERSION 0.7
FIELDS x y z
SIZE 4 4 4
TYPE F F F
COUNT 1 1 1
WIDTH 1554
HEIGHT 1
VIEWPOINT 0 0 0 1 0 0 0
POINTS 1554
DATA ascii
1.883337 3.562639 0.57765102
1.882957 3.5719621 0.48585299
1.854128 3.5271931 0.39131999
1.865026 3.557945 0.30910701
1.841205 3.5224521 0.225071
2.093272 4.0160351 0.16941801
1.925987 3.7055941 0.080490001
1.8792419 3.6259351 0.0097890003
2.0204041 3.9094019 -0.057805002
2.6470461 5.1219301 -0.075733997
1.948872 3.7817619 -0.117094
1.909382 3.7157171 -0.168714
1.95233 3.810168 -0.222261
2.0330889 3.979166 -0.27625099
2.3346801 4.5957422 -0.39664599
2.2626431 4.5056591 -0.43954399
1.8051389 3.6366391 -0.28501201
1.798244 3.6439781 -0.210958
1.858048 3.7762041 -0.169965
1.922276 3.9182119 -0.120121
2.0865591 4.265605 -0.062376
2.5342751 5.180882 -0.075759999
1.87312 3.840553 0.010242
1.86569 3.8366301 0.082223997
1.813195 3.7397101 0.15547401
1.772895 3.667429 0.23066799
1.875767 3.8917699 0.33243001
2.7108369 5.6243401 0.480425
1.7656339 3.6741669 0.40031201
1.817655 3.7936921 0.50616097
2.166255 4.5347872 0.720397
1.76431 3.7044139 0.68565601
1.945115 4.0962801 0.86816102
2.096087 4.4274888 1.060142
2.715775 5.7536931 1.5393831
1.7694761 3.760983 1.113449
2.68156 5.6995978 1.687382
1.805632 3.8494141 1.250733
2.6391881 5.6264672 1.828124
2.568321 5.491962 1.94442
2.5670691 5.5059161 2.1101661
2.5243859 5.4308038 2.2398839
2.4932089 5.3800678 2.375989
2.4695721 5.3453002 2.51543
2.4538791 5.3275518 2.6588089
4.594955 10.006549 5.2739978
3.6173191 7.9016762 4.3806791
2.8314409 6.2040029 3.6032839
3.440697 7.5855098 4.7810521
2.562551 5.666996 3.7003591
2.3859129 5.4265919 4.1478601
3.1905611 7.2567072 5.5467238
2.3546989 5.4237652 4.0484209
2.375222 5.5059829 3.974432
2.3862121 5.5491438 3.9182889
2.4023731 5.6046262 3.8565531
2.4449229 5.7222352 3.8244989
2.6077521 6.122972 3.9595931
2.2181599 5.2250128 3.258225
2.191915 5.1799049 3.1035249
2.1881599 5.1877851 2.9749401
2.1754611 5.1744509 2.8295259
2.18068 5.2037458 2.7024429
2.2182441 5.3106542 2.6088531
2.2133181 5.3162088 2.4600379
2.2638531 5.4554119 2.3666899
2.289001 5.534133 2.2398839
2.3420351 5.6810241 2.1344471
2.4291329 5.9117398 2.0497789
2.584022 6.309495 2.005631
1.746769 4.2935309 1.121496
2.310467 5.6790919 1.4834141
1.704855 4.2044678 0.98188001
1.667819 4.1268868 0.85217798
1.614802 4.0090771 0.72224599
1.77859 4.430531 0.68435597
1.6548229 4.1361098 0.53602701
1.576562 3.9537899 0.418001
1.89413 4.766263 0.394651
1.920558 4.849165 0.29534501
1.55747 3.9457741 0.15868901
1.513059 3.8463309 0.079660997
1.518728 3.873924 0.0099729998
1.664027 4.2590771 -0.060063999
1.599113 4.1069942 -0.121304
2.0851221 5.3552079 -0.158171
1.6370291 4.2188358 -0.18275701
1.7000639 4.3963962 -0.24471
1.570904 4.0764499 -0.27008
1.9577971 5.0804291 -0.33659801
1.7479759 4.567493 -0.376315
1.691901 4.4831972 -0.41774499
1.5675451 4.2127509 -0.31554401
1.899422 5.1046648 -0.38235
1.515543 4.1020999 -0.22702999
1.529883 4.1557312 -0.17884199
1.471336 4.0110369 -0.117589
1.62844 4.4553161 -0.062309999
1.5351191 4.2151499 0.010752
1.464121 4.0347681 0.082725003
1.848084 5.1113558 0.20332401
1.556926 4.3217492 0.26012301
1.453811 4.0502648 0.331126
1.781238 4.9806209 0.51944798
1.600935 4.4928908 0.57389599
1.450215 4.0849028 0.621355
1.537637 4.3471332 0.77053797
2.0820639 5.9080949 1.1992919
1.69662 4.8322458 1.108369
2.215338 6.3331251 1.623336
2.1788099 6.25177 1.773549
1.977067 5.6941581 1.7730941
1.9940979 5.764823 1.9563299
2.2328529 6.4793839 2.3805399
2.166033 6.309248 2.49491
1.74271 5.1148448 2.3083971
1.7034529 5.018702 2.4024241
1.9014291 5.6234441 2.8432679
1.8088011 5.3907089 3.0043719
1.759724 5.2647271 3.0629439
1.74909 5.2531872 3.178076
1.717126 5.1772552 3.2452919
1.6952291 5.1311588 3.3213029
1.675795 5.0921698 3.3904531
1.654478 5.0471449 3.4453731
1.624356 4.9943938 3.544347
1.582424 4.9434371 3.631886
1.56996 4.984107 3.5778191
1.5834579 5.0680161 3.519201
1.592559 5.1180062 3.4769371
1.6046081 5.1779032 3.4284041
1.60642 5.2051411 3.348007
1.643645 5.3477769 3.328635
1.65043 5.3921332 3.2368181
1.665468 5.4639468 3.1518371
2.197222 7.2084908 4.158164
1.700094 5.6008468 3.0926671
1.677357 5.5491419 2.9222529
1.739082 5.7775469 2.8899209
1.535468 5.1443739 2.293469
1.5764149 5.304018 2.2171681
1.833465 6.16889 2.5786991
1.7868789 6.0636921 2.195806
1.666528 5.6795931 1.898306
1.941334 6.6161408 2.2113309
1.304848 4.466156 1.3686939
2.930125 10.029052 3.0734949
1.318024 4.530808 1.264048
1.239275 4.2786131 1.077756
1.227376 4.256012 0.95861202
1.336568 4.6549578 0.92720503
1.2571 4.3974261 0.76427501
1.457304 5.1202359 0.763107
1.261343 4.4513712 0.55669397
1.214054 4.3035221 0.43911201
1.250385 4.4520741 0.35583001
1.325932 4.7422328 0.278837
1.369048 4.9184461 0.190988
1.365366 4.9273791 0.098545
1.207258 4.3765292 0.010882
1.21717 4.4325228 -0.060378999
1.2435549 4.5493131 -0.129805
1.206515 4.4340372 -0.185581
1.1764489 4.3434348 -0.233615
1.510325 5.6018949 -0.358688
1.4213901 5.3211479 -0.423805
1.407362 5.3685451 -0.48383701
1.44761 5.628521 -0.40798
1.180257 4.6336069 -0.248235
1.1828671 4.666492 -0.194418
1.219772 4.8356419 -0.137261
1.20988 4.820044 -0.065279
1.15398 4.620048 0.011414
1.218577 4.9028969 0.097369999
1.197628 4.8426161 0.18661401
1.213357 4.930769 0.287543
1.134148 4.6320782 0.36695501
1.230805 5.0522251 0.51065201
1.189977 4.9094038 0.60782403
1.245489 5.164639 0.76154602
1.585695 6.5753641 0.96956301
1.119979 4.6679592 0.80218399
1.093895 4.5826831 0.902008
1.082357 4.5577979 1.013819
1.96118 8.3013668 2.063798
1.9273961 8.2005177 2.2566559
1.716225 7.3789659 2.4296851
1.664233 7.1932549 2.5646181
2.6520541 11.523769 4.422667
2.162467 9.4466276 3.8831129
2.04193 9.016242 4.1905141
2.360903 10.538265 5.4438901
1.756555 7.8835478 4.2676001
2.1107359 9.5252762 5.3833408
1.6134731 7.3621712 4.4841981
1.160526 5.3249521 3.3495779
1.500651 6.9241991 4.4808712
0.98523998 4.8441529 3.3846071
1.023532 5.1237559 3.3893199
1.267563 6.3839269 4.1163292
1.288586 6.5295281 4.0904961
1.464224 7.4651279 4.5261259
1.339147 6.8696499 4.0173979
1.264765 6.5284748 3.6692519
1.302312 6.7643242 3.6397231
1.218895 6.3709259 3.2697549
1.252241 6.5866332 3.2113111
1.49672 7.9734659 3.465739
0.92773199 4.9741392 2.0274761
1.427783 7.9097672 2.153152
0.870767 4.8561959 1.193692
1.0992661 6.171741 1.356694
1.34966 7.577559 1.6657259
0.95559901 5.4014978 1.05018
0.98732001 5.6188102 0.95332497
0.76582199 4.388144 0.638524
0.933622 5.3496351 0.77843201
0.88439399 5.102571 0.623115
0.93256801 5.417881 0.53987402
0.929335 5.4368401 0.424418
0.863949 5.0899282 0.29234901
0.885221 5.2521982 0.199249
0.86322999 5.158298 0.1008
0.85821903 5.1651721 0.01255
1.005571 6.052011 0.014705
1.0069259 6.103971 -0.081262998
0.86948699 5.309236 -0.148073
1.0622211 6.4861069 -0.180896
0.816769 5.02389 -0.20555601
0.743999 4.6100621 -0.242428
1.019896 6.3196101 -0.33232799
0.99508899 6.211791 -0.38892299
0.73578101 4.6623459 -0.363195
0.71532398 4.6736422 -0.41218701
0.84013999 5.6649461 -0.40202799
0.825014 5.6534252 -0.29660699
0.764781 5.2835851 -0.21560401
0.80102599 5.5796599 -0.15514401
0.89832997 6.257452 -0.17399
0.75700003 5.3169179 -0.070546001
0.724747 5.1330738 0.012425
0.87931901 6.2805662 0.122228
0.73321003 5.28162 0.19947401
0.71158499 5.169898 0.295515
0.861063 6.2559028 0.35759199
0.83066601 6.0874252 0.472752
0.73002601 5.3966508 0.53479201
0.860502 6.3611841 0.63037401
0.77112001 5.750679 0.69813699
0.731902 5.5067911 0.79631102
0.746346 5.665812 0.95497298
0.84942102 6.5066152 1.256267
0.84966499 6.5679522 1.433265
1.228379 9.5828314 2.3375289
1.254488 9.876606 2.6670511
1.3094079 10.405597 3.0850649
1.0854681 9.2312279 4.4519472
0.78776401 6.836236 3.6359861
0.52904898 5.4855652 3.7732911
0.63324201 7.4732099 3.780654
0.70223302 8.4033337 4.0389781
0.44589001 5.4894161 2.3527901
0.63084799 7.8798032 3.1674891
0.747163 9.470849 3.5531969
0.79463297 10.22412 3.562115
0.59251899 7.7399101 2.4895411
0.66427499 8.8116083 2.59939
0.69998902 9.431592 2.533531
0.48731101 6.7791629 1.470916
0.440835 6.2339301 1.196472
0.447891 6.4399309 1.0787539
0.518103 7.44946 1.24786
0.47070599 6.8834009 0.989003
0.404295 6.014945 0.725375
0.38848999 5.8818288 0.57886899
0.367138 5.7620659 0.326949
0.349296 5.5841732 0.209305
0.39492401 6.5581012 0.015747
0.38297701 6.4851408 -0.085335001
0.37452 6.4697151 -0.17836501
0.35796601 6.3107028 -0.25527
0.389456 7.0097351 -0.364472
0.35794601 6.5806899 -0.40743399
0.36818001 7.0714898 -0.54487002
0.32032299 6.7567549 -0.58970702
0.27798799 6.5020442 -0.45685899
0.28495899 7.0487418 -0.36623499
0.29233 7.445189 -0.30090901
0.24286 6.3739591 -0.175559
0.242533 6.5659552 -0.086306997
0.247087 6.9065619 0.016565001
0.187356 5.8026748 0.328758
0.18257 5.8658109 0.45157799
0.17955001 5.9924722 0.58873999
0.18936101 6.5748301 0.79143697
0.20631 7.464818 1.0704499
0.165087 6.2353249 1.042328
0.157407 6.2180409 1.1908309
0.15681 6.492754 1.405556
0.228935 9.9579706 2.4099591
0.16899601 7.7382431 2.0734529
0.196031 9.47927 2.789032
0.149317 7.6496892 2.4538109
0.18181901 9.9028254 3.4403811
0.170885 9.9343414 3.7160909
0.136865 9.9731789 4.5212131
0.086987004 6.9241271 3.3167131
0.089151002 8.701519 4.5978889
0.054584 8.0669632 4.7996769
-0.14786801 8.4128075 4.6427269
-0.163322 8.7172451 4.6067662
-0.139439 7.0083671 3.5335319
-0.221635 9.9771214 4.5236902
-0.228765 9.324295 3.7373099
-0.25284499 9.8407726 3.681761
-0.191229 7.1209221 2.4743841
-0.256603 9.5553131 3.3202879
-0.203536 7.2655001 2.331044
-0.30233499 10.363331 3.0497899
-0.32254201 10.24128 2.4790969
-0.32475799 8.9872112 1.289109
-0.25666299 6.8815451 0.82858998
-0.27058399 7.0359292 0.69145697
-0.27313301 6.894196 0.53090698
-0.28826401 7.0687909 0.40061599
-0.28608501 6.821228 0.25539801
-0.30349201 7.0411539 0.135832
-0.29463801 6.6564631 0.015969999
-0.34521201 7.2298632 -0.29231399
-0.339643 6.9443359 -0.36094701
-0.46481001 7.1300411 -0.28856099
-0.50206703 7.5664902 -0.208711
-0.48890001 7.2408881 -0.09533
-0.50562102 7.3616352 0.017687
-0.50863397 7.2819018 0.140688
-0.51671201 7.1588778 0.40643901
-0.56485897 7.7014861 0.59420103
-0.69531399 9.1882648 1.108729
-0.78464001 10.211215 1.468038
-0.83680099 10.266741 2.4922669
-0.76992798 9.3030519 2.500668
-0.76994503 9.173708 2.708039
-0.62931001 7.3949308 2.3802121
-0.64029402 7.3227611 2.7492349
-0.89756298 10.129339 4.0746651
-1.188301 12.899155 6.2044749
-0.83743298 8.3471212 5.305634
-0.83803397 8.2564831 5.3832932
-0.98546702 8.3547697 5.3206
-1.183177 9.9317093 6.147264
-1.019835 7.932488 3.4166329
-1.324532 10.208776 4.124877
-1.223935 9.3483744 3.5262229
-1.290134 9.7658005 3.4216781
-1.255906 9.339673 2.7721
-1.33233 9.8215675 2.655148
-1.2802 8.9677429 1.089973
-1.40982 9.7944546 0.971753
-1.282766 8.8390007 0.68726301
-1.2051719 8.2369652 0.47139901
-1.376451 9.4076061 0.53839499
-0.977584 6.1796589 -0.48142201
-0.913634 5.6065001 -0.495215
-1.148335 6.8462782 -0.48732099
-1.781863 10.118396 0.198016
-1.939224 8.5459356 5.3859248
-2.495122 10.487082 4.3194051
-3.615557 14.034057 0.27931499
-1.713376 6.4640098 -0.41341999
-1.4838099 5.5459652 -0.44175699
-1.3869981 5.0893798 -0.459867
-1.67416 6.0325961 -0.43949199
-2.3676839 -7.65873 2.3581049
-1.692591 -5.497519 1.540923
-2.349227 -7.661705 1.938926
-2.338299 -7.6575909 1.732778
-1.8508 -6.086277 1.217908
-1.697786 -5.6063399 0.978872
-1.6010979 -5.3091459 0.79489201
-1.5389 -5.12432 0.64378202
-1.6564111 -5.538815 0.56772703
-1.388702 -4.6632318 0.37439701
-1.526538 -5.1478271 0.304052
-1.431972 -4.8494611 0.189156
-1.67247 -5.688118 0.11427
-1.752187 -5.9847569 0.014947
-1.425266 -4.8890481 -0.066894002
-1.471476 -5.0913029 -0.21403
-1.487466 -5.1689911 -0.279239
-1.469644 -5.1744418 -0.413908
-1.441838 -5.1672621 -0.46768299
-1.363512 -5.043685 -0.21100301
-1.588428 -5.9026961 -0.16824
-1.383112 -5.1635051 -0.070216998
-2.034049 -7.593617 -0.103264
-1.329863 -4.987741 0.012373
-1.603461 -6.0138888 0.014918
-1.311545 -4.941977 0.098545
-1.544668 -5.8204002 0.116062
-1.52593 -5.776679 0.223511
-1.273669 -4.844337 0.28364199
-1.36505 -5.2164121 0.41490501
-1.3886271 -5.3316302 0.54104602
-1.255358 -4.842854 0.60197002
-1.62905 -6.2844648 0.78116298
-1.348411 -5.2266922 0.77374899
-1.440327 -5.6097369 0.96782899
-1.59193 -6.2300429 1.23107
-1.957148 -7.659327 1.5135
-1.5745929 -6.1920218 1.3827111
-1.9525239 -7.6782212 1.714588
-1.942901 -7.6774702 1.916115
-1.934365 -7.6808872 2.1218419
-1.924728 -7.6800399 2.3290379
-1.513694 -7.6277819 2.287554
-1.507359 -7.6421108 2.0866499
-1.497209 -7.637073 1.882957
-1.495568 -7.6756191 1.692378
-1.060779 -5.4779 1.068231
-1.1357189 -5.9013782 1.0042551
-0.96841598 -5.06353 0.738985
-1.176677 -6.1524611 0.89790702
-0.99064898 -5.2124262 0.63840598
-1.221912 -6.4699531 0.64659703
-1.0482351 -5.5856929 0.43730801
-1.074482 -5.7622871 0.33192399
-1.447834 -7.764513 0.447258
-1.011085 -5.4572439 0.207623
-1.43944 -7.7692528 0.29558501
-0.90157801 -4.8977861 0.095982999
-1.425583 -7.744421 0.151768
-0.94591999 -5.1721988 0.012603
-0.970438 -5.3410869 -0.071307003
-1.387466 -7.6868272 -0.214984
-1.374817 -7.6673679 -0.31458801
-1.360512 -7.6383328 -0.40278599
-1.34762 -7.6169372 -0.47820899
-1.366532 -7.8291411 -0.61154002
-1.231432 -7.4614549 -0.53087801
-1.2129771 -7.4568148 -0.39220899
-1.2093101 -7.4888039 -0.30635601
-1.198024 -7.473722 -0.208326
-1.191933 -7.4911122 -0.099638999
-1.184476 -7.5000219 0.018200001
-0.85525697 -5.4563522 0.106446
-1.1712559 -7.4723582 0.145776
-1.167256 -7.5034399 0.284071
-1.1590739 -7.5078869 0.43018401
-1.1491441 -7.5010548 0.58392102
-1.143615 -7.5229688 0.747262
-1.129262 -7.486701 0.91101903
-1.121959 -7.4970269 1.0866261
-3.3825951 -23.338709 5.705781
-3.3380439 -23.411303 6.9563541
-3.244822 -23.535114 9.519577
-2.321559 -23.397284 10.657942
-2.294893 -23.403811 10.046008
-2.1528411 -23.341789 6.8953981
-2.126354 -23.349674 6.28091
-1.628111 -18.841555 3.160279
-0.66061997 -7.7493939 1.114863
-0.64845097 -7.7119641 0.93120801
-0.63869298 -7.7023869 0.75898999
-0.62690401 -7.6676731 0.59197599
-0.61550802 -7.6369619 0.43385899
-0.60502398 -7.6166639 0.28582799
-0.59535599 -7.606319 0.147047
-0.58422297 -7.5764871 0.018214
-0.57573199 -7.580512 -0.099862002
-0.56464201 -7.5500479 -0.208381
-0.55583102 -7.5493951 -0.305711
-0.54451698 -7.5141511 -0.391121
-0.53602803 -7.5175252 -0.46593001
-0.51504201 -7.4661331 -0.57586497
-0.44204199 -7.403563 -0.52065402
-0.41606599 -7.3992701 -0.29929501
-0.39020401 -7.5625339 0.14594901
-0.33510301 -7.504735 1.076835
-1.1156991 -26.351376 5.0495129
-0.15115701 -6.0491309 3.4732821
-0.17002501 -9.4197321 6.35812
0.079954997 -8.2472172 2.864852
0.33515301 -18.842703 3.149236
0.146681 -7.7434459 1.110181
0.15568601 -7.7455559 0.93216401
0.16396999 -7.7141418 0.75771898
0.1728 -7.7102661 0.59343398
0.18086 -7.6735721 0.43465099
0.188934 -7.6413178 0.28593999
0.19715101 -7.617034 0.146855
0.20607001 -7.6211929 0.018274
0.214434 -7.6053209 -0.099941
0.22205301 -7.5648761 -0.208299
0.230845 -7.566309 -0.305711
0.23889001 -7.544054 -0.391846
0.24833 -7.565474 -0.46796599
0.26339701 -7.496201 -0.577169
0.65716302 -6.7162352 4.4727559
0.80968702 -8.1775389 5.3305049
0.930879 -8.7800875 4.6651621
3.268702 -28.619631 10.005816
3.3007989 -28.60746 9.2356119
0.971412 -7.7860398 0.94410998
0.979891 -7.780817 0.77013099
0.98706198 -7.765379 0.60233402
0.993581 -7.745019 0.44216999
1.002149 -7.7409401 0.291996
1.006184 -7.7021132 0.149707
1.014614 -7.6973958 0.018609
1.025794 -7.713418 -0.102213
1.032022 -7.6921391 -0.213609
1.039114 -7.6776862 -0.312893
1.048508 -7.6803212 -0.40242299
1.057616 -7.6807241 -0.47931999
1.066633 -7.6159372 -0.59174597
1.117052 -7.7159901 -0.67968303
1.158962 -7.7525592 -0.55027598
1.179394 -7.7663808 -0.40781501
1.190811 -7.7809892 -0.31789699
1.201542 -7.790906 -0.216965
1.2115231 -7.7957411 -0.103631
1.229139 -7.8493228 0.019043
1.233318 -7.816834 0.15252
1.246417 -7.8409982 0.297005
1.258449 -7.8581209 0.45065001
1.2704329 -7.874598 0.613765
1.275892 -7.850738 0.78107703
1.287189 -7.8628678 0.95868403
4.121511 -23.471661 8.9129438
1.2292171 -6.725863 3.612627
1.548425 -8.4173374 4.7224412
1.731508 -9.2916775 5.6234002
1.847587 -9.6057673 6.6014581
1.017121 -5.1592331 3.6794701
1.929401 -9.5535088 6.673172
1.122388 -5.4598188 3.61571
1.767015 -8.302947 4.485301
1.680486 -7.8516951 4.0475821
5.1219702 -23.663692 10.975017
5.182478 -23.678064 9.712245
5.2142048 -23.691814 9.0730362
5.2636738 -23.655643 7.772182
5.2206631 -23.335032 7.0339599
1.855854 -8.206008 2.035578
1.864688 -8.2009802 1.820137
1.873736 -8.1968575 1.6097749
1.88081 -8.1842251 1.403286
1.884837 -8.1585159 1.2002831
1.897022 -8.1681204 1.008978
1.903559 -8.1534653 0.82222301
1.912194 -8.1478844 0.64399302
1.919871 -8.1382141 0.47349101
1.92687 -8.125824 0.31240699
1.93681 -8.1258154 0.160999
1.943066 -8.1104679 0.019990001
1.9506429 -8.1007347 -0.10945
1.956157 -8.0825014 -0.22887801
1.971022 -8.1029234 -0.33678201
1.9798141 -8.098279 -0.43280399
1.987597 -8.0894966 -0.51498502
2.002286 -8.0686979 -0.639696
2.043534 -8.0748367 -0.726147
2.083143 -8.0740786 -0.58535898
2.0976181 -8.0530891 -0.43202701
2.1113369 -8.0675001 -0.33678201
2.123116 -8.0743723 -0.22978599
2.135386 -8.0829687 -0.109818
2.152607 -8.1101637 0.020112
2.1641779 -8.1158438 0.16188499
2.172446 -8.1091709 0.31405199
2.1845269 -8.1167021 0.475979
2.1922641 -8.1080236 0.64629501
2.206706 -8.1241407 0.82671797
2.215518 -8.1194506 1.012681
2.2345159 -8.1518946 1.211635
2.25211 -8.1789694 1.417626
2.261713 -8.1768885 1.624253
2.2797301 -8.2050362 1.842981
6.5587358 -23.396328 6.5091372
2.6387019 -9.37111 2.863817
6.7088881 -23.720781 7.9059429
2.4765389 -8.717886 3.1480229
2.4663191 -8.6439066 3.361928
6.7474818 -23.545164 9.8141584
2.650666 -9.1297674 4.5534611
6.9706588 -23.601221 14.12561
1.655767 -5.558742 3.564785
2.3946371 -8.0392733 5.1555328
2.3937049 -8.0023422 5.282649
2.373975 -7.9030681 5.352818
2.3469861 -7.7481971 5.4636421
2.3526671 -7.6394391 5.5931621
2.6769481 -8.5516748 6.1353412
2.7161729 -8.6071243 5.98209
2.7443321 -8.6614752 5.8937588
2.7578011 -8.6691847 5.7535601
2.7654641 -8.6585875 5.5864701
2.746439 -8.5648661 5.3513818
2.7845471 -8.6493263 5.2156482
2.7552471 -8.5244932 4.943224
2.804292 -8.6421041 4.8006411
2.8597081 -8.7782764 4.6539092
2.8693681 -8.7734976 4.421277
2.8965859 -8.8222084 4.2090921
2.9291389 -8.8866539 3.997268
2.9647291 -8.9597979 3.7815709
2.9986861 -9.0274372 3.5577509
3.0139151 -9.0383177 3.3094599
2.967355 -8.8645468 2.9980161
2.98949 -8.8965139 2.760812
3.0132771 -8.9330597 2.5255091
3.026212 -8.9373007 2.2829709
3.039937 -8.9438047 2.044349
3.0430269 -8.9190168 1.804204
3.049968 -8.9056797 1.573052
3.0619631 -8.9071188 1.350124
3.0649271 -8.8823023 1.13059
3.0594139 -8.8332157 0.91799998
3.054666 -8.7866678 0.71580303
3.0594339 -8.7676649 0.52584398
3.07233 -8.7720289 0.34769601
2.848304 -8.1023369 0.165527
3.0721331 -8.7068825 0.022129999
3.0922811 -8.7318201 -0.121678
3.0589559 -8.6060648 -0.25138399
3.0839369 -8.6132269 -0.47495401
3.067523 -8.5362511 -0.56076998
2.9815331 -8.2371054 -0.67406702
3.141042 -8.5539684 -0.794411
2.9894509 -8.0262737 -0.60125601
3.048877 -8.1283131 -0.45069101
3.1303151 -8.2871418 -0.243818
3.361973 -8.8693752 -0.124594
3.3888531 -8.9092188 0.022847001
3.3889101 -8.8784437 0.18315899
3.396348 -8.8671675 0.35521001
3.3874021 -8.8133125 0.53466302
3.3861921 -8.7798204 0.72408903
3.387552 -8.753211 0.92171401
3.385963 -8.7191648 1.1254539
3.417562 -8.7704506 1.349272
3.443027 -8.8057156 1.579975
3.4662499 -8.835 1.81699
3.480284 -8.8406754 2.0561941
9.4460077 -23.515265 9.4779949
9.7465792 -23.706553 14.143167
10.430588 -23.566935 14.220465
10.437253 -23.508503 13.590449
3.644634 -8.1328173 4.0398202
3.756495 -8.3564863 3.9139831
3.7985401 -8.4239531 3.702719
3.9194701 -8.6653833 3.5570509
3.9911699 -8.7967577 3.355397
4.0102301 -8.8116703 3.104903
4.5850568 -9.7438803 0.60979998
4.0365281 -8.4509258 -0.25776699
4.0328779 -8.4182386 -0.376973
4.014082 -8.3541946 -0.48117599
4.0089278 -8.318779 -0.570889
4.1879201 -8.6390524 -0.73874301
4.2572432 -8.679471 -0.84278601
4.0942121 -8.2503128 -0.64656299
4.1678238 -8.3500624 -0.484494
7.1531181 -13.965151 1.540849
12.404092 -23.541439 9.2429276
12.425834 -23.516598 9.9477606
4.5951619 -8.6722326 3.9325809
5.1067739 -9.4516201 6.166482
4.2899938 -7.8743281 5.6712451
4.2269368 -7.737205 5.719069
4.2942848 -7.60706 5.7898321
4.4922242 -7.9362049 5.9155278
4.952723 -8.7261477 6.3458071
4.3019662 -7.5388122 5.1642418
5.0359521 -8.8013554 5.820498
4.8705812 -8.399024 4.4010711
8.404974 -13.966589 1.600759
5.1591868 -8.3740578 -0.51062399
5.100956 -8.2580738 -0.60007602
5.061614 -8.152072 -0.73835897
5.1094069 -8.1445198 -0.83818299
5.263958 -8.3051033 -0.69026101
5.3041048 -8.3256865 -0.51248997
5.7231779 -8.9605656 -0.429391
5.6147699 -8.7684259 -0.28657201
5.9072661 -9.1782761 0.026162
7.606267 -11.493363 3.3346231
5.8070059 -8.6436434 4.1724858
5.4105792 -7.973537 4.857368
4.7254672 -6.8608069 5.2687521
5.138504 -7.3325162 6.2650752
4.7864418 -6.7136788 5.348464
4.6692691 -6.5014248 4.762352
5.5795798 -7.7122388 5.0295548
6.8156509 -8.8683987 -0.45170599
6.4877038 -8.4013271 -0.65622699
6.2888598 -8.1049757 -0.78937799
6.5969148 -8.4211426 -0.93258798
6.5914459 -8.3343582 -0.74593198
7.6154761 -9.560708 -0.49363199
7.2094831 -9.0295458 -0.31801999
11.124668 -13.867128 0.042612001
11.161252 -13.879741 0.34327099
11.222369 -13.922713 0.668962
11.254703 -13.929797 1.014091
10.589168 -12.383722 10.304988
10.007132 -11.19517 8.285408
6.608438 -7.3586378 4.9856558
9.1799831 -10.103941 5.105772
12.72027 -13.710962 2.6809499
13.000752 -13.883838 1.077072
12.986822 -13.836856 0.70989603
8.728672 -9.192832 -0.51195198
8.1306734 -8.5234404 -0.72823602
7.8990221 -8.2423458 -0.87845099
8.183279 -8.4602146 -1.026124
8.1182833 -8.3156729 -0.81581998
8.6584587 -8.7872677 -0.33953401
13.002299 -13.134785 0.044298999
12.88637 -12.897716 1.402913
10.298007 -9.9551048 6.4926128
9.7782326 -9.3652258 7.4708772
7.085526 -6.7547922 5.8243451
7.2429509 -6.6217442 6.0315452
9.9345207 -9.0191889 7.4037242
10.149587 -9.1929913 7.2355332
12.3768 -10.87501 3.1543009
10.401939 -8.88624 -0.55250698
9.7228537 -8.2283726 -0.980106
9.7909784 -8.208333 -1.113842
10.334846 -7.4692688 5.109417
16.406481 -9.3497829 6.0561938
11.802542 -6.6898341 3.6343009
11.921904 -6.7392349 3.3134589
15.833118 -8.6615582 -0.237065
15.891186 -8.669364 -0.49822801
15.918869 -8.6605272 -0.73187399
15.918691 -8.6365213 -0.94021398
15.924156 -8.6155672 -1.119318
16.290947 -8.2599154 2.618233
16.300894 -8.24121 3.052321
16.358271 -8.2464132 3.5072441
16.36488 -8.2259254 3.9639001
16.400946 -8.2202444 4.4387178
9.588418 -3.4849639 5.1427522
9.3317089 -3.379415 5.2439861
10.471466 -3.792171 5.8844762
10.170424 -3.6697969 5.9659772
10.019733 -3.6022961 6.111722
6.9764829 -2.499042 4.4090362
6.9293699 -2.473103 4.5219569
6.8028688 -2.419064 4.5663939
6.824502 -2.417834 4.6965041
6.609849 -2.3245449 4.7285929
6.9057832 -2.392657 5.1138792
6.520525 -2.225342 4.71732
6.7042909 -2.2707 4.6915321
6.8164692 -2.299886 4.666573
6.8078842 -2.2881989 4.5423412
6.904089 -2.311615 4.4748311
6.993999 -2.3327019 4.386538
9.5489817 -3.1848631 5.988987
9.6732397 -3.2138469 5.8508649
9.3046608 -3.079396 5.40798
9.3972406 -3.09795 5.2281022
9.5316715 -3.1300001 5.0572271
10.80493 -3.534236 5.4450598
11.058698 -3.6030509 5.272203
10.735995 -3.4841249 4.8218641
13.1544 -3.4240291 3.6412871
13.108226 -3.3633399 4.700706
13.036453 -3.3288159 5.032207
7.3787432 -1.856806 3.4490199
7.3987999 -1.85272 3.653223
10.979887 -2.7359259 5.7040658
9.4700346 -2.348047 5.1552238
9.4153633 -2.3228891 5.3509722
8.6560478 -2.1249101 5.1160851
9.7485809 -2.381109 5.9705801
9.5940418 -2.3315771 6.0681982
7.9018512 -1.910633 5.1415362
7.890892 -1.8982871 5.2646561
7.8284922 -1.825722 5.6246929
7.859766 -1.775421 5.3406782
8.0213327 -1.792374 5.198195
8.4588604 -1.879829 5.3257089
9.6664371 -2.148191 6.0860009
8.6163387 -1.904343 5.2501421
9.7525415 -2.1554611 5.9424582
7.5464649 -1.658708 4.4350681
8.7018557 -1.912663 5.1140928
9.5826197 -2.0945921 5.4123278
10.739417 -2.3344009 5.8069258
7.1561332 -1.546811 3.6906281
7.3590631 -1.581744 3.605274
7.447865 -1.5917979 3.452323
7.3634262 -1.5648119 3.2158849
11.986931 -2.547359 5.2351441
12.408333 -2.606849 4.7421498
11.091999 -2.303436 3.6332281
14.761103 -3.047534 4.433723
13.113617 -2.6915259 3.5861709
12.832704 -2.6183641 3.168833
12.023943 -1.834304 2.9428411
12.129271 -1.836095 3.286267
11.463277 -1.6944489 4.0250978
7.9585471 -1.138651 3.6443019
7.8927102 -1.119871 3.818238
7.5753889 -1.065879 3.856276
7.4328189 -1.037022 3.9653411
5.5836658 -0.77241403 3.1102891
5.56528 -0.76328897 3.2243731
6.9520888 -0.95349199 4.0278521
5.5053372 -0.74854898 3.3056259
5.4686532 -0.73709702 3.3914671
5.4015741 -0.72167301 3.4465771
6.6824369 -0.892802 4.2638569
5.292048 -0.70078099 3.4627881
4.9861069 -0.64849299 3.3933101
4.9583731 -0.62147301 3.4965861
4.920043 -0.59347302 3.3930809
5.232317 -0.61881202 3.49213
5.0453801 -0.59076601 3.295172
6.256938 -0.73262799 4.0864491
5.0498052 -0.585343 3.215131
5.2866192 -0.60656703 3.2705121
5.4146271 -0.614887 3.242224
8.8669739 -1.006937 5.3094549
7.6058731 -0.85478503 4.3932519
7.972167 -0.87720197 4.2377009
7.9583931 -0.86632502 4.035428
7.9080071 -0.85155398 3.809598
10.322857 -1.099472 4.705761
7.8911009 -0.82193398 3.179019
7.9185681 -0.81550503 2.9772871
7.9702439 -0.81146598 2.78282
8.0930443 -0.81447899 2.6086431
15.676197 -1.559265 4.634089
15.899083 -1.5627739 4.2796512
10.561668 -0.458765 3.3904419
10.453437 -0.441908 3.6343031
11.279507 -0.450582 4.523231
10.616178 -0.411742 4.5386171
9.4461241 -0.33340901 4.7646408
9.6114912 -0.328076 5.0814109
9.9435549 -0.32784 5.4896259
5.582592 -0.171077 3.3230109
5.2329822 -0.154284 3.217627
5.3409381 -0.151262 3.3792281
5.288476 -0.14362501 3.4317679
5.3621521 -0.133169 3.6198659
5.359045 -0.108181 3.75056
5.3131709 -0.082570001 3.6382689
5.3066611 -0.070138998 3.517544
5.1734362 -0.062371999 3.356123
5.35882 -0.058386002 3.389384
5.5723662 -0.054235999 3.424979
9.6592531 -0.082800001 5.7471371
9.4330597 -0.047997002 4.9842391
9.2920942 -0.036479998 4.6840682
9.5743742 -0.026474001 4.5858598
9.673543 -0.01552 4.3849702
10.618641 -0.0046939999 4.5362601
11.020235 0.0079190005 4.4157391
11.083167 0.020829 4.1452222
10.505233 0.031953 3.6490681
5.3581362 0.022516999 1.718431
5.328176 0.028576 1.567367
17.087641 0.92598301 2.8596449
5.0896301 0.28173399 0.97590601
5.222568 0.29518101 1.132059
5.2932191 0.30533901 1.282819
4.986259 0.29338801 1.3380539
4.9634051 0.29782999 1.462669
5.2664471 0.322164 1.692167
5.1939101 0.32378399 1.807636
10.205858 0.63622397 3.5519431
9.3961143 0.59670502 3.5213189
4.610291 0.29816401 1.851173
4.7339759 0.31168699 2.0267229
4.9572711 0.332174 2.2521429
5.107244 0.34819201 2.4518969
5.0999622 0.35364801 2.577002
7.9755392 0.55304998 4.0300269
9.6939373 0.67220998 4.8983302
5.1657429 0.364241 2.7362161
9.5070934 0.692572 5.4715271
5.9985008 0.443995 3.578666
5.89252 0.44303399 3.631808
5.888813 0.44963601 3.7352171
5.9119682 0.458323 3.846453
5.6285391 0.44951001 3.810621
4.9785872 0.420912 3.4960129
5.4530468 0.48656601 3.7484341
5.634469 0.515962 3.7501321
6.504375 0.595622 4.3291149
5.7999468 0.537911 3.7784281
6.6587029 0.61755598 4.337872
5.8329582 0.547809 3.7052841
7.0572729 0.66279101 4.4830089
6.0140748 0.57187802 3.7129681
5.0479598 0.485928 3.017247
5.0117002 0.48831499 2.890336
7.8999448 0.76973099 4.5560379
5.1208138 0.50496101 2.839262
4.9303899 0.49196801 2.618022
4.7638478 0.480948 2.413605
4.682579 0.47824001 2.2544839
4.7663279 0.49238899 2.1720481
4.594152 0.480005 1.973295
4.8722081 0.51477897 1.963129
5.1418958 0.54931498 1.934063
4.504271 0.48649701 1.573683
4.6004848 0.50229698 1.484197
4.969027 0.54837799 1.47057
5.4940138 0.612786 1.48089
5.1479268 0.58024102 1.253423
5.0069699 0.57024503 1.090601
10.142125 1.178983 1.706228
10.153737 1.1922899 1.465484
10.313799 1.223251 1.249694
10.241849 1.238857 0.79382801
10.321691 1.3338211 -0.42031199
10.37143 1.389298 -0.80518299
10.612778 1.471899 -0.93406397
9.5376787 1.368013 -0.676395
9.2124157 1.35416 -0.37604499
9.3443909 1.384653 -0.25999501
10.855623 1.634392 0.026312999
9.8840828 1.511631 0.374051
10.006626 1.542272 0.57333398
9.2799749 1.441331 0.72263199
9.4765034 1.483133 0.94194502
9.8885918 1.5594 1.204538
7.6488862 1.215327 1.110181
7.8790421 1.261283 1.333402
5.620966 0.90650702 1.090044
7.3081279 1.1786 1.417226
4.7705622 0.775056 1.04597
5.4223289 0.88741302 1.329381
4.7186961 0.77783298 1.281127
4.6326189 0.76916802 1.381394
4.5484762 0.76063102 1.479005
4.5048089 0.75870502 1.586808
4.557199 0.77296901 1.728781
4.6957922 0.80209303 1.908825
4.6737518 0.80391198 2.0259371
4.6585789 0.806871 2.1431479
4.6467228 0.81038201 2.2592361
4.5787091 0.80399698 2.343384
4.8060741 0.84967297 2.5787799
4.7488098 0.84524298 2.6614759
5.5472388 0.99400002 3.234827
5.2732239 0.95122701 3.188025
5.0311508 0.91359103 3.1427491
5.3025551 0.96923298 3.4091611
5.6585488 1.0411021 3.7321701
4.8614869 0.90612501 3.3373699
5.8996258 1.099622 4.0500431
4.9847088 0.95307702 3.5510499
4.874495 0.95549202 3.40099
5.2170739 1.035235 3.5252781
4.9716749 0.99253899 3.2886419
5.2351518 1.05146 3.37709
5.3904262 1.089166 3.3799479
4.9317708 1.002452 2.9942379
5.8042631 1.179798 3.5239561
4.842442 0.99014801 2.83707
4.5032811 0.92625302 2.5368321
4.4728799 0.92541301 2.4134009
4.8904548 1.017736 2.5180349
4.79247 1.00315 2.3451991
4.8796368 1.0273089 2.2604001
4.7996578 1.0162981 2.095865
4.6783881 0.99629498 1.916636
4.6644969 0.99899799 1.78413
4.4676862 0.96227998 1.587464
4.6969719 1.0173711 1.5413049
4.405664 0.95962799 1.326364
4.5489612 0.99637997 1.247488
5.0431271 1.110756 1.249426
4.7054138 1.042102 1.043009
5.4174972 1.206414 1.06259
6.3591819 1.423865 1.088973
6.917397 1.557287 1.016389
7.093112 1.60551 0.87506098
5.5303249 1.258526 0.55697697
6.9464488 1.589274 0.54832202
8.2342691 1.883914 0.64997703
5.2940588 1.217702 0.307614
6.0383329 1.396276 0.231847
5.8762002 1.3659821 0.116274
5.396594 1.261097 0.013284
5.4482141 1.2798311 -0.073514
5.9130788 1.396286 -0.16722199
6.0547032 1.43715 -0.251315
5.8322258 1.3914959 -0.311279
5.721539 1.372118 -0.36374801
6.8726411 1.64817 -0.43692899
5.521472 1.337701 -0.437154
6.021235 1.48843 -0.54072398
5.4679999 1.378651 -0.39586499
5.5705452 1.418278 -0.298421
6.4860649 1.651372 -0.34746701
5.249506 1.34303 -0.218832
5.4545112 1.402226 -0.155007
5.1756492 1.336952 -0.070216998
5.0709572 1.31619 0.012557
4.7956748 1.25069 0.095519997
5.260591 1.378462 0.203436
4.5581241 1.2000459 0.26690799
4.6614218 1.233037 0.371021
6.5817728 1.749184 0.66878301
5.442697 1.453227 0.67782903
6.439342 1.719336 0.80194998
7.2124848 1.925769 0.89823598
5.3636112 1.438791 0.796027
5.0760059 1.367959 0.87849599
5.461607 1.478678 1.083274
7.4249792 2.0102429 1.4726959
4.6985798 1.2779599 1.053797
4.7526269 1.298586 1.192046
4.7710991 1.309534 1.325375
4.7888408 1.320383 1.4612581
4.6039929 1.275177 1.532143
4.54215 1.263726 1.6376669
4.7971969 1.340687 1.86295
4.4908772 1.260708 1.869027
4.6095338 1.2997921 2.0459721
4.6015749 1.303316 2.1679201
5.5471282 1.5711271 2.613394
5.2863278 1.503899 2.632463
5.1421428 1.469335 2.695837
4.5501451 1.305889 2.501229
4.8719792 1.404387 2.797714
4.7851529 1.385376 2.859472
4.821744 1.402046 2.987591
5.7707438 1.677992 3.575599
4.8560638 1.418141 3.1092379
5.7392821 1.676071 3.6747439
4.6291561 1.3577091 3.051033
4.7086792 1.386978 3.184154
5.836164 1.733822 4.1087799
4.7192702 1.425907 3.4495749
4.7403431 1.456334 3.3953409
5.67658 1.743966 4.0659351
4.7923942 1.4845181 3.3252859
6.4389582 1.994566 4.467783
4.7392769 1.474095 3.219527
4.8363361 1.510443 3.2044401
4.7303858 1.48339 3.046927
4.8380032 1.523308 3.0177579
4.6945438 1.484129 2.826118
5.0171652 1.592539 2.9044819
4.5920348 1.463464 2.546545
4.6564031 1.489942 2.4644699
4.5629358 1.465876 2.295522
4.6704388 1.506395 2.2244821
4.5406022 1.470346 2.0389011
4.4730182 1.454199 1.884649
4.2418962 1.3845069 1.668878
4.3994861 1.4416029 1.6081361
4.487431 1.47619 1.515041
4.4965129 1.484964 1.392964
4.7035179 1.559393 1.327445
4.4801369 1.491107 1.142426
4.9168081 1.642785 1.121906
4.9631872 1.664696 1.002231
4.0886412 1.376647 0.720927
4.938271 1.669102 0.74721497
4.4828558 1.520983 0.56959599
4.5775309 1.559032 0.47488201
4.6492748 1.589492 0.378079
4.30619 1.477791 0.25780499
4.4415731 1.5300159 0.175736
5.5375581 1.907557 0.2191
4.3371859 1.499699 0.088448003
4.0887198 1.419101 0.010374
3.9838049 1.38787 -0.055415001
3.931015 1.3746049 -0.114618
4.1530318 1.457653 -0.177753
4.0389299 1.4228719 -0.222312
4.928957 1.742862 -0.323208
4.53091 1.613957 -0.37009999
4.4024801 1.591297 -0.40810499
4.4814248 1.643405 -0.33508101
3.9626551 1.463616 -0.21930499
4.1719842 1.546438 -0.17969
3.814111 1.4188221 -0.112004
3.8519809 1.438008 -0.054009002
4.5847969 1.717647 0.011735
4.1804771 1.571716 0.086078003
4.3176851 1.629024 0.17263301
4.253078 1.6102901 0.257523
4.014317 1.525228 0.33043599
4.164155 1.587692 0.437646
4.5130939 1.726737 0.58142298
4.5475512 1.7459821 0.69826198
4.0266552 1.551355 0.72109199
4.4109478 1.705295 0.90539199
4.6380482 1.799292 1.076641
4.2986808 1.673381 1.116088
4.3385448 1.6946501 1.247746
4.130147 1.618782 1.304916
4.4538288 1.751626 1.534891
4.1298409 1.62975 1.542183
4.1208491 1.631737 1.657668
4.236515 1.683241 1.826625
4.1600609 1.658464 1.9131891
4.415134 1.766099 2.155534
4.2945752 1.723673 2.21647
4.2095141 1.695214 2.2875681
4.6243558 1.868521 2.6353071
4.328876 1.7549911 2.577414
4.551044 1.85122 2.8201439
4.3682842 1.782805 2.8070979
4.5215631 1.851493 3.002944
4.3934498 1.804996 3.0039959
4.3102379 1.776674 3.024157
4.5431399 1.8850369 3.319469
4.7146831 1.981963 3.5785689
4.2315211 1.802044 3.1490231
4.0765748 1.747268 2.939666
4.7990351 2.056922 3.46064
4.3507261 1.8707581 3.072047
4.1874819 1.8063329 2.884263
4.2839351 1.853853 2.8688979
4.182013 1.815519 2.7125051
4.378078 1.906683 2.7409911
4.3951502 1.920204 2.6464989
4.1664491 1.826055 2.4035909
4.124001 1.8131731 2.2709129
4.063231 1.7920901 2.1270511
4.147078 1.83483 2.0556221
4.0900378 1.815286 1.911617
4.0398941 1.798651 1.7719491
4.0400419 1.8043441 1.654866
4.1112261 1.841876 1.564824
4.104763 1.84471 1.443274
3.9321671 1.772637 1.2687939
4.1683192 1.8849339 1.225493
4.2487168 1.9272389 1.128787
4.1082349 1.869274 0.976803
4.3218522 1.972543 0.90952897
3.5486679 1.624637 0.652197
3.6225431 1.663552 0.57140797
3.940727 1.815223 0.52205002
3.7881241 1.750267 0.40979201
3.59588 1.666515 0.30496401
4.13658 1.9229521 0.25831401
3.3999391 1.58532 0.140334
3.702327 1.731564 0.078775004
3.6901259 1.7310849 0.0097700004
4.68961 2.1999559 0.012416
3.5593281 1.6747741 -0.051670998
3.8754499 1.829029 -0.117947
3.6386311 1.722433 -0.16258
3.3297751 1.5809669 -0.191361
3.3999579 1.61914 -0.232811
4.0814209 1.955315 -0.34823501
3.7658961 1.825735 -0.36485401
4.9115319 2.3811481 -0.47584701
3.552793 1.742865 -0.27779901
3.3261039 1.641266 -0.192553
3.6438689 1.803335 -0.164194
3.2270019 1.601699 -0.099156
3.2690461 1.627311 -0.047967002
3.3962619 1.695564 0.0090990001
3.377574 1.691146 0.072801001
3.3881631 1.7013741 0.14183
3.5061879 1.765744 0.22230101
3.6934161 1.865423 0.318391
3.6720049 1.859967 0.404221
3.8239601 1.942522 0.51607698
4.00877 2.042274 0.64490902
4.0086808 2.0480981 0.75224298
4.09691 2.0991809 0.88132399
4.2683611 2.1933031 1.0385669
4.2292042 2.1793959 1.151127
3.9431 2.0377059 1.189008
3.9411149 2.04248 1.305763
4.0024209 2.0801561 1.4466341
4.200985 2.1895521 1.645542
3.984412 2.0825591 1.681489
4.0474911 2.1215219 1.8310879
4.2466359 2.232193 2.0495081
6.586071 3.461889 3.1785641
3.980217 2.098053 2.039521
4.3040438 2.2751451 2.3318081
4.1207752 2.184392 2.351037
4.2010288 2.2331841 2.5138431
4.060194 2.1643751 2.538765
4.2342482 2.263474 2.7559249
4.2363138 2.2709129 2.8597629
4.3298359 2.3275199 3.02127
4.210773 2.2698209 3.0253761
4.6281691 2.501766 3.4127209
4.7424769 2.5778 3.642801
4.413105 2.425396 3.523531
4.3693948 2.427865 3.4224579
3.9767129 2.221776 3.0192211
5.0391102 2.8153341 3.825819
4.0197101 2.251925 2.9887841
3.9944899 2.243892 2.8976259
3.8287611 2.156652 2.7008171
3.9539621 2.2332239 2.7017679
3.854048 2.1826971 2.542361
4.2011819 2.385745 2.6658239
4.719667 2.6801801 2.9948249
4.0015101 2.2785039 2.433023
3.7385311 2.1345179 2.170084
3.7866881 2.167845 2.089901
3.9890139 2.2898271 2.0849349
4.1045961 2.3625219 2.0231869
3.85584 2.225306 1.783851
3.9618101 2.292598 1.711966
3.9627309 2.299283 1.5914021
5.5721831 3.2417819 2.067492
3.9834149 2.323662 1.35656
3.6395071 2.128722 1.129492
3.8843751 2.2779989 1.089514
3.9454911 2.319999 0.99055201
3.9206531 2.3115311 0.87135798
3.826736 2.2621491 0.74284798
3.407023 2.0193789 0.56771898
3.5215311 2.0927839 0.492901
4.3251801 2.577177 0.49442801
3.5418601 2.1160071 0.31747001
3.3095031 1.982414 0.218456
3.4087 2.0472131 0.148746
3.4029291 2.0491331 0.076559
3.345525 2.019861 0.0093670003
3.7740209 2.2845471 -0.057950001
3.3840051 2.0538349 -0.10895
3.3221011 2.021544 -0.157052
3.576303 2.181922 -0.217491
3.375077 2.0645399 -0.244596
3.410073 2.0968411 -0.30803299
3.4490769 2.142971 -0.35399801
4.1229248 2.588263 -0.34173399
5.0353761 3.1610751 -0.417364
3.3655961 2.1237471 -0.20660301
3.407135 2.1554921 -0.16282199
3.7150719 2.356348 -0.121083
3.6653221 2.3307719 -0.057055999
3.509454 2.237381 0.0099759996
3.1068971 1.985821 0.071066998
3.2266779 2.067661 0.143362
3.460768 2.2233369 0.23292901
3.9623189 2.5520639 0.36265799
3.764771 2.4310141 0.44008899
3.692965 2.3907261 0.52933699
3.3894091 2.199806 0.57921201
3.4127071 2.220562 0.680381
3.1917329 2.082056 0.72957897
4.201077 2.740479 0.96029902
6.65904 4.3438768 1.52215
4.210959 2.7539079 1.088909
3.6942999 2.422147 1.06882
3.74858 2.463907 1.201687
3.753015 2.4730711 1.322131
3.738961 2.470053 1.437166
4.4349508 2.929842 1.704688
3.781117 2.5042181 1.5753241
3.672857 2.4386611 1.64891
4.1216788 2.7435789 1.983958
3.855211 2.572674 1.979973
3.7456839 2.5058789 2.042824
3.8671899 2.5936849 2.230293
4.0119429 2.6975319 2.437012
3.637202 2.4517059 2.317632
3.7861221 2.5584991 2.521373
3.890274 2.635469 2.6971829
3.7238939 2.5290799 2.6782479
3.5859151 2.4414639 2.6662581
3.599164 2.45661 2.7559791
3.604517 2.4664159 2.8331399
3.7748971 2.5958979 3.091794
6.7725811 4.7038651 5.7697401
3.62274 2.541204 3.029819
3.759284 2.6500471 3.048501
3.4517369 2.439255 2.741714
3.570961 2.5297329 2.7677381
3.6995139 2.6272719 2.788784
3.631434 2.5852749 2.6521709
3.7563159 2.680763 2.6488941
3.8117981 2.727057 2.5861101
3.7066929 2.6583779 2.410131
3.5265541 2.535403 2.1894391
3.78563 2.728343 2.235045
4.1402369 2.9912269 2.31531
3.8855431 2.814101 2.0495081
3.6085711 2.6199009 1.786827
3.601721 2.6213241 1.6660759
3.5767541 2.6095231 1.537918
3.375706 2.468858 1.341274
3.4824121 2.553113 1.270205
3.332094 2.448874 1.107757
3.3914499 2.49857 1.0192
3.2564809 2.4049771 0.87611902
3.224627 2.387255 0.76812601
3.205404 2.378794 0.66703099
3.3237951 2.472647 0.59382701
4.7112899 3.504837 0.841717
3.487628 2.6008351 0.52348298
3.233875 2.417455 0.39649999
3.4628401 2.594893 0.33296701
3.163548 2.376369 0.224053
3.211534 2.418256 0.15039
3.3053291 2.4949141 0.079815
3.259172 2.466023 0.0097960001
3.1166141 2.363857 -0.051382001
3.3644071 2.557971 -0.116324
4.1617432 3.1641891 -0.14389201
5.0179639 3.815177 -0.17349499
3.491091 2.660696 -0.177269
3.6020069 2.7518511 -0.23532601
3.237818 2.479589 -0.25212401
3.200228 2.46262 -0.310718
3.6462951 2.8329699 -0.402547
3.3019841 2.5901649 -0.29460499
3.2164831 2.5351989 -0.21261699
3.2340579 2.5551491 -0.166454
2.9566579 2.3415661 -0.103805
3.0205791 2.397913 -0.050659999
3.2449629 2.5821929 0.0099400003
3.1882141 2.5430989 0.078601003
3.218745 2.573576 0.154166
3.4169691 2.7385819 0.247968
3.0834889 2.4772069 0.304351
3.4779899 2.8007939 0.43852499
3.2377689 2.613554 0.50066602
2.8757269 2.3268411 0.53025901
3.342236 2.7107389 0.71911401
3.2510741 2.643069 0.80216098
3.41324 2.7815101 0.95290101
3.4445491 2.813689 1.07611
3.411046 2.792872 1.180986
3.2977979 2.706547 1.254966
3.5025511 2.8814099 1.454574
3.5747931 2.9478049 1.609449
4.0796881 3.3721089 1.9796031
3.906352 3.236486 2.0326829
3.5980909 2.9881361 1.998045
3.5678959 2.9700639 2.1043401
3.632751 3.0312071 2.2661469
3.6227779 3.030025 2.3807449
3.753679 3.1469209 2.5881231
3.702668 3.1188309 2.778825
3.62798 3.0631349 2.8249941
6.8407512 5.78932 5.5079279
5.5768638 4.730814 4.6251912
6.784658 5.7553768 5.6268792
6.6899028 5.7151928 5.9380121
6.2588372 5.3974352 5.7829261
6.5422082 5.6950011 5.9387388
6.5955062 5.768384 5.8075109
7.0511322 6.1813312 6.0825992
5.5006008 4.8333702 4.6310711
3.6039729 3.181673 2.8602741
3.461844 3.063355 2.6533749
3.6563489 3.2430561 2.696743
3.6832139 3.2745309 2.604007
3.6986721 3.295979 2.497329
3.8185329 3.4107499 2.4523289
3.78915 3.392421 2.305402
3.4693279 3.1133561 1.991366
3.705364 3.3329461 1.996976
3.370388 3.038723 1.697253
3.274368 2.959058 1.5329961
3.213238 2.910598 1.390442
3.310591 3.005785 1.315358
4.299294 3.9034569 1.708187
3.9527569 3.5972159 1.431726
3.3053451 3.015059 1.082459
3.280575 2.9994481 0.96199697
3.3126941 3.0358911 0.860264
3.141593 2.885803 0.71285099
3.1437371 2.8945079 0.61255699
2.96224 2.7337689 0.485017
3.047965 2.8194399 0.40774
3.0656731 2.8424311 0.32168999
2.896837 2.692157 0.22394
2.9065571 2.707484 0.148596
3.604862 3.3579619 0.184296
2.6973541 2.518472 0.071125001
2.767935 2.5903931 0.009087
2.707083 2.5393441 -0.048755001
2.6661971 2.506824 -0.100724
2.6417639 2.489635 -0.14660101
2.86325 2.704648 -0.204478
2.582361 2.445004 -0.219853
3.606329 3.430419 -0.38298899
3.517653 3.3773379 -0.425127
2.6347721 2.553297 -0.257561
2.5280049 2.4612451 -0.18316901
2.5872719 2.5248029 -0.14599501
3.9774489 3.8814139 -0.22444101
3.144294 3.0755091 -0.121056
4.1926308 4.1009121 -0.16141701
2.8488929 2.793056 -0.052407
2.764575 2.716692 0.0092900004
2.795814 2.7537849 0.075634003
2.821049 2.785099 0.148297
2.882695 2.8525741 0.22965001
2.664535 2.6428311 0.28877601
2.526691 2.511934 0.34988201
3.007942 2.997324 0.51094002
2.6649311 2.6617041 0.53990799
2.4403679 2.443078 0.57703799
3.1503601 3.1611879 0.85443503
2.9280519 2.9449551 0.89875197
3.1733201 3.1990559 1.09022
3.1228449 3.1554241 1.189266
3.362134 3.405107 1.407639
3.2904589 3.3402719 1.503742
3.889879 3.948766 1.7776771
3.23124 3.287781 1.601246
4.9759769 5.0630479 2.465853
3.7240341 3.7980061 1.989412
3.4065709 3.4823251 1.9519711
3.4138451 3.4978731 2.0880079
8.7703667 9.0071325 5.6986861
6.4439931 6.648787 4.6674132
3.521709 3.642081 2.6768849
3.6682041 3.8290241 3.258992
3.584306 3.7501521 3.2808759
3.5050271 3.6757491 3.2946279
3.411793 3.594645 3.3446419
3.3800471 3.594497 3.4524419
3.402245 3.651943 3.4173739
3.4028389 3.6696351 3.316999
3.4252131 3.702374 3.271771
3.4731579 3.7629509 3.2386489
3.5376539 3.841779 3.2097721
3.6384759 3.960484 3.199785
5.9977608 6.5437961 5.0951762
3.4416809 3.7637839 2.8141401
7.3148918 8.0368948 5.4780998
7.3743129 8.1210966 5.254127
3.09112 3.412102 2.0869999
3.2384751 3.5831201 2.0632579
2.9663689 3.2897241 1.774925
3.575623 3.9746571 1.999571
3.5895171 3.9994409 1.866698
3.602253 4.023015 1.731868
3.2045979 3.5872819 1.414976
2.9589019 3.3200049 1.191336
2.5129621 2.8262401 0.91502303
2.637821 2.973609 0.860255
2.4546001 2.773551 0.70908302
2.6184411 2.96561 0.66109699
2.5570371 2.902849 0.55452299
2.773638 3.156131 0.50556397
2.4839771 2.8331511 0.370015
2.5029969 2.8615379 0.29253599
2.8496549 3.2655039 0.245424
2.529531 2.9054649 0.14410999
2.4507411 2.8215809 0.07203
2.5297711 2.9194081 0.0092590004
2.6634979 3.0809491 -0.053497002
2.6108251 3.0271249 -0.110023
3.1040759 3.6074841 -0.19219901
2.5654969 2.98857 -0.204478
2.496958 2.9155779 -0.237315
2.448776 2.8727901 -0.29046401
2.39288 2.8337791 -0.32334
2.3937359 2.861649 -0.26190299
2.810178 3.3753979 -0.22801501
2.439383 2.93695 -0.15418699
2.3426411 2.8271451 -0.101054
2.3221991 2.8091149 -0.047874998
2.5144589 3.048887 0.0094720004
2.544122 3.09217 0.077174999
2.3756509 2.894248 0.140073
4.5619268 5.5709529 0.40773901
2.512459 3.0754609 0.30557799
2.6212029 3.2161851 0.407446
2.460902 3.026664 0.469367
2.4999499 3.0820019 0.56885397
2.506011 3.0968139 0.665712
2.7626979 3.4221311 0.84202403
2.701741 3.354594 0.932172
2.7023721 3.3633609 1.043892
2.772424 3.4586899 1.1874551
2.6842201 3.3566289 1.264279
3.3629191 4.2153811 1.729425
4.582438 5.7714658 2.7562411
3.1388509 3.9627531 2.0256159
2.8906569 3.658128 1.9917589
3.542479 4.5044818 2.744777
3.4724891 4.4260478 2.8358281
3.372164 4.3084621 2.8908491
3.3834 4.3331838 3.033474
3.3187189 4.2605329 3.0999179
3.341114 4.299582 3.2396669
6.4458709 8.3348656 6.663846
6.4181328 8.3189621 6.8156462
3.426069 4.505311 3.9603901
3.9701331 5.2207608 4.5893049
4.6324229 6.1507602 5.2721
6.2749128 8.3719969 6.9345388
3.317157 4.4688549 3.3112509
3.292294 4.4461322 3.1755869
3.2997639 4.4670682 3.064393
3.318058 4.5027609 2.9553189
3.254277 4.4269719 2.769659
3.292803 4.4902921 2.667021
2.682297 3.666682 2.0593381
3.3189931 4.5370412 2.5481629
3.4086399 4.6709709 2.470252
3.4680159 4.7639399 2.3611109
3.5135529 4.838285 2.2363811
3.0180709 4.1661639 1.7869641
3.511292 4.8470101 2.078994
3.5940771 4.9734278 1.967935
2.5963609 3.601603 1.3060451
2.784797 3.8724761 1.277763
2.4146259 3.3659599 1.002268
2.9715419 4.1422949 1.233434
2.5839829 3.610883 0.96093899
2.2454741 3.1455669 0.73992097
2.4372611 3.4226251 0.70213801
2.5613019 3.605665 0.63398403
2.390244 3.3731561 0.49744099
2.3133321 3.2726631 0.39356801
2.493068 3.535635 0.33289099
2.301621 3.2721961 0.226541
2.3659 3.371892 0.154091
2.2645831 3.235486 0.076114997
3.514977 5.021966 0.118143
2.2778411 3.2624819 0.0095370002
2.327009 3.3411601 -0.053484
2.373776 3.41677 -0.114508
3.1135139 4.481535 -0.15019201
2.5656991 3.702183 -0.18190899
2.3851309 3.4501791 -0.21775
2.348052 3.4049971 -0.255703
2.3472879 3.420855 -0.31923401
2.331105 3.431335 -0.36164001
2.302074 3.422694 -0.289563
2.4333041 3.6360149 -0.227134
2.327188 3.486197 -0.16927899
2.1801059 3.274087 -0.108263
2.13323 3.2117751 -0.050647002
2.2937119 3.4621079 0.0099539999
2.2925761 3.4691429 0.080142997
2.3324709 3.538435 0.15854
2.202848 3.3502491 0.22705001
2.106307 3.2115481 0.29552799
2.359128 3.6061521 0.423181
2.4383039 3.7366409 0.53686303
2.202075 3.3832109 0.57864499
2.3583541 3.632529 0.72372901
