# .PCD v0.7 - Point Cloud Data file format
VERSION 0.7
FIELDS x y z
SIZE 4 4 4
TYPE F F F
COUNT 1 1 1
WIDTH 1561
HEIGHT 1
VIEWPOINT 0 0 0 1 0 0 0
POINTS 1561
DATA ascii
1.188327 -8.1323709 1.7786781
1.199452 -8.1426506 1.57574
1.206157 -8.1230688 1.3723
1.214359 -8.1137686 1.17602
1.225031 -8.1208839 0.98819101
1.234821 -8.1221523 0.80678099
1.242277 -8.1081371 0.631181
1.249692 -8.0939732 0.46376699
1.2584881 -8.0889606 0.30623901
1.2644711 -8.0659723 0.15735701
1.2738661 -8.0649929 0.019571001
1.283704 -8.0667934 -0.107296
1.293133 -8.0659056 -0.224834
1.301564 -8.058917 -0.32968
1.309858 -8.0511589 -0.42347199
1.321175 -8.0618639 -0.50505102
1.335131 -8.0307064 -0.62642401
1.37279 -8.0275764 -0.709993
1.410032 -8.0219774 -0.57177401
1.429992 -8.0266352 -0.42326501
1.4409111 -8.0341568 -0.32964
1.449937 -8.0310726 -0.22461399
1.458223 -8.0238667 -0.107125
1.4757119 -8.067111 0.019657001
1.4822381 -8.0501575 0.15776099
1.495506 -8.0698547 0.307024
1.5075001 -8.0824442 0.46557599
1.519585 -8.0952644 0.633789
1.529995 -8.0991039 0.80941999
1.541798 -8.1102018 0.99332798
1.553442 -8.1202383 1.185101
1.566527 -8.137681 1.3848259
1.575442 -8.1333599 1.586082
1.58909 -8.1532822 1.7977149
1.60592 -8.1892357 2.0191171
4.595408 -23.291904 6.3598318
1.733843 -8.477973 3.6967361
1.937701 -9.2034674 5.1896119
1.86852 -8.5318995 5.8943791
1.973894 -8.5394688 5.8091679
2.2532239 -9.7479076 6.6312361
1.994557 -8.5836544 5.7163482
2.1639919 -8.9824905 4.6575098
5.6802621 -23.224165 10.213755
2.130374 -8.6237926 3.3223431
5.8354092 -23.505016 8.412446
2.2979031 -9.2104301 3.044435
5.8125682 -23.1838 7.0308561
2.0441279 -8.073946 2.0151191
2.055985 -8.0815239 1.804695
2.0645061 -8.0759029 1.59586
2.0728059 -8.0695066 1.392243
2.0750439 -8.0396605 1.190209
3.5999269 -13.881364 1.725512
3.611058 -13.858373 1.406369
3.617358 -13.817109 1.099023
3.635205 -13.820002 0.80920303
3.6559939 -13.83405 0.53528202
2.382009 -8.9297323 0.022151999
2.375818 -8.8653822 -0.120562
2.378099 -8.8330097 -0.25176901
2.1775179 -8.0509243 -0.336822
2.207922 -8.089077 -0.51837897
2.2608211 -8.208169 -0.65511698
2.324275 -8.2886324 -0.75046498
2.2802889 -7.9895139 -0.58325899
2.4916861 -8.6543188 -0.46754
2.416414 -8.3565521 -0.351309
2.420156 -8.3334007 -0.238838
2.5335381 -8.6862803 -0.118854
2.5494061 -8.7032652 0.021737
2.350764 -7.9908509 0.16053601
2.5762291 -8.7200432 0.34014499
2.5834031 -8.7072906 0.51431
2.595953 -8.7126112 0.69953901
2.6100521 -8.7230911 0.89415401
2.6295919 -8.751565 1.09953
2.657016 -8.8058577 1.318481
2.673903 -8.8249435 1.540912
2.700218 -8.8748341 1.775998
2.7283959 -8.9303331 2.02087
2.747762 -8.9566727 2.2667439
2.76034 -8.9578409 2.511018
2.7750461 -8.9687319 2.761658
7.4107761 -23.660189 9.2730627
7.3440318 -23.352346 9.8089514
7.50875 -23.684738 11.26278
7.5782299 -23.713421 12.549214
7.608778 -23.714485 13.159251
7.6177721 -23.462404 14.676674
1.900977 -5.7865319 3.9509411
8.1472969 -23.335714 14.705819
8.3723879 -23.542292 11.967901
8.403266 -23.542927 11.331314
8.3150759 -23.210997 10.532751
3.140583 -8.6407089 2.9485431
3.149158 -8.6332216 2.7032421
3.1389959 -8.5745354 2.446069
3.167836 -8.6224451 2.2225339
3.1867189 -8.6429777 1.993584
3.2072649 -8.6677971 1.769417
5.190084 -13.878409 1.782854
3.8334601 -10.143415 0.61404002
3.211108 -8.3216791 -0.36022699
3.2456951 -8.3824635 -0.46665901
3.28248 -8.4484262 -0.56033802
3.369014 -8.6121445 -0.71158397
3.3831961 -8.531889 -0.800143
3.38995 -8.4349127 -0.63815999
3.32934 -8.2290602 -0.460852
3.444344 -8.4851007 -0.369831
3.4447169 -8.4579687 -0.25135601
3.725347 -9.056941 0.188747
4.033905 -9.7430429 0.59713602
5.7967439 -13.864586 1.80818
10.040412 -23.55451 6.859241
3.76419 -8.6908197 3.794961
4.0897751 -9.4126463 4.3842268
3.921001 -8.9110622 5.144011
3.9184999 -8.8774509 5.3543539
3.543309 -8.0023613 5.02349
3.94065 -8.8719435 5.7757702
3.5997889 -8.0793104 5.436192
3.6006899 -8.0562363 5.5809112
3.6260779 -8.087862 5.7495451
3.6018031 -7.9841518 5.9111609
3.6029291 -7.8889332 6.0684309
3.7025161 -8.0086212 6.0409951
3.6183701 -7.7792501 5.6865211
3.654839 -7.8339291 5.6075072
4.1157799 -8.7688532 5.953526
4.1438231 -8.7757244 5.5705929
11.037986 -23.306072 14.229161
4.057425 -8.4654408 4.255332
11.158276 -23.211641 11.002209
11.164196 -23.155279 10.300291
11.201488 -23.164049 9.623374
11.223248 -23.140575 8.933507
11.256727 -23.141346 8.253171
11.302957 -23.100187 6.889257
6.8909092 -13.83876 1.860146
4.1711812 -8.1625051 -0.37019399
4.1729422 -8.1426764 -0.47500601
4.209228 -8.1900787 -0.56928498
4.1569228 -8.0424566 -0.69662303
4.3074088 -8.2397881 -0.81056499
4.2916222 -8.1177893 -0.64460301
4.3213072 -8.1283112 -0.47791001
4.5983348 -8.6012974 -0.268442
7.4952879 -13.826947 0.89061499
7.5249782 -13.843394 1.2124161
7.5466089 -13.844972 1.548472
7.8433599 -14.077725 4.7404799
8.5089569 -15.14836 6.4982562
4.861805 -8.6086283 4.2235498
5.1065969 -8.8259659 6.4489689
4.0028658 -6.649159 4.9084859
7.9564042 -12.977109 7.290895
7.1016579 -11.345748 3.5856531
8.8074169 -13.785303 1.258755
8.7997761 -13.738221 0.923859
5.5348158 -8.5101891 -0.409982
5.310997 -8.1454058 -0.50481701
5.3349228 -8.1614094 -0.60279101
5.3947482 -8.2113619 -0.75600499
5.4359179 -8.1910763 -0.85702902
5.5171728 -8.2305202 -0.69558299
5.5847921 -8.2898073 -0.51891899
5.9435282 -8.7564955 -0.139016
9.4083357 -13.758034 0.623505
9.4310045 -13.756981 0.94449401
5.984921 -8.4115591 4.4101548
5.4596062 -7.635776 4.4960089
9.0027304 -12.560445 7.7899752
5.1421309 -7.1567149 4.6562858
8.6667767 -11.408932 8.2239676
8.6901445 -11.412233 7.9148588
9.830267 -12.544276 3.8559821
10.95345 -13.746792 1.3525079
10.966122 -13.730043 0.99503797
10.977533 -13.711782 0.65707499
7.374629 -9.1462297 -0.154331
7.1128678 -8.8007107 -0.31144401
7.055151 -8.7086773 -0.45263401
6.7359982 -8.2950935 -0.55474401
6.6712441 -8.1959391 -0.65332699
6.6932979 -8.1842976 -0.81354499
6.816195 -8.2562904 -0.93336898
6.8104248 -8.1719847 -0.746773
7.3748212 -8.8076868 -0.596376
7.4788518 -8.9109755 -0.46982399
7.5142989 -8.9322128 -0.321266
7.626749 -9.0445986 -0.15540799
11.587329 -13.677115 0.345487
11.638579 -13.705441 0.67262602
11.667863 -13.707765 1.019348
11.750788 -13.772844 1.393093
11.904167 -13.822565 3.0483651
8.7870216 -10.01409 4.9828129
6.4288721 -7.25846 4.644176
6.1479058 -6.828804 5.8112879
10.329386 -11.44666 10.001432
6.2491002 -6.7186708 5.9519892
7.8053031 -8.3141861 6.5458202
6.275847 -6.654027 4.8328762
9.1616297 -9.6015997 5.3177071
12.019372 -12.480223 5.0969052
12.010542 -12.413319 4.1790972
12.164361 -12.485126 2.9128821
12.332853 -12.599481 2.1214099
12.444574 -12.684185 1.745012
12.517949 -12.729438 1.373759
8.661499 -8.706316 -0.161318
8.6796455 -8.7043371 -0.33832401
8.5736256 -8.5781164 -0.48979899
8.1336184 -8.1002254 -0.70966297
8.1927137 -8.1213541 -0.88765699
8.3620253 -8.212657 -1.021782
8.3325253 -8.108139 -0.81616998
8.9614544 -8.659668 -0.503277
9.0027409 -8.6794167 -0.34418401
14.365755 -13.69006 1.123714
11.987024 -11.291368 2.751852
11.863584 -11.149179 3.1168809
9.6359739 -8.7451668 7.469274
9.5514126 -8.6482182 7.6660872
10.024453 -8.6213331 6.986064
9.893713 -8.4293175 5.552568
11.478412 -9.7565107 6.0363059
10.979834 -8.9234142 -0.389415
11.13351 -9.0055113 -0.74340898
9.997901 -8.0295534 -0.98670399
10.287092 -8.1835508 -1.145977
11.154125 -8.7472048 -0.735892
10.540073 -7.2666821 6.1319032
12.457 -8.0250912 -1.140222
12.560104 -8.0093374 -1.298658
11.659489 -7.0418482 3.2955861
11.185815 -6.7382169 3.4981921
15.619746 -8.1695766 1.7310359
10.130139 -3.4170051 4.8461332
9.0821934 -3.028322 5.0585189
8.975626 -2.9812009 5.2185988
8.7789297 -2.9045601 5.307745
8.8705912 -2.9234519 5.5569291
9.2196693 -3.0266371 5.9639978
9.0684566 -2.9653411 6.034183
6.3832331 -2.079077 4.354743
8.9039803 -2.9001069 6.0744362
6.2917838 -2.0331481 4.4623199
8.669837 -2.801599 6.1489048
6.1996222 -1.971602 4.5520401
6.2612038 -1.9592119 4.4919062
6.3184562 -1.961024 4.3849139
8.9082689 -2.7534771 6.0483141
8.8667116 -2.7293611 5.867413
8.9656506 -2.7484131 5.763453
8.9033384 -2.718009 5.5385218
8.7027617 -2.6457379 5.2211242
9.8942919 -2.9828861 5.4602861
10.490543 -3.149344 5.5213122
10.357968 -3.096442 5.1780992
10.296318 -3.0649979 4.8696661
12.947016 -3.7560539 3.9655449
23.807404 -6.192946 -2.1445701
12.567564 -2.9274271 3.45679
12.624477 -2.9252541 3.8120251
12.330791 -2.812017 4.7302399
11.846214 -2.687043 4.867281
11.79628 -2.6613369 5.1660018
10.340874 -2.3203869 4.8040209
6.8244338 -1.523012 3.349112
7.0820799 -1.571891 3.656868
6.7395711 -1.487672 3.6467309
6.6209149 -1.453419 3.7402699
9.3841314 -2.048595 5.5133438
6.7589841 -1.467294 4.1150322
7.071054 -1.526456 4.446032
7.0056481 -1.503836 4.5316501
7.9823732 -1.7135 5.1634521
8.9907026 -1.91903 5.963418
9.0114412 -1.901615 6.2154741
4.5788569 -0.94406199 3.271277
7.4404411 -1.534059 5.3156819
8.9948874 -1.811082 6.282228
7.9421768 -1.579952 5.3671961
8.9395475 -1.778361 6.041203
7.851583 -1.552467 5.1917329
6.980999 -1.371919 4.499579
8.2478237 -1.6109329 5.164958
6.8892331 -1.337286 4.1753669
8.0138168 -1.555582 4.8569441
6.6789451 -1.288431 3.904393
6.9436841 -1.331141 3.9011469
6.9935441 -1.332293 3.7616551
6.7189789 -1.271904 3.4471071
13.589385 -2.5561521 6.6230588
11.59385 -2.152946 5.037539
10.352476 -1.897598 3.9364369
10.660592 -1.941283 3.763912
11.481289 -2.0769789 3.7419469
14.521298 -2.6095331 4.3400311
12.315237 -2.1983359 3.3512161
15.42976 -1.94818 3.762857
7.573369 -0.92950898 2.4470921
7.3221922 -0.88143098 2.758343
7.43467 -0.88620597 3.000114
10.193491 -1.191061 4.6520891
7.4601841 -0.85412502 3.7851551
7.369235 -0.83504802 3.9186239
7.2949491 -0.81804299 4.0504289
7.2045169 -0.79943597 4.1607699
6.5803871 -0.72243899 3.9386289
7.133204 -0.77475202 4.409903
6.451982 -0.693187 4.1040349
8.4569874 -0.90859997 5.3793969
8.4201279 -0.89474201 5.4926791
4.8404021 -0.50299102 3.2842269
4.9458442 -0.490733 3.4776671
4.7562752 -0.449626 3.2710519
8.2594938 -0.76144099 5.4975781
7.0365591 -0.64046299 4.5833092
7.1280718 -0.64045101 4.5263052
7.2582779 -0.64364702 4.4784961
7.3010249 -0.638897 4.3604612
7.3834481 -0.63747501 4.2538619
7.3761349 -0.62820703 4.0847301
7.5938959 -0.63787597 4.0265398
9.615531 -0.79643601 4.8636699
7.6100278 -0.62143099 3.6571109
7.3336849 -0.59029698 3.3350711
7.3493629 -0.58296198 3.149493
7.2785268 -0.56884199 2.9253521
7.5587468 -0.58191597 2.8354111
15.251942 -1.120748 4.49863
10.529047 -0.18553101 3.377311
9.9210978 -0.16329899 3.4466159
9.7857409 -0.14971 3.660392
10.672 -0.13847201 4.5594392
10.346822 -0.122241 4.690485
10.969907 -0.116851 5.254559
9.3444414 -0.077841997 4.9375219
8.8017521 -0.063089997 4.8567472
9.1643934 -0.055050999 5.2604518
4.938098 0.027686 3.455308
6.235096 0.034958001 4.3628502
4.9570971 0.050817002 3.3942111
7.6488352 0.105062 4.9620771
9.1967487 0.15837 5.4725628
8.683485 0.159614 4.985158
8.6681137 0.16941001 4.7837958
8.9661884 0.185647 4.7385082
9.1122885 0.199268 4.594492
9.2761326 0.213624 4.444171
9.5987949 0.23220199 4.352354
10.440562 0.26470801 4.4616189
10.353825 0.274535 4.1501698
4.800283 0.13285699 1.796041
4.8156338 0.13888299 1.6734329
10.137382 0.29236299 3.5227399
12.012655 0.36040199 3.8543301
12.668836 0.39480701 3.728493
4.5464978 0.38011199 1.1038589
4.7267871 0.400662 1.270776
4.715116 0.405191 1.392117
4.262218 0.37126699 1.372118
4.3736529 0.386094 1.525121
4.7513061 0.42499599 1.78413
4.5354319 0.41100499 1.824765
4.6730819 0.42895401 2.0047231
4.5389581 0.42196101 2.0663569
4.1061659 0.386545 1.975427
4.4491138 0.424045 2.252908
4.3273559 0.417514 2.297076
4.2219911 0.41230601 2.340688
4.3628511 0.43118 2.516474
4.4543738 0.44545799 2.66342
4.5670099 0.462082 2.821249
8.7800999 0.89866197 5.5819802
5.3455319 0.56596798 3.627697
5.2698398 0.582748 3.7098551
6.3912392 0.70675403 4.4992962
4.432919 0.51107001 3.0552421
7.2936602 0.84088498 5.0269122
4.4313579 0.52133399 2.9573441
7.2401748 0.85178202 4.8318582
4.4353728 0.527031 2.897357
7.2853761 0.86568201 4.759088
4.4239259 0.53088403 2.8179829
4.367537 0.52927202 2.703958
4.2233682 0.51678097 2.5315011
4.168551 0.51498997 2.4109371
8.9964266 1.111434 5.2032032
4.3215399 0.53899503 2.4030099
8.8707113 1.106382 4.9325962
4.2291832 0.53246701 2.252228
9.001379 1.133301 4.7936339
4.043848 0.51391298 2.0548501
4.0943842 0.52516901 1.977155
4.2362838 0.548374 1.936306
4.4790301 0.58509499 1.929688
4.5342889 0.597673 1.832576
4.31919 0.574426 1.629643
4.2093539 0.564803 1.475246
4.4661622 0.60454398 1.445412
7.8113012 1.057345 2.5280199
4.496026 0.61390603 1.33483
4.5357442 0.62470597 1.226528
9.7299023 1.374683 1.8812979
9.6298819 1.3719651 1.625465
9.7051487 1.394194 1.405463
9.6221714 1.405117 0.954943
9.5384407 1.483606 -0.389846
9.3293934 1.462194 -0.49024901
9.9051018 1.564234 -0.61994398
10.009243 1.604526 -0.78001797
8.7570705 1.508408 -0.461319
8.6083517 1.493091 -0.352842
8.6891441 1.517505 -0.242772
10.179668 1.802218 0.024778999
10.477215 1.880031 0.39820001
8.9660301 1.630392 0.701226
8.708725 1.594058 0.86942703
8.8716154 1.634528 1.085434
9.2257929 1.710883 1.345016
7.1138029 1.327775 1.2092921
7.1054158 1.334754 1.384132
6.849299 1.294893 1.508566
4.9708338 0.94574302 1.224263
4.2862759 0.820611 1.169083
4.6856642 0.90271401 1.403688
4.4497581 0.86263102 1.453658
4.1147361 0.80264002 1.456215
4.0026731 0.785604 1.525601
3.987813 0.78750199 1.62875
3.982204 0.79119802 1.734441
4.2334218 0.84622002 1.956949
4.0239191 0.80920798 1.965924
4.0645728 0.82229298 2.09041
3.842514 0.78201199 2.0718999
4.8120232 0.97932303 2.5946641
5.9132261 1.2034349 3.188437
4.4852591 0.91825199 2.5262041
4.135149 0.85157698 2.423382
3.9484589 0.81791598 2.3990719
4.1843882 0.87185502 2.626987
4.023437 0.84319299 2.5998991
4.266284 0.89926398 2.828243
4.1855292 0.89239597 2.8881731
4.375689 0.95421499 3.1336839
4.140327 0.92305398 2.9044001
4.354362 0.98139501 2.9584489
4.0239429 0.911834 2.676409
4.1070251 0.935673 2.664042
4.0085759 0.91814703 2.527499
4.1748362 0.96132898 2.5488861
4.0861168 0.94589603 2.4074521
3.9960821 0.92994797 2.2638731
3.943028 0.92242801 2.1396401
3.9968109 0.93991101 2.0697041
4.023355 0.951083 1.980179
4.8922739 1.156487 2.407835
3.890965 0.92455697 1.812862
4.060771 0.96989399 1.783547
3.9073911 0.93805498 1.610153
3.8395851 0.92649198 1.477258
4.1705689 1.011489 1.4906681
3.902235 0.95120698 1.288136
4.2611141 1.043929 1.290524
4.1128168 1.012666 1.134668
4.7788181 1.1825351 1.191105
4.8571868 1.207913 1.083198
6.703886 1.66716 1.495029
6.3212409 1.579806 1.24743
6.2706051 1.574886 1.080402
6.0706382 1.5321569 0.89748102
6.9747548 1.760345 1.031146
6.1399121 1.557234 0.762169
6.2038898 1.581127 0.628712
7.5578861 1.9262069 0.76592898
7.6169419 1.950676 0.60501897
5.5451651 1.42697 0.32423499
5.3782282 1.390669 0.20781
5.11132 1.327994 0.101783
5.2364941 1.3670059 0.012972
6.0304699 1.581756 -0.081894003
5.7881098 1.5253789 -0.164746
5.812789 1.539101 -0.24284101
5.3079982 1.412038 -0.28514901
5.241662 1.4009171 -0.33542499
6.39394 1.708881 -0.40916201
7.2000532 1.924328 -0.460747
6.0251832 1.625321 -0.480194
5.8924718 1.618927 -0.53273398
5.6381321 1.577248 -0.41099101
5.2409039 1.479261 -0.28271201
6.270247 1.769796 -0.338238
5.4169221 1.535733 -0.227386
5.2540598 1.496151 -0.15035699
4.9260278 1.408933 -0.067300998
4.5586119 1.309571 0.011368
5.0135121 1.4465621 0.100569
4.9593468 1.437171 0.193156
5.127677 1.492406 0.302412
4.428061 1.294368 0.35498601
4.3782811 1.2853349 0.44810301
4.932971 1.454397 0.61881399
5.9719419 1.7607189 0.74914801
4.9887261 1.4771399 0.74579602
6.5424819 1.9372 0.97807699
5.812387 1.728363 1.01332
5.0894518 1.519824 1.016898
4.664062 1.3987 1.053797
4.1563659 1.251707 1.0502419
4.3141298 1.304634 1.2073801
4.3933568 1.334166 1.350633
4.4165578 1.346826 1.480837
3.904685 1.195691 1.41848
3.763696 1.157302 1.4727041
4.4249358 1.366263 1.855637
4.4787321 1.388575 2.0031519
3.8359361 1.194171 1.821119
4.431448 1.385218 2.223814
4.1406379 1.299597 2.187639
3.9710231 1.25143 2.1999049
3.99769 1.264949 2.3136339
4.6618538 1.481064 2.807698
4.564539 1.455996 2.850559
4.4324598 1.419541 2.8605199
4.4783292 1.43997 2.975132
4.4445801 1.434826 3.029599
4.0995321 1.333962 2.90943
4.894846 1.592752 3.4738629
4.8069201 1.5889 3.54245
4.0511389 1.360003 2.925869
4.0781698 1.379637 2.8534811
4.348515 1.476727 2.9789879
4.2389569 1.445017 2.8324151
4.2753811 1.462988 2.7772651
4.380909 1.504786 2.7559669
4.6431751 1.600904 2.8191481
4.6591239 1.61247 2.7204161
4.206933 1.461448 2.3531361
4.1079369 1.432415 2.1930399
3.9004371 1.365146 1.979315
3.9330709 1.381699 1.889653
4.0371208 1.4235311 1.828725
3.833667 1.3568 1.629494
4.0820351 1.4500411 1.620185
4.0457978 1.442471 1.49198
3.978004 1.423512 1.3550169
4.1469579 1.489408 1.296168
4.8697529 1.755404 1.386701
5.006783 1.811375 1.288228
6.807476 2.4717851 1.567369
4.7810178 1.7422791 0.974213
4.740881 1.733894 0.84355402
4.6007729 1.688715 0.70251799
4.0032511 1.474681 0.51332903
3.7805369 1.39763 0.395816
3.7672009 1.3976769 0.30918401
4.5697069 1.701468 0.27612299
4.294765 1.604781 0.17151199
4.0320392 1.511959 0.082994998
3.946784 1.485222 0.010108
4.1149759 1.553974 -0.057778999
4.2045031 1.593375 -0.123752
4.0971498 1.5581371 -0.177026
4.6445789 1.772503 -0.258086
4.6184692 1.768697 -0.30574501
4.1788111 1.611469 -0.34462899
4.3440819 1.698449 -0.40662801
4.016397 1.5918961 -0.303289
4.0004539 1.59635 -0.223609
4.0823488 1.6345299 -0.177591
4.1360269 1.6616 -0.122679
4.4163032 1.7801681 -0.062546998
3.6405151 1.472375 0.0094130002
4.0652242 1.64965 0.084555998
3.910358 1.5921 0.157942
4.9543538 2.0171621 0.200109
3.779285 1.543854 0.231177
3.790837 1.553722 0.315245
3.9541581 1.626029 0.41985801
3.9685359 1.6373349 0.51655501
3.94384 1.6325181 0.611848
4.2128801 1.74962 0.76229697
3.4968009 1.456996 0.725254
3.37887 1.412474 0.79256803
4.2824268 1.790189 1.004512
4.270062 1.790851 1.120321
3.794637 1.596596 1.1028399
3.981689 1.68074 1.2713341
3.7712929 1.597095 1.313483
3.795893 1.612712 1.43259
3.6688271 1.5637569 1.491621
3.629935 1.552168 1.581885
3.763335 1.61438 1.749369
3.845073 1.65473 1.897498
3.8146579 1.646899 1.990114
3.7430661 1.621147 2.0562
3.6881161 1.602435 2.1246901
3.761117 1.639352 2.2638731
3.790427 1.657365 2.3745961
3.678499 1.613521 2.389868
4.0424838 1.778775 2.714431
4.0870461 1.804049 2.8254659
3.974406 1.759851 2.819535
4.0559959 1.807252 2.996696
3.862721 1.7426879 2.965132
3.920074 1.790521 2.950726
3.886137 1.785943 2.834697
3.960341 1.825616 2.8287871
4.0427289 1.869287 2.8169141
3.8659201 1.792991 2.619132
3.5251269 1.639907 2.3131709
3.873064 1.807241 2.4532509
3.6779311 1.721397 2.2406831
3.5392001 1.661477 2.0658269
3.5466001 1.669984 1.976077
3.548274 1.675807 1.879529
3.6002941 1.705489 1.805843
3.760185 1.786585 1.77844
3.6937521 1.7602791 1.639536
3.464752 1.656085 1.436272
3.5579939 1.705736 1.370574
3.60519 1.733512 1.282944
3.753711 1.810294 1.225899
3.729538 1.803982 1.109827
3.5364029 1.7156301 0.95100302
3.436343 1.6720181 0.82704598
3.843128 1.875474 0.818708
3.6472631 1.785136 0.67856801
3.650342 1.7918971 0.58290201
3.6965649 1.819923 0.49576801
3.7684259 1.8607399 0.41272399
3.885807 1.924312 0.33365801
3.6187739 1.797314 0.228802
3.6002679 1.793336 0.150465
3.4542401 1.725611 0.074419998
3.366142 1.6864851 0.0090239998
3.2352419 1.625603 -0.047559999
3.1761661 1.600546 -0.097889997
3.5278471 1.782904 -0.15963501
3.4045401 1.725551 -0.198153
3.3837171 1.719943 -0.234662
3.2492361 1.66109 -0.280797
3.105159 1.605675 -0.30475399
2.8374829 1.484002 -0.224788
3.823566 2.011049 -0.22428299
9.1364307 4.8054118 -0.53592402
3.6191039 1.9088759 -0.165244
3.1686959 1.676015 -0.098660998
3.2736731 1.736413 -0.048677001
3.411422 1.814554 0.0092620002
3.2657771 1.741958 0.071337
3.2973239 1.7637039 0.13988601
2.897264 1.554044 0.18617401
2.894181 1.556724 0.25287101
3.219008 1.736263 0.35916701
3.6913691 1.99658 0.50496697
3.3073821 1.793861 0.53934002
3.109726 1.691331 0.59154302
3.1826 1.735756 0.69404
4.1992311 2.2965519 1.035817
3.6969121 2.0274119 1.020141
3.6649439 2.0153689 1.120436
3.6955891 2.037817 1.24142
3.429117 1.896084 1.256681
3.337626 1.850562 1.325621
3.272841 1.819616 1.40054
3.5357709 1.971187 1.6220551
3.5214109 1.9685481 1.723441
3.3892879 1.89986 1.761254
3.443567 1.935554 1.892056
3.550406 2.0010381 2.0544
3.5493121 2.0058579 2.1541221
3.5444291 2.008543 2.24793
3.648865 2.073328 2.408946
3.552067 2.023797 2.432307
3.4893849 1.993457 2.469902
3.6330509 2.0811341 2.648006
3.5108521 2.0165629 2.6263421
3.7110729 2.143049 2.8920889
3.9732859 2.319176 3.219106
3.4091029 2.0111721 2.710058
4.0430241 2.385149 3.2139921
3.6061611 2.1387441 2.778898
3.2924991 1.957891 2.484848
3.4699061 2.0688469 2.5550001
3.5239029 2.1066029 2.5233099
3.5625329 2.135318 2.4711671
3.5317581 2.122453 2.3651371
3.4542251 2.0813329 2.225224
3.4176381 2.064703 2.109741
3.176538 1.924095 1.872097
3.4203191 2.077193 1.916679
3.3419819 2.0349381 1.77364
3.380538 2.0638089 1.692013
3.3402519 2.0445449 1.569239
3.4566159 2.121295 1.516844
3.3372259 2.053375 1.361059
3.4896891 2.1527779 1.31501
3.6968639 2.2865169 1.278671
3.697402 2.2928009 1.16546
3.473413 2.1594951 0.98957002
3.426383 2.135778 0.87379199
3.435674 2.1471241 0.775648
3.303128 2.069629 0.65137303
3.0444 1.912448 0.51536
3.21172 2.0227709 0.45670399
3.0167661 1.904886 0.350371
2.8246789 1.78819 0.25724399
2.871932 1.822787 0.192619
2.8277171 1.799336 0.12538099
2.7335119 1.743863 0.062492002
2.5896139 1.656298 0.0073680002
2.643868 1.69533 -0.041255999
3.1616099 2.032517 -0.103448
2.772373 1.786842 -0.133204
3.159698 2.0416789 -0.195301
3.026545 1.960636 -0.222938
3.3154449 2.1587429 -0.304427
3.0454309 2.003159 -0.31778201
3.1040959 2.062484 -0.261623
3.1583841 2.1091571 -0.19716799
3.735492 2.500828 -0.181546
3.022064 2.0282929 -0.100174
2.6829369 1.805215 -0.042477001
2.9380591 1.981836 0.0084950002
2.66273 1.800627 0.061951999
2.594753 1.759055 0.117269
2.6349609 1.790785 0.180407
2.879812 1.962093 0.268139
3.3028481 2.2559421 0.392786
3.318567 2.272337 0.48394099
2.9632809 2.0341289 0.51521802
2.738203 1.8843091 0.55544698
3.0429969 2.0992689 0.70776701
3.300648 2.282686 0.86850399
3.2365799 2.2439401 0.95288402
3.274266 2.275651 1.068166
3.1572161 2.199739 1.131924
3.200701 2.2355671 1.2521
3.2693291 2.2891519 1.386324
4.4400969 3.108912 1.882776
3.3800609 2.3725369 1.544518
3.1428771 2.211509 1.539855
3.822315 2.6896009 1.872746
3.5709269 2.518913 1.866832
3.41113 2.412127 1.893782
3.576582 2.5353639 2.0998361
3.4465671 2.4492149 2.131372
3.256417 2.319783 2.1125441
3.182132 2.272445 2.157588
3.234767 2.315707 2.2834949
3.1803451 2.2823429 2.3290219
3.181298 2.288626 2.408638
3.144367 2.267601 2.451838
3.1750929 2.2953739 2.541446
3.3021131 2.3988919 2.754477
3.2358119 2.3737731 2.8080471
3.234256 2.3958161 2.7558191
3.2763 2.4387679 2.707078
3.315577 2.47399 2.6834841
3.3805201 2.528563 2.6699209
3.241152 2.430198 2.489799
3.142271 2.3617611 2.338737
3.1759541 2.3928511 2.2825
3.250962 2.4552929 2.24793
3.187 2.4128001 2.112077
3.2322271 2.452956 2.045397
3.591831 2.7324369 2.1616089
3.433635 2.6183889 1.9573621
3.0948091 2.3657041 1.66412
3.3856721 2.594275 1.70909
3.1777239 2.440793 1.4986269
3.080003 2.3714311 1.3502311
3.028861 2.3376601 1.2270581
3.0290661 2.3434329 1.126562
3.1226871 2.4216709 1.058592
3.135463 2.437412 0.96087998
2.6350999 2.0533569 0.722978
2.952898 2.3065159 0.71735698
3.029506 2.3720219 0.64296699
3.1412361 2.46539 0.57240099
6.1469798 4.82444 1.120113
3.210948 2.52614 0.49158701
3.9740839 3.1265199 0.60842103
2.768692 2.183413 0.346266
2.680537 2.1189439 0.26292199
2.534579 2.008357 0.183121
2.686336 2.133687 0.128335
3.0559869 2.433089 0.075286999
3.009949 2.402149 0.00923
3.1552629 2.5241201 -0.053077001
2.6944089 2.1605899 -0.095055997
2.653343 2.132726 -0.137481
3.3861859 2.721776 -0.17545301
2.6105759 2.103343 -0.174045
2.8295169 2.285172 -0.224851
3.0945561 2.5111151 -0.30665201
2.83599 2.3232329 -0.31960499
2.6813271 2.2174239 -0.244256
2.5785251 2.142514 -0.174045
2.7156031 2.2617469 -0.142727
2.7463889 2.2927921 -0.098467998
2.9607739 2.4776139 -0.050712001
2.847815 2.3887141 0.0089090001
2.457289 2.066016 0.061875001
2.5621359 2.1592491 0.12534399
2.737318 2.312324 0.20290899
2.902904 2.457988 0.292689
2.7823999 2.3615041 0.358385
3.9046171 3.313962 0.502931
3.0566061 2.6003399 0.48286599
3.072356 2.6199 0.57878703
2.631665 2.2493899 0.57852203
2.860364 2.450619 0.72111702
2.6226201 2.252223 0.74814898
2.4279511 2.0899489 0.77509999
3.2132051 2.7658861 1.025785
3.0292599 2.613622 1.071789
2.8067601 2.4273441 1.0915689
2.8975079 2.511723 1.229807
3.3970361 2.9516611 1.563183
4.0302358 3.5018449 1.854557
2.986985 2.6014669 1.481462
2.9425769 2.5688169 1.565147
3.112886 2.7238729 1.767048
3.777956 3.30583 2.144578
3.5325489 3.098346 2.1299369
3.401623 2.990521 2.169385
3.653949 3.2198861 2.4550171
3.1603191 2.791425 2.2279351
3.0948589 2.7400219 2.280782
3.0883961 2.7407081 2.370116
3.177232 2.8261571 2.5299671
3.126749 2.787765 2.574625
3.091656 2.7629311 2.622349
3.1257529 2.7999499 2.722122
2.9259851 2.6332841 2.6565821
2.934696 2.6659279 2.7742219
2.9009371 2.6599801 2.6948049
3.0395019 2.8000729 2.739121
3.0035801 2.7734389 2.6519201
5.107873 4.716496 4.5098419
3.0740299 2.8451149 2.649075
3.0323319 2.8130779 2.542161
2.9384611 2.732353 2.3873119
3.076416 2.867305 2.413924
3.0473821 2.846875 2.3010731
3.0875599 2.891135 2.234942
3.194308 2.9980741 2.2083449
3.1668701 2.97925 2.082557
2.9627299 2.7937 1.84589
2.925271 2.7648139 1.7195131
2.9387691 2.7840431 1.6220551
2.898865 2.7526369 1.495124
2.855391 2.7176809 1.369262
2.605073 2.4852099 1.154681
2.6084859 2.4942601 1.061655
2.71134 2.5986559 1.006063
2.5632701 2.46246 0.85999399
2.68803 2.588325 0.80758601
2.6352761 2.543443 0.701186
2.7519331 2.6622169 0.639835
2.886673 2.7990639 0.57637399
2.563097 2.4911001 0.43006399
2.791589 2.7194879 0.38271999
2.551034 2.4909301 0.274353
2.6564679 2.5999229 0.210484
2.5459819 2.497586 0.13341901
2.527271 2.485007 0.068310998
2.5276921 2.491204 0.0085070003
2.6398251 2.6077709 -0.048742
2.674376 2.648057 -0.103585
2.6282899 2.608479 -0.149546
2.7647569 2.7503009 -0.202456
3.610822 3.5919421 -0.264411
2.7861559 2.7780449 -0.243239
2.542223 2.546629 -0.276885
2.4862111 2.513792 -0.30822799
2.534337 2.586391 -0.25420001
3.3120921 3.380121 -0.33221
2.768903 2.838949 -0.205878
3.590997 3.6818399 -0.267003
2.4005439 2.467 -0.13901401
2.4300561 2.50314 -0.096019
2.3381109 2.4140439 -0.044144999
2.603725 2.69454 0.0089809997
2.7631841 2.866226 0.076732002
2.58179 2.6843021 0.13932499
2.4539919 2.5573699 0.20070399
3.2489469 3.385814 0.26572001
2.4421899 2.5510049 0.27174401
2.4546571 2.569999 0.349002
2.494451 2.617744 0.43508101
2.7499781 2.892633 0.57211798
2.4340169 2.566246 0.591048
2.594944 2.7422891 0.72280997
2.715318 2.8761921 0.85602498
2.8368859 3.011966 1.001093
2.9309821 3.119051 1.146571
2.643625 2.8198071 1.137004
2.6207311 2.8019071 1.230417
2.762238 2.9600761 1.40634
2.694587 2.8943069 1.47901
2.9046741 3.1272459 1.710206
2.956507 3.19047 1.858189
3.1755509 3.4348359 2.120441
3.076936 3.3359399 2.1737039
3.0160539 3.2775581 2.2452559
3.2109971 3.4975419 2.5087039
2.9332359 3.202457 2.396246
3.0767529 3.366986 2.6180291
3.0466361 3.34182 2.6905191
2.999783 3.2981069 2.740088
2.8539169 3.145062 2.685957
2.9616489 3.2714169 2.8625281
5.2524638 5.8289762 5.2952638
2.9233921 3.3210211 2.9324839
2.896982 3.2987311 2.8478341
5.9705682 6.8144941 5.730042
2.9873569 3.417619 2.7898321
2.9473169 3.3797209 2.668021
3.0381401 3.492044 2.6568589
3.006789 3.4641311 2.5310349
2.738847 3.162842 2.21065
5.8585391 6.7654881 4.7286968
2.7612081 3.1961651 2.129122
2.7438331 3.183516 2.0130091
3.0255201 3.5185909 2.103514
7.0094681 8.1518049 4.8733821
2.833894 3.3034949 1.859368
2.8578939 3.3393071 1.761163
2.587239 3.030174 1.49022
3.0658851 3.5907631 1.765914
2.6633661 3.1266849 1.426684
2.6835799 3.1578331 1.3290581
2.602567 3.0697179 1.18385
2.733494 3.2317531 1.133891
2.595046 3.0753009 0.97357798
2.5140209 2.986306 0.844814
2.303663 2.7428949 0.68576699
2.2088709 2.6362369 0.57473099
2.2112279 2.6452811 0.49421799
2.6356959 3.1605279 0.49517101
2.6300449 3.1612041 0.40382999
2.261889 2.7251239 0.27251199
2.331181 2.815258 0.20697901
2.158808 2.613261 0.126802
2.1174531 2.5692761 0.064167999
2.002444 2.4354811 0.007557
2.111058 2.573667 -0.043724999
2.032748 2.4840789 -0.088343002
3.2087049 3.930433 -0.20491
2.060333 2.529748 -0.169378
3.060544 3.7578421 -0.251605
2.549053 3.1372559 -0.24990299
2.8613579 3.538378 -0.350153
2.7142169 3.3885009 -0.37848899
2.4689081 3.1117611 -0.27884901
2.018194 2.5558619 -0.169067
1.911184 2.4261279 -0.12473
2.0537331 2.6133189 -0.091480002
2.8103709 3.5761211 -0.125183
2.66699 3.401804 -0.056781001
2.1186581 2.708864 0.0082430001
2.0443921 2.6201789 0.064052999
2.2176919 2.8491001 0.13506299
2.2203479 2.859354 0.205
2.246392 2.8998439 0.28225499
2.2285399 2.883707 0.357896
2.0343881 2.6388011 0.400915
2.422961 3.1503839 0.56970501
2.1686449 2.8264999 0.59533399
1.936545 2.5300679 0.60998797
2.431426 3.1766241 0.76586998
2.4621611 3.2245369 0.87802303
2.0454719 2.685281 0.816724
2.60658 3.4300799 1.154075
2.3970671 3.1619949 1.1672
2.634649 3.483803 1.400825
2.581748 3.4221079 1.489027
2.5824089 3.431268 1.606173
2.560364 3.410228 1.7087179
2.9515419 3.9407771 2.1033289
2.547492 3.409555 1.929288
2.52457 3.3870859 2.0233769
6.167841 8.2951727 5.210722
6.1184258 8.3091373 6.1393132
3.019613 4.1107831 3.1348951
2.9902821 4.0807819 3.19963
2.9200439 3.994668 3.2097321
2.8095641 3.8623359 3.223253
2.780458 3.85993 3.328608
2.781985 3.9001529 3.280091
2.8108211 3.9600241 3.2186601
2.8239641 3.988349 3.1700039
2.9055181 4.1136551 3.1851981
2.9495759 4.1863599 3.1474619
5.8273149 8.3323183 5.610405
3.6003821 5.1608438 3.324851
2.3738401 3.41115 2.0949121
2.411556 3.473949 2.025537
2.625746 3.791894 2.0907149
2.950336 4.2712498 2.217649
2.808115 4.0856228 1.854192
2.5591581 3.732703 1.5720429
2.316798 3.3876359 1.316232
2.0117321 2.9489141 1.0500849
2.1182759 3.1128659 1.008651
2.113632 3.1138129 0.91055399
1.952997 2.8843701 0.75386
1.870688 2.7697439 0.63988602
1.833498 2.7214921 0.54835999
1.909819 2.8418961 0.490812
2.1548951 3.2146521 0.465664
1.893541 2.8318751 0.33453801
1.923066 2.883275 0.26668099
2.3005731 3.457983 0.235191
2.0450029 3.081594 0.13835301
1.971274 2.9780071 0.068830997
2.039803 3.089325 0.0088729998
2.219187 3.369514 -0.052997999
2.09442 3.1881411 -0.104989
2.0492771 3.127336 -0.15099899
2.089906 3.1974349 -0.19830801
2.630276 4.0241709 -0.24958301
2.131892 3.2699721 -0.241326
1.986423 3.062377 -0.28087401
2.133605 3.3230259 -0.344271
1.929399 3.035933 -0.25251901
1.9250081 3.0446379 -0.187006
2.5494211 4.0322261 -0.247665
2.098376 3.327394 -0.158868
2.6617451 4.220727 -0.20152
1.863899 2.963208 -0.096349999
2.049644 3.2669311 -0.050659999
1.972813 3.1526 0.0089140004
1.842791 2.9524541 0.067078002
2.061285 3.3110759 0.145904
2.1103561 3.398694 0.226541
1.828473 2.952384 0.26721799
2.291497 3.700016 0.33488601
1.8441629 2.985462 0.34460399
2.0477431 3.323662 0.46972501
1.79939 2.9281859 0.49265701
1.960649 3.1989319 0.62697899
1.914865 3.132395 0.702878
2.1033871 3.4497969 0.87442702
2.1286459 3.5003691 0.991216
2.100951 3.4637959 1.0852441
2.054821 3.3966279 1.1677639
2.089257 3.4626319 1.2969919
2.4178431 4.0177498 1.628808
2.9636691 4.9507489 2.3120141
2.886035 4.8337851 2.4050391
2.2125571 3.7155759 1.960252
2.8244121 4.743073 2.5023351
2.190779 3.68875 2.0549109
2.7567799 4.6417618 2.5858099
2.6991401 4.5567479 2.6697299
2.6992469 4.569015 2.803956
2.6659231 4.5246091 2.8977189
2.6667161 4.5379901 3.0212629
2.6567969 4.533164 3.1261561
2.6642561 4.5580111 3.2448549
2.9786141 5.1505752 4.0153599
2.520628 4.4535999 3.5038109
2.4904749 4.4242702 3.3650639
2.492449 4.4398232 3.3027911
2.498673 4.463038 3.2349081
2.4911101 4.461688 3.140655
2.4896669 4.4712892 3.044858
2.5127449 4.525085 2.970983
2.5148699 4.5413408 2.8643839
2.4885399 4.5061278 2.7198651
2.5127411 4.5624728 2.625617
2.209044 4.0220799 2.1978951
2.5564871 4.6675129 2.4123321
2.59865 4.7576079 2.3158619
2.0926881 3.841886 1.75298
2.639282 4.8453579 2.210845
2.657877 4.8930068 2.0825951
1.936056 3.5740709 1.411918
2.7076881 4.9985499 1.974651
1.975041 3.656167 1.332723
2.1902881 4.0659089 1.3585351
1.929497 3.591784 1.092231
1.889122 3.5264399 0.96793401
1.767969 3.309504 0.81202799
1.893288 3.5540259 0.77094698
1.878194 3.5355761 0.66900897
1.740447 3.2854741 0.53295499
1.748771 3.310483 0.45049199
1.717559 3.260556 0.36190301
1.917707 3.6507821 0.317316
1.729818 3.3024111 0.211106
1.823772 3.4916329 0.14736199
1.708877 3.2809529 0.071298003
1.707684 3.287972 0.0088799996
2.3865941 4.608212 -0.068167999
2.243854 4.3449588 -0.134592
1.872332 3.635896 -0.165163
1.810554 3.5259769 -0.20577399
1.9651051 3.83793 -0.266563
1.769137 3.47506 -0.30005401
1.680305 3.3388469 -0.32585901
1.74652 3.5109329 -0.275278
1.749148 3.5367961 -0.204841
2.0765131 4.2110262 -0.18961599
2.2149889 4.5050211 -0.13816901
1.594638 3.2528441 -0.047586001
1.64369 3.3627739 0.0089720003
1.712629 3.5141611 0.075345002
1.767506 3.6374781 0.151288
1.867038 3.8536849 0.242484
1.686138 3.4906311 0.29829001
1.832284 3.8044479 0.41467899
1.836399 3.824342 0.51046199
1.762807 3.6820459 0.585172
1.6485389 3.4536581 0.63950598
1.64561 3.45784 0.73315197
1.7785521 3.748405 0.89790601
1.6562999 3.501241 0.93712801
2.622649 5.5439968 1.483884
2.0038381 4.2495909 1.2586139
2.579776 5.4709988 1.620362
1.879972 3.9989209 1.299836
2.072753 4.422318 1.566347
2.5043571 5.3431668 1.892503
2.4650431 5.2751989 2.022557
2.441262 5.2401419 2.1621151
3.053159 6.5535731 2.7040451
2.401659 5.1708131 2.2844901
2.967077 6.3881679 2.822324
2.700887 5.850534 2.920974
2.911746 6.3459492 3.519578
3.211612 7.4747262 5.145278
3.79688 8.8652506 5.9273448
2.6730969 6.2614079 4.0506072
3.3823941 7.9483652 4.9582758
3.1906371 7.5219808 4.5084209
2.671241 6.3178658 3.6243069
2.706007 6.4208689 3.5123761
2.7126 6.457427 3.354727
2.6436219 6.3550811 2.757977
1.722663 4.1547408 1.6821899
1.735037 4.1983571 1.577949
1.729205 4.198029 1.4561009
1.769668 4.310451 1.37067
1.7014199 4.1579518 1.203498
2.2545371 5.509666 1.594745
1.516294 3.7178321 0.97146201
1.472563 3.6226161 0.846295
1.633394 4.0316858 0.832811
1.538862 3.811048 0.686809
1.3322819 3.310497 0.51152903
1.413347 3.5237391 0.456824
1.488359 3.723248 0.39376399
1.502283 3.770761 0.31233001
1.383132 3.483449 0.212237
2.0561631 5.1960521 0.20904399
1.4543869 3.6878381 0.076403998
1.3790441 3.5087111 0.0090359999
1.524016 3.89081 -0.054889001
1.4747061 3.7778339 -0.111619
1.66494 4.2798128 -0.18546
1.483294 3.8260081 -0.21303201
1.354282 3.505306 -0.232317
1.4008189 3.6509249 -0.30089799
1.359436 3.5928431 -0.33489099
1.3257051 3.5534239 -0.26624399
1.33904 3.614764 -0.200123
1.40268 3.8000851 -0.163589
1.41441 3.8455851 -0.112775
1.381454 3.7694869 -0.052735001
1.357645 3.717859 0.0094870003
1.367437 3.758214 0.077078998
1.253729 3.4581771 0.137605
1.6054291 4.4443541 0.26758599
1.470136 4.0846581 0.33404201
1.346122 3.7537501 0.39161399
1.33957 3.749156 0.47904301
1.300033 3.6518781 0.55565798
1.4559931 4.1050429 0.72785002
1.388823 3.9301231 0.798024
1.322656 3.7567611 0.861947
1.569006 4.4730282 1.146894
2.0127571 5.7593069 1.634336
1.997431 5.736846 1.786922
1.2850651 3.7047241 1.257597
1.961924 5.6560469 1.919988
1.287517 3.725769 1.369262
1.9394521 5.6123128 2.062588
1.899484 5.5174131 2.1824329
1.885765 5.4983382 2.329124
1.872858 5.4814491 2.4745741
1.865636 5.4811158 2.624541
2.6229501 7.7950592 4.3456178
2.1189921 6.3216839 3.6789141
2.5586121 7.7224808 5.0000191
1.909507 6.1690431 3.969017
1.79035 5.8079629 3.6159921
1.815492 5.9139228 3.5509419
1.644384 5.378839 3.1035249
2.3498509 7.6864481 4.434988
1.6166461 5.3101659 2.9328949
1.609647 5.3093371 2.7966671
1.61559 5.3513241 2.6773889
1.615045 5.372067 2.5427949
1.6211849 5.4153318 2.41486
1.648385 5.5295639 2.3120141
1.666909 5.6155272 2.19084
1.69705 5.7415428 2.0796511
1.142339 3.881403 1.297603
1.782469 6.0564132 2.0247369
1.2430249 4.2785368 1.077991
1.051313 3.6344121 0.81879699
1.237052 4.295229 0.85575098
1.201938 4.1916132 0.72867399
1.136982 3.9825449 0.59368598
1.060269 3.7302721 0.46661901
1.121869 3.964505 0.404612
1.031458 3.661236 0.292689
1.2945271 4.5950198 0.367338
1.072534 3.8240781 0.22490101
1.070129 3.8326221 0.148858
1.27373 4.582386 0.091665998
1.173963 4.242559 0.010551
1.21753 4.4199791 -0.060222
1.057919 3.858068 -0.110106
1.119017 4.099556 -0.171619
1.044533 3.8442559 -0.206811
1.015242 3.753706 -0.2404
1.1755379 4.3867998 -0.349462
1.018856 3.8740699 -0.34922099
1.284148 4.882812 -0.44015199
1.029331 3.989202 -0.289213
0.99423599 3.8905621 -0.20847
1.323094 5.1774182 -0.27742401
0.98950201 3.890877 -0.162136
0.997428 3.941206 -0.111894
1.033425 4.103507 -0.055585001
1.039681 4.1486969 0.010251
0.96813899 3.8823659 0.077117004
0.97372198 3.9241691 0.15125
1.20713 4.8891158 0.28516901
1.015945 4.135447 0.327674
0.97500902 3.9888129 0.40324399
1.025074 4.2148519 0.52192998
1.200815 4.962594 0.73189098
0.997989 4.1454391 0.71252102
1.030847 4.3038931 0.84728903
1.032618 4.3335381 0.96411198
1.0322 4.3542109 1.0826941
1.0430059 4.4224601 1.217213
1.386225 5.9084358 1.785229
1.340109 5.741879 1.890976
1.3040119 5.6166611 2.0028689
1.31227 5.7738318 2.6839931
1.240123 5.5156498 2.849782
1.2090271 5.406662 2.927289
1.186848 5.336597 3.0165651
1.1621881 5.254487 3.0889659
1.14723 5.2156019 3.1772871
1.1351171 5.1892319 3.2647519
1.121701 5.1565671 3.3375349
1.105919 5.1126161 3.3931291
1.081285 5.0555019 3.4889669
1.038046 4.9660358 3.5499029
1.0260971 5.0252962 3.5117199
1.028221 5.0960689 3.4457231
1.031256 5.1418891 3.4018371
1.03535 5.1935568 3.3492949
1.036597 5.2315211 3.277843
1.0386961 5.2742128 3.198251
1.056041 5.3953152 3.155674
1.072661 5.514214 3.0996599
1.085807 5.61657 3.0225911
0.97866398 5.1587229 2.3801291
1.028067 5.4537439 2.3708611
1.352756 7.1761689 3.119637
1.198656 6.399488 2.6088271
1.032325 5.547039 2.1102691
1.164314 6.2969408 2.2243531
1.06428 5.7935338 1.8891439
1.25009 6.8050151 2.218966
2.4282241 13.305212 3.9785261
1.998015 11.020433 3.0003359
0.76819497 4.265326 1.048596
0.82567602 4.6151838 1.014665
0.71778703 4.0392098 0.78542602
0.73035002 4.1377759 0.70213801
0.72047198 4.1096759 0.59808397
0.74746603 4.2929831 0.52432001
0.863976 4.9964609 0.49794701
0.71818501 4.18224 0.32652301
0.75943398 4.453475 0.25582701
0.766123 4.524384 0.171661
0.74434501 4.4270272 0.086521
0.71711099 4.2955399 0.010438
0.71320999 4.302917 -0.057293002
0.68397897 4.1565042 -0.115939
0.67837501 4.152524 -0.16992401
0.71476197 4.4074059 -0.2318
0.70987499 4.4096999 -0.27612701
0.74919599 4.7238188 -0.368029
0.82524598 5.3643079 -0.47315499
0.809035 5.4265199 -0.385151
0.61523598 4.1933999 -0.22003099
0.62090898 4.266542 -0.17412101
0.63850302 4.4234629 -0.123009
0.62518603 4.3670959 -0.057950001
0.66781902 4.7038159 0.011388
0.69052601 4.9047098 0.095462002
0.68959302 4.9396081 0.18657701
0.66216099 4.7836518 0.27346599
0.60772502 4.4282799 0.34393901
0.615426 4.5233669 0.44829801
0.60473901 4.4837689 0.54438901
0.54028898 4.041368 0.58446199
0.715532 5.3521881 0.77403301
0.560233 4.2279062 0.712686
0.63035399 4.7998629 0.92682803
0.571778 4.393383 0.95882398
1.341275 10.400298 2.537183
0.56680799 4.4352708 1.197805
0.56265002 4.4437461 1.317615
0.96541703 7.6965308 2.487709
0.68968499 5.5504971 1.9428231
0.89232802 7.2501001 2.73207
0.86655802 7.1088619 2.869561
1.096122 9.1692677 4.1859722
0.59741598 5.3673902 3.3192079
0.556391 5.1066771 3.3321781
0.48611301 4.7700849 3.35498
0.47936901 5.0527129 3.3639591
0.49603999 5.3607469 3.4048851
0.60807699 6.655858 4.1077762
0.63020098 7.0793729 4.0796261
0.57958698 6.6866431 3.546289
0.62158298 7.4736838 3.399477
0.58996201 7.194726 3.0838871
0.420232 5.1989059 2.089963
0.84628499 10.623363 3.9858301
0.832708 10.608678 3.6963179
0.83139199 10.751878 3.458545
0.79196602 10.399025 3.0678511
0.336173 4.5538559 1.1048
0.44679999 6.052422 1.468363
0.331103 4.557209 0.98886001
0.33069301 4.6259651 0.887905
0.40751901 5.700654 1.09418
0.32947001 4.6853032 0.78487802
0.373413 5.3997779 0.77587801
0.32594201 4.7942729 0.578197
0.338792 5.07025 0.49902201
0.31960899 4.8680978 0.37539399
0.325234 5.0434279 0.28618601
0.33362401 5.268755 0.197492
0.32679901 5.257875 0.101532
0.31083199 5.0965152 0.012238
0.314325 5.2541518 -0.069140002
0.29542601 5.0364318 -0.13885701
0.269036 4.6794519 -0.189294
0.268576 4.7680111 -0.247924
0.25051701 4.5414119 -0.281187
0.31043801 5.6276841 -0.348445
0.24735101 4.681612 -0.36074001
0.22397099 4.6489549 -0.40575999
0.20659199 4.7468138 -0.33354101
0.187233 4.5450191 -0.236155
0.189887 4.743331 -0.191715
0.20472901 5.2670269 -0.14507499
0.22541501 5.9782362 -0.078584
0.20374 5.575263 0.013372
0.182235 5.1508198 0.099335
0.170527 4.9835949 0.18653899
0.172741 5.225769 0.29607999
0.16621999 5.211935 0.40124899
0.155931 5.0741849 0.49853301
0.192766 6.27285 0.61629999
0.14598601 4.9372149 0.59432501
0.165069 5.8112321 0.833345
0.156653 5.7501049 0.961236
0.163616 6.5659118 1.42142
0.215196 9.0580149 2.1921971
0.218091 9.6472893 2.5850241
0.20220099 9.4282827 2.774075
0.141969 7.423471 2.5790551
0.102841 5.7247181 2.1414471
0.162274 10.373678 4.4321551
0.151232 10.442083 4.7338352
0.054125 7.1980948 4.282742
-0.014965 5.1208668 3.5831549
-0.045444999 6.009222 4.1145201
-0.090692997 6.7860579 4.171133
-0.147167 7.2397389 3.4683371
-0.23095199 10.196688 4.35712
-0.238763 10.027876 4.0192451
-0.17989101 7.2042141 2.695287
-0.261354 10.001211 3.475162
-0.26418301 9.679595 3.1055131
-0.25091499 8.4724207 2.2706289
-0.29320601 9.9004221 2.653337
-0.31014201 10.077326 2.4393549
-0.219668 6.87818 1.489318
-0.317132 9.9299393 2.1501091
-0.20865899 6.3039932 1.207566
-0.21276399 6.2101941 1.038373
-0.210912 5.9543638 0.85406101
-0.215102 5.8796291 0.70793301
-0.228231 6.0465879 0.59421301
-0.241221 6.1999679 0.47743201
-0.22829001 5.6972942 0.322878
-0.23226801 5.6332698 0.210913
-0.28822601 6.7986288 0.13115001
-0.24368399 5.5946789 0.013423
-0.28159899 6.297163 -0.082800001
-0.289606 6.3119669 -0.173908
-0.29750001 6.3238449 -0.255674
-0.32241699 6.5305629 -0.40422601
-0.36252499 6.4333539 -0.56174099
-0.45323899 7.1560049 -0.37224901
-0.42467299 6.58394 -0.26644799
-0.418414 6.3718591 -0.175751
-0.43813899 6.555809 -0.086306997
-0.46931899 6.9020419 0.016581999
-0.386116 5.582624 0.107853
-0.39329901 5.5922661 0.20971701
-0.416298 5.8227849 0.330567
-0.43990201 6.0540948 0.46707499
-0.45686901 6.1883101 0.60936099
-0.51149601 6.8205142 0.82297498
-0.48857999 6.3182659 1.058975
-0.50841701 6.4770789 1.243857
-0.51722598 6.4926481 1.409575
-0.83288598 10.304115 2.5012031
-0.91220897 11.126051 2.9905031
-0.717682 8.3936253 2.9262111
-0.83115298 9.7207184 3.3888659
-0.87623501 9.8431158 4.2215862
-0.63498098 6.9498382 3.3426321
-0.79104501 8.1353436 4.86308
-0.95276302 9.455759 6.1647739
-1.157988 9.7785549 6.0519662
-0.85369903 6.8667011 3.4880691
-1.2989 10.252844 4.6847048
-1.278603 9.729208 3.4085529
-1.23169 9.2886105 3.0050399
-1.283466 9.5934496 2.847167
-1.38431 10.167129 2.482625
-0.88758701 6.4073348 1.238404
-1.006646 7.0261111 0.69702703
-1.032801 7.1494331 0.55584103
-1.002961 6.8861952 0.39405799
-1.008541 6.868494 0.25969699
-1.044731 7.0577712 0.137509
-0.99970597 6.6998062 0.016236
-1.058125 7.0352588 -0.093451999
-1.073496 7.0813818 -0.197129
-1.144489 7.4908972 -0.30603299
-1.080398 7.0167499 -0.368568
-1.021799 6.4855928 -0.50520498
-0.95931798 5.9099379 -0.52196401
-1.382995 8.1594791 -0.42964199
-1.377587 8.0705986 -0.33064899
-1.208583 7.0311828 -0.196358
-1.277666 7.3815951 -0.098403998
-1.260669 7.1838689 0.14057299
-1.371213 7.7084479 0.44335699
-1.4648 8.1793089 0.63938999
-1.845863 9.8444462 2.4233639
-1.793576 9.5051975 2.591234
-1.88923 9.8861456 3.2279749
-1.409474 7.2839589 2.7748079
-1.981853 9.8138866 5.5244098
-1.729203 8.4117975 5.27806
-1.9047281 8.4200993 5.3058109
-2.283982 9.4332228 2.855068
-2.302927 9.4634066 2.6090889
-1.570312 5.8850942 -0.46868601
-1.449952 5.3344898 -0.48192701
-1.788797 6.4625001 -0.470725
-2.356271 -7.645185 2.353308
-2.345979 -7.6431642 2.1417661
-2.334944 -7.6386328 1.932577
-2.3331139 -7.6642809 1.7338361
-1.695954 -5.5944128 1.119189
-2.3011639 -7.590807 1.518577
-1.75395 -5.8098688 1.0141439
-2.3092401 -7.6492362 1.335215
-1.578277 -5.249856 0.78580999
-1.904644 -6.3621159 0.79908299
-1.833882 -6.1515861 0.63037401
-1.634657 -5.5065112 0.44198799
-1.628795 -5.5100989 0.32536599
-1.5273941 -5.1890931 0.202352
-2.24157 -7.6153998 0.29696801
-2.224071 -7.5883179 0.152404
-1.4890029 -5.10215 0.012739
-2.209552 -7.5711489 0.018904001
-1.558883 -5.3646131 -0.073383003
-2.2064869 -7.593226 -0.103868
-2.192066 -7.5762668 -0.21707501
-1.642169 -5.7003379 -0.239573
-2.1710911 -7.5691791 -0.40880001
-2.163594 -7.5760698 -0.487095
-2.142772 -7.569294 -0.605326
-2.1148291 -7.6044679 -0.68810701
-2.061126 -7.6153798 -0.409578
-2.058363 -7.64013 -0.319552
-2.057687 -7.6728702 -0.21864399
-1.5155931 -5.6776891 -0.077192001
-2.0311069 -7.6088948 -0.103448
-2.047143 -7.704649 0.019107999
-2.0261049 -7.661139 0.152732
-1.422754 -5.4049702 0.20908099
-1.618174 -6.176311 0.36154899
-2.008333 -7.8125401 1.156296
-1.206697 -5.724885 3.3582859
-4.6791878 -23.402037 8.2897272
-1.454617 -7.5937252 1.292032
-1.447365 -7.603353 1.109471
-1.439551 -7.610178 0.931925
-1.433268 -7.625145 0.761922
-1.42179 -7.6124711 0.59588897
-1.412533 -7.6116419 0.438382
-1.40773 -7.6348748 0.29042599
-1.3974611 -7.6286178 0.14947499
-1.387476 -7.6237502 0.018572999
-1.383186 -7.6502938 -0.102121
-1.375708 -7.6594892 -0.214187
-1.366972 -7.6616659 -0.31430599
-1.361938 -7.6847372 -0.40517101
-1.341912 -7.6230121 -0.47851801
-1.249069 -7.6091862 -0.54131198
-1.233337 -7.6234789 -0.40091899
-1.223761 -7.6200681 -0.311683
-1.217383 -7.6366472 -0.21283799
-1.209847 -7.6462078 -0.101687
-1.2005 -7.6442852 0.018547
-1.194217 -7.6620522 0.14945599
-1.181708 -7.63974 0.28919199
-1.174105 -7.6490159 0.43821201
-1.165491 -7.6518679 0.59558201
-1.159729 -7.6735268 0.76211703
-1.150776 -7.6742258 0.93371701
-1.143748 -7.6879392 1.114154
-3.413826 -23.316427 4.5115428
-3.37077 -23.39934 5.7198901
-3.3377199 -23.376322 6.325675
-3.3164041 -23.420193 6.9580469
-1.187816 -8.6028528 3.2480769
-0.76645797 -5.9568138 3.447396
-0.88334697 -7.125196 4.6573219
-0.69540799 -5.9464092 4.1891379
-0.64204103 -6.0998111 3.6492269
