# .PCD v0.7 - Point Cloud Data file format
VERSION 0.7
FIELDS x y z
SIZE 4 4 4
TYPE F F F
COUNT 1 1 1
WIDTH 1555
HEIGHT 1
VIEWPOINT 0 0 0 1 0 0 0
POINTS 1555
DATA ascii
2.6809471 3.598985 2.149514
2.4500229 3.2969661 2.070605
6.1287851 8.2474318 5.1796622
9.8000317 13.21981 8.694972
6.1228051 8.2996264 5.9200621
2.731817 3.712074 2.742161
3.608881 4.9157972 3.7480509
4.868403 6.6638379 5.3533621
2.8499589 3.9200771 3.2708011
2.77178 3.8500249 3.3194349
2.7613339 3.8733289 3.256928
2.854172 4.0232921 3.2694869
2.9096889 4.1116552 3.267417
5.8376932 8.2695313 6.4019318
2.649785 3.7628951 2.8285789
3.541111 5.0535259 3.541981
5.8086171 8.2894869 5.8100438
5.7810822 8.2706299 5.5678911
2.3560729 3.3790309 2.1765461
2.395426 3.443996 2.114717
2.58601 3.727227 2.1728401
2.357353 3.4060979 1.8776799
2.7732179 4.016943 2.085258
3.117902 4.5387101 2.059474
2.6581061 3.87904 1.633402
1.909206 2.7930989 1.085052
2.4648271 3.605952 1.400825
2.4271719 3.559727 1.267383
1.913819 2.8138559 0.91161603
1.951368 2.8762381 0.84094602
1.894248 2.7990329 0.73143899
1.923339 2.8491471 0.65812498
1.932572 2.8700039 0.578192
1.792696 2.6689589 0.46087301
1.755149 2.619632 0.379412
1.879613 2.8124549 0.332192
2.101037 3.1516819 0.291462
2.175945 3.272284 0.222527
2.0796499 3.1353581 0.140746
1.969494 2.9767871 0.068792999
1.898647 2.8769569 0.008262
2.05129 3.1161139 -0.049005002
1.99714 3.0415461 -0.100146
2.098398 3.203856 -0.154671
2.3677559 3.6242859 -0.224749
2.1742179 3.336504 -0.24620099
2.1246099 3.2769821 -0.300515
2.0602541 3.2102971 -0.332546
2.0892241 3.288945 -0.273527
1.9425139 3.073741 -0.188769
2.535779 4.012495 -0.24642
2.4594679 3.9017661 -0.186267
2.1357059 3.3968749 -0.110436
2.163723 3.4503291 -0.053497002
1.910127 3.053808 0.0086340001
1.864949 2.9893031 0.067906998
1.895895 3.0467751 0.134241
2.0012169 3.2243681 0.214894
1.778553 2.873059 0.26000601
1.76985 2.8664291 0.33082399
1.812808 2.9436409 0.41596699
2.6333089 4.2759728 0.60424
1.864095 3.034816 0.51053602
2.4479849 3.98541 0.67044997
1.7956589 2.9310229 0.57440102
1.814397 2.9693389 0.66621101
1.716663 2.816747 0.71388298
2.0471981 3.3678889 0.95358902
1.851898 3.0545089 0.95689899
1.775677 2.93648 1.009447
2.2413139 3.706516 1.274156
2.0920279 3.468745 1.29913
2.2023289 3.6612439 1.484105
2.210777 3.6849749 1.607224
2.3618169 3.96803 2.0931931
2.2802739 3.841193 2.1395781
2.1522989 3.6352291 2.1295719
2.7914829 4.7148099 2.762007
2.1511941 3.6430111 2.23541
2.7046151 4.5802212 2.8104961
2.6316781 4.4685678 2.861485
2.59463 4.4173889 2.9406159
2.579411 4.4032011 3.036165
2.5657539 4.3915792 3.125994
2.5478799 4.3726401 3.2006991
2.5380311 4.3674111 3.276669
4.9931021 8.6382055 6.7334762
3.1793849 5.5599408 4.481524
3.140826 5.5522509 4.3676171
2.5210159 4.4930582 3.341974
2.5063391 4.4790859 3.2461331
2.509618 4.4972148 3.1652651
2.5128939 4.5154071 3.0745139
2.4927781 4.4915318 2.948581
2.5121369 4.5388508 2.8624511
2.4943421 4.519084 2.72734
2.059129 3.7408731 2.152529
2.5362329 4.6076422 2.651274
2.5696211 4.6811638 2.5577309
2.5973859 4.7448039 2.451967
2.6407189 4.837317 2.3543611
2.654566 4.876142 2.224607
2.216542 4.08283 1.7375391
2.700964 4.9751258 2.117275
2.0040181 3.701628 1.462121
2.7114511 5.0083289 1.97826
1.963313 3.6365271 1.325394
1.826856 3.393199 1.133618
1.997171 3.7199039 1.131045
1.804318 3.3700869 0.92489898
1.7892621 3.3513169 0.82218099
1.618714 3.0403869 0.65944201
1.714988 3.230258 0.61115599
1.601617 3.0251989 0.49067
1.623729 3.0756121 0.41847599
1.866961 3.5463071 0.39356801
1.710103 3.25753 0.283099
1.697969 3.2435801 0.20731799
1.704976 3.2661951 0.13783
1.690047 3.2467959 0.070546001
1.7639771 3.3984621 0.0091779996
1.817333 3.5112269 -0.051934
1.718735 3.3302121 -0.103145
2.259707 4.3783979 -0.13561
1.653306 3.2125909 -0.145915
1.677878 3.2696669 -0.190791
1.713143 3.347971 -0.232502
2.134608 4.1716361 -0.289702
1.722567 3.385767 -0.29230601
1.639583 3.2600811 -0.318129
1.845042 3.711494 -0.29096401
1.7181 3.4763911 -0.201315
1.74147 3.534009 -0.15910999
1.937368 3.9430971 -0.120918
2.2491901 4.5912309 -0.067157
1.612918 3.3021269 0.0088090003
2.3664911 4.8449159 0.012924
1.603091 3.291712 0.070565999
1.688799 3.4779589 0.144633
1.616675 3.339294 0.210089
1.826458 3.783824 0.32330099
1.581326 3.285738 0.358091
1.752423 3.652102 0.48740599
1.683586 3.519134 0.559205
1.680678 3.5235651 0.65236199
1.6568559 3.4840319 0.73860502
1.658561 3.4981041 0.837834
1.817292 3.844419 1.028842
2.0656171 4.3827872 1.297946
2.5342519 5.3771272 1.592416
1.917148 4.0800309 1.326081
1.936175 4.1329842 1.463735
1.907586 4.08428 1.5658081
2.418061 5.1772451 1.984823
1.8222851 3.913475 1.61458
2.3734379 5.0971131 2.1029129
2.329922 5.0188799 2.2171681
2.2954831 4.9597468 2.3347189
2.2601709 4.8983431 2.4453609
2.2230029 4.8325348 2.547796
2.202533 4.8026962 2.6634281
2.1716471 4.7498779 2.7595749
2.15012 4.7172718 2.8605189
2.120429 4.6664629 2.9421101
2.10429 4.6452589 3.0341201
2.0884399 4.6245322 3.1186631
2.0744369 4.60776 3.195888
2.0401521 4.545701 3.232044
2.0218301 4.5329919 3.3496771
1.985956 4.5087018 3.4472821
1.997973 4.593648 3.4298029
2.017813 4.668859 3.371141
3.3214879 7.7843208 5.0353918
3.1469929 7.399127 4.6152792
3.6259489 8.5527983 5.1258411
2.340234 5.5739918 2.8955369
2.7161679 6.4904718 3.189332
2.606107 6.2888498 2.5460551
1.857204 4.4964142 1.689839
1.776854 4.3303161 1.376878
1.56058 3.8158531 1.104393
1.459448 3.580415 0.93548203
1.498723 3.6889989 0.861736
1.548944 3.8253469 0.79012603
1.5366549 3.8076839 0.68615001
1.3937041 3.46504 0.53536701
1.442964 3.599577 0.46661901
1.410475 3.5303791 0.37333801
1.374678 3.452395 0.28593799
1.783872 4.495235 0.273862
1.714476 4.3350182 0.17439
2.1944561 5.5486379 0.223212
1.35469 3.4369709 0.071202002
1.35936 3.4605761 0.0089119999
1.380748 3.5270391 -0.049754001
1.35118 3.463352 -0.10232
1.393284 3.583539 -0.155276
1.3901941 3.5879059 -0.19976
1.5862221 4.1079831 -0.27224001
1.32408 3.4528999 -0.28455701
1.309767 3.4635799 -0.32281899
1.656853 4.381424 -0.40836501
1.4435149 3.8714719 -0.29005399
1.264495 3.415539 -0.18908
1.369445 3.712235 -0.159796
1.381254 3.7576621 -0.110188
1.751658 4.7653341 -0.139737
1.396894 3.81388 -0.053351998
1.3072211 3.581907 0.0091390004
1.348266 3.707737 0.076038003
2.0111239 5.5305982 0.113422
2.0217221 5.5798812 0.22201499
1.2726769 3.5253029 0.212237
1.811378 5.0174999 0.302073
1.429531 3.974232 0.32498899
1.36622 3.812094 0.39767301
1.47741 4.137444 0.52862
1.307959 3.6763761 0.55934697
1.317462 3.7167289 0.65895498
1.557817 4.411037 0.89561498
1.399143 3.9764431 0.91228902
1.465899 4.1816502 1.072112
1.807053 5.1548309 1.3216209
1.521161 4.3553338 1.2358429
2.014519 5.7679 1.636664
1.986879 5.7100449 1.778456
1.952119 5.631227 1.911438
1.9417861 5.6224999 2.0661969
1.927399 5.6019082 2.215713
1.928082 5.6251359 2.382684
2.339581 6.851593 3.0929229
3.677834 10.853122 5.4886899
2.11989 6.3038058 3.514055
2.0683501 6.1742868 3.5929201
2.5878711 7.7251229 4.4953771
2.079309 6.2310052 3.7704799
2.096329 6.3064108 3.953969
2.6517899 7.9774098 5.0016451
2.0698471 6.2509742 4.0470362
2.4625609 7.4660082 4.9720941
2.3536861 7.6083159 4.8947721
1.914687 6.214788 3.869091
2.342175 7.6338291 4.5834179
1.837224 6.0129628 3.469243
2.3870361 7.8124142 4.5074549
1.628774 5.3753872 2.831327
1.6244169 5.3835158 2.693372
1.626815 5.4141788 2.562613
1.623273 5.4252658 2.4191821
1.647562 5.529809 2.3120141
1.6423711 5.5358558 2.159663
1.685504 5.705555 2.0665259
1.097168 3.729924 1.2469079
1.709572 5.8118482 1.942893
1.087534 3.7130871 1.138133
1.7889169 6.1077652 1.872148
1.307543 4.4835572 1.25111
1.826503 6.2630701 1.747673
1.299063 4.4737949 1.12714
1.229146 4.251431 0.957766
1.16228 4.037735 0.80441701
1.1211931 3.912075 0.68005198
1.0669 3.739018 0.55736101
1.305106 4.5738249 0.68180197
1.009022 3.5518229 0.44428
1.1183521 3.954123 0.40353701
0.989618 3.5145359 0.28095099
1.152061 4.1097398 0.24169201
1.079022 3.866452 0.150166
1.088729 3.9188199 0.078388996
1.209129 4.3718629 0.010872
1.514344 5.47543 0.013617
1.083717 3.936187 -0.053628001
1.064558 3.884234 -0.110849
1.357846 4.95435 -0.141388
1.0012029 3.6697741 -0.153622
1.020231 3.756686 -0.20209301
1.092131 4.0399952 -0.25872701
1.094517 4.0864549 -0.325526
0.98319203 3.7402661 -0.33714899
0.98029703 3.800962 -0.27555799
0.96859097 3.79198 -0.203182
0.97725499 3.8445041 -0.160199
0.975178 3.8550661 -0.109446
1.0529931 4.1831322 -0.056662001
1.056729 4.2186508 0.010424
1.1116019 4.4596982 0.088583
1.345674 5.3987861 0.107236
0.95670903 3.857348 0.148671
0.96620399 3.915077 0.22835
0.892353 3.63398 0.28793201
1.155564 4.705873 0.37286201
0.988065 4.0440192 0.408815
0.869156 3.5753319 0.442727
0.98366499 4.0669632 0.599787
1.161456 4.8020368 0.70819402
1.004501 4.1743059 0.717466
0.94512802 3.947715 0.777152
1.0310659 4.3288841 0.963054
1.041419 4.394978 1.092806
1.451281 6.1562328 1.694368
1.441077 6.1448741 1.856627
1.439723 6.17136 2.032372
1.561111 6.7626071 2.595799
1.404323 6.1158409 2.514353
1.334237 5.8416929 2.559823
1.272169 5.5998769 2.6030729
1.239562 5.4858551 2.693804
1.215119 5.4068651 2.7935159
1.193272 5.3386102 2.8903821
1.166767 5.2486768 2.966804
1.157753 5.236815 3.078512
1.143962 5.2031221 3.1696179
1.134073 5.1868439 3.263181
1.1213861 5.1574998 3.3380699
1.106138 5.1160021 3.3953061
1.084613 5.0734391 3.5012729
1.049467 5.0230789 3.5906079
1.02578 5.0262032 3.512285
1.0194941 5.0553131 3.4181001
1.023013 5.1033258 3.3762591
1.0272551 5.1555281 3.324707
1.0289789 5.1956849 3.255327
1.030887 5.2372112 3.1757531
1.034543 5.2881708 3.0929489
1.045897 5.3793812 3.0238111
1.086271 5.6571531 2.9037981
1.029114 5.4972348 2.240973
1.133876 6.0959592 2.3190539
1.812943 9.8101749 3.4653189
1.070603 5.831099 1.90136
1.851974 10.086884 3.289053
0.87077397 4.8055439 1.308296
0.84113801 4.6729031 1.148775
0.812159 4.5421419 0.99858999
0.73388797 4.132113 0.80347699
0.76885003 4.3583369 0.73955202
0.78567898 4.4841561 0.65257198
0.72033101 4.1394868 0.50556397
0.812823 4.703321 0.468725
0.74679202 4.3513298 0.339719
0.81654 4.791131 0.27521801
0.686652 4.0574298 0.153942
0.73265398 4.3600512 0.085211001
0.73035902 4.3774772 0.010637
0.69041002 4.1678391 -0.055493001
0.72364801 4.4002032 -0.122734
0.729819 4.4701219 -0.182918
0.703794 4.342412 -0.228378
0.68598902 4.263926 -0.26699501
0.71846199 4.5328479 -0.353145
0.83084399 5.2418752 -0.408384
0.69272602 4.5057702 -0.39742199
0.80072302 5.3743048 -0.38144001
0.64598101 4.405899 -0.231178
0.64408302 4.428762 -0.180739
0.58641601 4.0653682 -0.11305
0.59814501 4.181067 -0.05548
0.61427099 4.3296289 0.010482
0.63810003 4.5354819 0.088275
0.62712502 4.4952922 0.169792
0.67633998 4.8895369 0.279515
0.61935699 4.516253 0.35076699
0.60171998 4.4257979 0.43862301
0.59025198 4.379529 0.531726
0.58250099 4.3602982 0.63057798
0.60824901 4.5936532 0.77432901
0.57775402 4.4026079 0.85010999
0.594675 4.572742 0.99795502
0.59169 4.5914569 1.120085
0.58424699 4.5752168 1.235585
0.57703501 4.5608668 1.352326
0.85047197 6.8498502 2.397603
0.584665 5.3135462 3.380831
0.55962402 5.1409249 3.354491
0.48281699 5.0942502 3.391582
0.49568099 5.3624768 3.4059539
0.66227698 7.5471959 4.180387
0.82506102 9.5292721 5.0538478
0.75375098 8.9474735 4.300755
0.57404101 6.9100809 3.1430919
0.58589399 7.1535392 3.0662091
0.45398399 5.7057362 2.1407461
0.59455001 7.5838728 2.6423831
0.34644201 4.4859161 1.442969
0.56963497 7.489151 2.209383
0.472875 6.3140631 1.696179
0.59666699 7.966989 2.140214
0.33680901 4.568429 1.108327
0.33094901 4.5611401 0.98970598
0.339901 4.7611909 0.913854
0.54576498 7.7718301 1.301921
0.32093 4.647316 0.66775399
0.36489001 5.3747711 0.648202
0.32392901 4.8548002 0.47781399
0.30857599 4.7069521 0.36296499
0.31326601 4.8651152 0.27606601
0.324606 5.13415 0.19244599
0.38911101 6.154398 0.23068801
0.30815101 4.9655242 0.095886
0.302017 4.9597988 0.01191
0.302793 5.0695271 -0.066710003
0.29792401 5.0873542 -0.14026
0.26389301 4.5976791 -0.185985
0.26088601 4.6394129 -0.241236
0.280155 5.0875649 -0.31500101
0.27756801 5.2631059 -0.405545
0.262422 5.4579701 -0.47636801
0.240501 5.5381379 -0.38914299
0.22998001 5.5957341 -0.290748
0.184808 4.6275358 -0.187034
0.19245 4.9633889 -0.136711
0.198837 5.2868061 -0.069495
0.18219 4.9986668 0.011989
0.187241 5.3067122 0.102342
0.17942099 5.2582598 0.19682001
0.175036 5.3106041 0.30088601
0.163692 5.1481719 0.396339
0.15900999 5.1905851 0.50996798
0.148321 5.0324998 0.605793
0.143391 5.065176 0.72635698
0.127864 4.7099319 0.78735
0.15719999 5.790544 0.96799397
0.123921 4.7687521 0.91329002
0.144256 5.551271 1.063154
0.117648 4.972106 1.203333
0.215905 9.5913 2.5700159
0.22099701 10.350991 3.045557
0.102125 5.715363 2.137944
0.112078 6.708487 2.6884229
0.128343 8.255187 3.527024
0.092490003 7.6655231 3.864378
0.057454001 6.6925611 3.8416679
0.043961 7.0182571 4.3135571
0.0084729996 5.2187419 3.521971
-0.038419999 5.0166202 3.4348869
-0.094393998 7.0126481 4.3104148
-0.115419 6.8126101 3.759594
-0.145063 8.0136652 4.2348981
-0.18600801 8.177743 3.494417
-0.136013 5.6895032 2.2803991
-0.238648 9.5207014 3.561955
-0.261273 9.961525 3.461381
-0.273175 9.5685368 2.8158419
-0.293926 9.8926687 2.6512671
-0.31198299 9.739418 2.1088619
-0.193948 5.8426108 1.119189
-0.206383 6.0071111 1.004419
-0.20716199 5.832665 0.83660799
-0.20867801 5.6891112 0.68499601
-0.20657 5.4588161 0.53645301
-0.206338 5.2903271 0.407386
-0.214651 5.3441229 0.302865
-0.22335801 5.404603 0.202352
-0.260124 6.2942209 0.23566
-0.21201 4.9895701 0.096252002
-0.28036699 6.2561808 -0.082262002
-0.28672099 6.2360482 -0.171817
-0.308034 6.534411 -0.26418799
-0.30388001 6.291183 -0.32698801
-0.30879101 6.242435 -0.38639301
-0.35650301 6.883399 -0.53037
-0.34590599 6.127965 -0.535079
-0.43293601 7.0853162 -0.49831501
-0.40243801 6.2299261 -0.252123
-0.42407599 6.4486241 -0.17787001
-0.423877 6.3332839 -0.083378002
-0.48163801 6.9540458 0.134349
-0.39257199 5.574285 0.20904399
-0.41264999 5.7639899 0.327232
-0.43882599 5.9361701 0.58453703
-0.44710001 5.9541688 0.71844602
-0.485302 6.2680669 1.0505691
-0.490877 6.2459531 1.1994801
-0.54457998 6.8277502 1.482338
-0.80941302 10.001773 2.4278319
-0.65028501 7.9220872 2.1293459
-0.74795902 8.9839687 2.651881
-0.83032 9.8348484 3.16537
-0.64692003 7.5577798 2.6348369
-0.84663498 9.8909969 3.448256
-0.63581097 7.2301192 2.9082429
-0.87376797 9.8054829 4.2054791
-0.82083398 8.7510958 4.6441388
-0.95079702 8.0246496 4.9665079
-1.009147 8.3510056 4.8283448
-1.037917 8.50599 4.7282381
-0.85563397 6.8790579 3.49437
-1.283832 10.224653 4.93576
-1.251938 9.8777924 4.5133691
-1.294793 9.9379883 3.7483201
-0.92459899 7.032743 2.4638841
-1.21174 9.1346836 2.955261
-1.3445081 10.046004 2.9814961
-0.95979601 7.1085768 1.92156
-1.379665 10.129505 2.473453
-0.84592497 6.15728 1.3450609
-0.90175498 6.5075011 1.257771
-1.282585 9.1773176 1.548494
-1.0091799 7.1603189 1.0365371
-0.96396899 6.7824268 0.82428902
-0.96923 6.7630372 0.67093301
-1.015743 6.9721112 0.398976
-1.096501 7.4656281 0.282276
-0.99651098 6.7303638 0.13113099
-1.0700541 7.1695671 0.017375
-1.091085 7.2527561 -0.096341997
-1.072376 7.0724521 -0.196881
-1.089026 7.1263928 -0.291143
-0.980847 6.2245669 -0.48487401
-0.91778499 5.6532621 -0.49929699
-1.1577539 6.9276381 -0.493063
-1.183844 6.9838328 -0.36773801
-1.27918 7.4934049 -0.30700201
-1.198859 6.9740272 -0.194763
-1.210053 6.9904299 -0.093189001
-1.176035 6.7472572 0.016416
-1.239144 7.06076 0.138164
-1.25453 7.0999742 0.26971599
-1.2626899 7.0980129 0.40824801
-1.401233 7.824018 0.61161703
-1.769068 9.7473087 1.191994
-2.049253 10.999711 2.42149
-1.8209651 9.7116594 2.390676
-1.3811769 7.2733569 2.1777761
-1.774371 9.0569487 3.942661
-1.899455 9.3499708 5.4765048
-1.717723 8.3071022 5.364965
-1.8687 8.3056364 5.3842082
-2.1560531 9.4294329 5.5521741
-2.5840671 10.893383 4.4860358
-2.2710321 9.524559 3.6621439
-2.215126 9.1488371 2.768996
-1.5111901 5.6635242 -0.45104
-1.4084049 5.1816368 -0.46811801
-2.3721559 -7.665381 2.360363
-2.362452 -7.6653829 2.1487529
-2.345156 -7.6405869 1.9337519
-2.339359 -7.6531792 1.731932
-1.660059 -5.4533982 1.09136
-2.333349 -7.6652012 1.533996
-1.592954 -5.2547188 0.91755903
-2.325192 -7.6701722 1.339336
-1.8506581 -6.13029 0.91791397
-2.303524 -7.6304059 1.142532
-1.890524 -6.28861 0.79012299
-2.292696 -7.62639 0.958206
-2.289068 -7.6463199 0.78381401
-1.740972 -5.8400068 0.468916
-1.703038 -5.7369728 0.33887801
-1.588318 -5.3732448 0.209604
-2.2359049 -7.5963039 0.15261599
-2.2258551 -7.594511 0.018968999
-2.222785 -7.6165991 -0.104222
-2.204407 -7.5862188 -0.21743301
-2.1927481 -7.5787301 -0.31862301
-2.1797979 -7.5666761 -0.40880001
-2.169832 -7.5649409 -0.48653901
-2.1394811 -7.5246258 -0.60194999
-2.096611 -7.711298 -0.414866
-2.0927341 -7.732276 -0.323506
-2.0821159 -7.7284088 -0.220294
-2.078191 -7.7494898 -0.105391
-2.0776701 -7.7834468 0.019308999
-1.420797 -5.3474412 0.106639
-2.0556951 -7.7731438 0.30078101
-2.0405569 -7.7520909 0.45392901
-2.0417399 -7.7931652 0.61990303
-2.0186961 -7.7416482 0.785671
-2.025167 -7.8033409 0.97003299
-1.573951 -6.0936809 0.90216398
-2.011131 -7.786263 1.1527489
-1.376459 -5.767292 3.2716489
-1.207505 -5.6972351 3.342854
-1.462404 -7.6367612 1.114579
-1.458096 -7.66224 0.93849498
-1.449194 -7.6636648 0.76592898
-1.440608 -7.6667671 0.60026199
-1.429642 -7.6572032 0.44109601
-1.419342 -7.6510201 0.29109901
-1.411214 -7.6565871 0.15005299
-1.4042439 -7.6684661 0.018686
-1.397236 -7.6802649 -0.102541
-1.3845659 -7.6609411 -0.214269
-1.373878 -7.6523089 -0.31398299
-1.3683439 -7.672441 -0.40459999
-1.362534 -7.6913319 -0.48289901
-1.330309 -7.611783 -0.594585
-1.2562571 -7.6019359 -0.540892
-1.233472 -7.5728712 -0.39832699
-1.2244149 -7.5723948 -0.30978599
-1.2184139 -7.5909271 -0.21160001
-1.207625 -7.57974 -0.100821
-1.201466 -7.5975661 0.018437
-1.191063 -7.5886722 0.148049
-1.184763 -7.6058941 0.287958
-1.172323 -7.5836291 0.43453801
-1.166059 -7.6013489 0.59174597
-1.157836 -7.6063719 0.75556898
-1.149717 -7.6121359 0.92631
-1.14426 -7.635818 1.106775
-3.4660101 -23.312943 3.9385641
-3.4431939 -23.344872 4.5177479
-3.4252789 -23.411007 5.1204958
-3.3982379 -23.415009 5.7245941
-3.278985 -23.548315 8.8922758
-0.79609102 -6.131381 3.5489509
-0.90431499 -7.1590571 4.5637221
-2.30019 -23.411608 10.049543
-2.219774 -23.426863 8.1738987
-2.1851561 -23.348471 7.5208459
-2.1595249 -23.365257 6.9024529
-2.1326749 -23.369469 6.2863441
-1.630192 -18.823553 3.1573119
-0.656712 -7.6861448 1.105782
-0.64867902 -7.6969991 0.929416
-0.64173597 -7.721108 0.76084697
-0.63252801 -7.7182331 0.59588897
-0.62461001 -7.7313838 0.43923
-0.61362302 -7.7062011 0.28919199
-0.603697 -7.6939192 0.148743
-0.59561801 -7.7049909 0.018523
-0.586447 -7.7020388 -0.101464
-0.57453603 -7.662581 -0.21149001
-0.56573802 -7.6638832 -0.31035101
-0.555511 -7.6455221 -0.397964
-0.546224 -7.6398749 -0.47352001
-0.526658 -7.613246 -0.58722001
-0.45312399 -7.5647912 -0.53199899
-0.434008 -7.5373478 -0.39195001
-0.42666 -7.561799 -0.30587199
-0.41783801 -7.560595 -0.208409
-0.409596 -7.5702729 -0.099586003
-0.401896 -7.5903459 0.018219
-0.393154 -7.5914149 0.14650799
-0.383385 -7.5719972 0.283622
-0.376084 -7.60151 0.430976
-0.36752301 -7.6066141 0.58599198
-0.35897201 -7.6118841 0.74833697
-0.349852 -7.6050448 0.91603601
-0.34221801 -7.631249 1.094998
-1.122797 -26.399242 5.0587268
-1.0625319 -26.419725 6.397398
-1.002578 -26.447664 7.7854719
-0.91333801 -26.522858 9.9256907
-0.163605 -6.8104649 4.0531631
-0.187462 -9.1208277 5.9177041
-0.110112 -8.086977 5.6590919
-0.061019 -6.785563 4.6461372
0.071782 -8.6008081 3.2168989
0.37085 -26.251848 6.3522458
0.14684799 -7.8315582 1.1228091
0.156295 -7.8508062 0.94482702
0.16360199 -7.7669082 0.76289898
0.199953 -7.7829862 0.15005299
0.208661 -7.7721772 0.018635999
0.21781801 -7.7782788 -0.102213
0.22643 -7.7647581 -0.213801
0.234965 -7.7501192 -0.31313601
0.243193 -7.7267628 -0.40133399
0.25234801 -7.7331119 -0.478333
0.26909801 -7.7005219 -0.592897
0.33768901 -7.6387219 -0.53675997
0.36620101 -7.680007 -0.31051299
0.37387201 -7.654973 -0.21094
0.38388899 -7.6777458 -0.100978
0.39335299 -7.6889229 0.018454
0.402123 -7.686059 0.148338
0.41297999 -7.7225561 0.28930399
0.41928801 -7.674242 0.43521601
0.429921 -7.7052031 0.59381801
0.44022 -7.7292342 0.76025999
0.44963399 -7.7370448 0.932522
0.57260901 -7.246963 4.172718
0.67440999 -8.4114132 5.0205641
0.70113403 -8.6197138 5.3152361
0.63960999 -7.752481 4.9197111
0.40976501 -4.8974628 3.187963
0.47484899 -5.2378769 3.6800439
0.47311199 -4.8448062 3.2263949
0.48132399 -4.8707161 3.174902
0.78934097 -7.8032651 4.8204179
0.87443799 -8.5458984 5.1110659
0.77002501 -7.4405599 4.2936878
0.87974799 -8.5007858 4.9055071
0.85751402 -8.193368 4.5456209
0.97189599 -8.1876192 1.994895
0.979846 -8.1738968 1.7816401
0.98624098 -8.1474733 1.571227
0.995803 -8.1475563 1.371641
1.003993 -8.1364918 1.175168
1.011647 -8.1212034 0.98472703
1.0208631 -8.1187077 0.80355603
1.0315191 -8.1275854 0.630413
1.036366 -8.0908279 0.46190101
1.044094 -8.0770998 0.30466899
1.0524271 -8.0681381 0.156817
1.0605071 -8.0574856 0.019478999
1.0726219 -8.0773897 -0.107033
1.0797909 -8.0599117 -0.22381601
1.0878249 -8.0492039 -0.328026
1.096946 -8.0466375 -0.421606
1.106721 -8.0487566 -0.50227398
1.123175 -8.0308666 -0.62396902
1.161473 -8.0336866 -0.70764798
1.196215 -8.0122585 -0.56869298
1.2154911 -8.0144348 -0.42082801
1.2284189 -8.0370359 -0.32834801
1.236874 -8.0302248 -0.22362299
1.247908 -8.0400286 -0.106876
1.262091 -8.0698795 0.019578001
1.270105 -8.0600262 0.15726
1.2807961 -8.0672474 0.30556601
1.293211 -8.0851116 0.46365401
1.3042949 -8.0943527 0.63087398
1.315686 -8.1054115 0.80638999
1.324452 -8.1002331 0.98759401
1.337733 -8.1224346 1.179993
1.3496979 -8.1364508 1.378234
1.3619421 -8.1519079 1.582321
1.373605 -8.163599 1.791581
1.386086 -8.1800098 2.007359
4.0039039 -23.302767 6.955225
4.0410128 -23.356798 7.6020789
4.1039639 -23.398663 8.8849201
1.504017 -8.4601088 3.6708081
1.520313 -8.494812 3.911834
1.718055 -9.2897587 5.4227409
4.375258 -23.505514 14.225186
1.705235 -8.4531107 5.9042768
2.043612 -10.011028 6.7721138
4.8806968 -23.357502 14.197064
1.927446 -9.067008 4.8978128
2.0922821 -9.7317286 4.7677221
5.0564241 -23.256886 10.167399
1.868583 -8.5469217 3.5055881
5.1651769 -23.495449 8.9973688
2.0519791 -9.2322311 3.0331359
5.2069201 -23.173761 6.3626781
1.828815 -8.0955324 2.008064
1.830014 -8.0575132 1.788197
1.843317 -8.072835 1.58533
1.850562 -8.061636 1.382189
1.8570139 -8.0470934 1.1838239
1.8696541 -8.0592995 0.99547899
1.87758 -8.0511999 0.81186301
1.880584 -8.0221643 0.63401902
1.888983 -8.0162487 0.46636701
1.899495 -8.0193443 0.30829501
1.906278 -8.00667 0.158628
1.919369 -8.0205135 0.019766999
1.929642 -8.0224829 -0.108386
1.9343621 -8.0013828 -0.226567
1.960687 -8.0694456 -0.33537
1.995971 -8.1734896 -0.43679601
2.056638 -8.3798399 -0.53343499
2.0692699 -8.3479357 -0.66179198
2.12514 -8.406661 -0.75593603
2.113332 -8.2002172 -0.59446299
2.3111069 -8.7991066 -0.250393
2.3109939 -8.7574263 -0.118973
2.3366799 -8.8134766 0.021855
2.352879 -8.8333101 0.176183
2.367295 -8.846324 0.34257501
2.3797779 -8.852005 0.519059
2.38835 -8.8430738 0.70483202
2.4037809 -8.8595343 0.90148401
2.4145229 -8.858613 1.104787
2.428005 -8.8676291 1.317914
2.4368081 -8.8595791 1.535473
2.4524119 -8.876193 1.763024
2.4692299 -8.8969517 1.998237
2.477247 -8.8859873 2.23194
2.4856901 -8.8735027 2.4685819
2.497628 -8.8766232 2.7125549
2.531996 -8.9590015 2.9858
2.5463221 -8.9700804 3.2389131
2.558399 -8.9731493 3.4897909
2.5879641 -9.037178 3.7666941
6.9268169 -23.569613 13.555217
1.918413 -6.445014 4.1329088
1.778092 -5.9484549 3.9265749
1.7992361 -5.705307 3.96504
7.4464889 -23.423693 15.544876
7.4777761 -23.335089 14.579014
7.6616998 -23.626808 13.123746
7.6845179 -23.604074 12.513204
7.7059069 -23.5772 11.880642
7.7246399 -23.54237 11.231402
7.6625428 -23.262232 10.462823
2.9279439 -8.6855831 2.455385
2.923557 -8.6395826 2.206778
2.941401 -8.6593523 1.9792
2.947494 -8.6444359 1.7485451
2.953721 -8.630044 1.5242651
2.973738 -8.6558752 1.311954
3.000108 -8.6998634 1.107295
4.7833648 -13.819216 1.43608
3.1728899 -8.9979401 0.022869
2.9181089 -8.214798 -0.23993801
2.94981 -8.2737207 -0.35473901
3.0348451 -8.4812403 -0.46764401
3.0743201 -8.5603228 -0.56231302
3.006408 -8.3108082 -0.68005198
3.1109149 -8.4769459 -0.787202
3.102751 -8.3353558 -0.62436497
3.105159 -8.2831907 -0.459245
3.224036 -8.5701656 -0.36978999
5.3100219 -13.823485 0.83854598
5.330296 -13.828448 1.140375
3.5133431 -8.7511063 3.5269239
3.525249 -8.7514381 3.7804561
3.5644381 -8.8192854 4.0636601
3.5783939 -8.8244267 4.3164349
3.603126 -8.8559561 4.57938
3.6130519 -8.851017 4.8191071
3.4301009 -8.3751431 4.7819548
3.389662 -8.2491541 4.921001
3.4001229 -8.2474709 5.1205649
3.3914809 -8.1995487 5.2792869
3.4002459 -8.1938982 5.452424
3.404279 -8.1768942 5.601757
2.8926661 -6.9254141 4.868474
3.401614 -8.1439028 5.7250552
2.90113 -6.9007578 5.0519252
2.930043 -6.8802161 5.232553
3.4562981 -8.0128889 5.974896
3.498302 -8.0589323 5.8229799
3.5082991 -8.0564423 5.7000222
3.4861169 -7.980279 5.5076818
3.8811481 -8.8565969 5.9430528
3.459867 -7.8704829 5.1151562
3.8645101 -8.7909622 5.7133899
3.8906291 -8.8226681 5.53475
3.8973341 -8.8102264 5.3157048
10.463188 -23.2159 10.203585
10.620217 -23.49176 9.6422901
10.567702 -23.090261 6.8025718
6.4324121 -13.800742 1.832073
6.4431338 -13.782099 1.494035
4.1328721 -8.6827469 -0.126315
3.9610319 -8.247838 -0.47500601
3.8431759 -7.978745 -0.54750299
3.9645381 -8.1822453 -0.699615
3.977107 -8.1122751 -0.78763598
4.0088539 -8.0821981 -0.63332802
4.0752749 -8.1685629 -0.47391701
12.393779 -23.532991 9.2386618
4.570066 -8.6048861 4.1622648
4.4089351 -8.2552748 4.4826169
4.7566051 -8.8078356 5.7458248
4.6374669 -8.3543491 6.6858811
4.6418352 -8.0517635 4.684968
7.6592212 -13.040312 4.8502078
5.3074398 -8.6871147 -0.13372301
5.4005389 -8.8165102 -0.28456399
5.0109439 -8.1381311 -0.49615899
5.0065441 -8.1099157 -0.58921599
5.0899801 -8.202528 -0.742809
5.0215192 -8.0091391 -0.82411301
5.0935731 -8.041069 -0.66820198
5.2197819 -8.1982393 -0.50455803
8.8838806 -13.706596 0.92493302
8.756506 -12.847899 8.5791407
5.1578932 -7.5490608 5.2480068
5.2684908 -7.339694 5.3754139
10.363457 -13.719998 1.323047
10.364913 -13.655973 0.64133698
6.6549602 -8.6841154 -0.30112699
6.764369 -8.8057356 -0.44843799
6.3919969 -8.3010616 -0.54390901
6.282155 -8.1388636 -0.63561702
6.2577572 -8.0685339 -0.78569603
6.3285532 -8.08214 -0.89489502
6.4585452 -8.1698408 -0.73108703
6.8648162 -8.6424932 -0.57299399
7.0203762 -8.8173428 -0.455176
7.2949228 -9.1404114 -0.32187101
10.974283 -13.652894 0.33760601
11.027712 -13.68686 0.65752298
11.05933 -13.693598 0.99673402
11.114837 -13.729709 1.359259
8.6762648 -10.418044 5.0707412
6.0211201 -7.195909 4.0082669
5.8730111 -6.8720908 5.7172132
10.076382 -11.437298 10.102925
12.727394 -13.598165 1.054684
12.746415 -13.58693 0.69692498
12.802531 -13.583547 0.044739999
8.1719294 -8.6503735 -0.156314
7.734129 -8.1113262 -0.69287902
7.7785888 -8.1202316 -0.865255
7.8144588 -8.0823803 -0.98009402
7.8085952 -8.0018177 -0.784868
9.0383205 -9.2191486 -0.67025501
8.5584469 -8.6893444 -0.33568299
12.019124 -12.09039 0.637748
11.96871 -12.011837 0.96021199
13.024891 -13.0114 1.807951
11.653022 -11.506909 3.5442431
9.8472462 -9.5009031 6.5539432
9.2897825 -8.8801832 7.3766799
9.2652845 -8.8361979 7.6175132
7.1744132 -6.5616102 5.9755182
9.4139891 -8.5898657 7.582232
7.2527199 -6.5870171 5.4060469
8.8865528 -8.0521011 6.3362298
10.59689 -9.4462414 4.9310489
11.812663 -10.40768 3.407177
10.368532 -8.8403559 -0.70737702
9.5914192 -8.1585617 -0.77846301
9.5310364 -8.0691757 -0.960926
9.6260557 -8.0732126 -1.095257
9.6908312 -8.051239 -0.88444698
10.435272 -8.628871 -0.70297003
10.691523 -8.7990913 -0.38110599
11.097293 -8.813838 4.1687331
9.784153 -7.6788402 5.3133211
9.6604223 -7.527597 6.173553
9.9850006 -7.2900672 6.23207
9.9746609 -7.2471442 5.5888648
9.8390846 -7.1312151 5.191144
11.834797 -8.0652113 -1.102015
11.85722 -8.0002213 -1.246982
10.785427 -6.848474 4.0974212
14.716297 -9.1302738 9.5559978
13.167054 -7.6289678 7.2887349
15.819828 -9.0925827 7.311336
11.187656 -6.3613238 3.78578
11.609683 -6.5834608 3.5753031
15.276562 -8.383935 0.041768
15.316577 -8.3827991 -0.22935501
15.362183 -8.3845911 -0.481693
15.352905 -8.3564348 -0.70592701
15.354431 -8.334199 -0.90698099
15.711261 -7.924026 3.368849
15.759064 -7.9251938 3.8175271
15.735574 -7.890532 4.2590532
15.804456 -7.9023299 4.7335181
9.8539333 -3.570673 5.5378361
8.9196081 -3.2203979 5.2326088
8.7369757 -3.1430111 5.329649
8.5867224 -3.077703 5.4270558
8.9483528 -3.1956151 5.839901
9.0661573 -3.225836 6.086031
8.7921762 -3.116853 6.0510349
6.1973419 -2.18081 4.4337902
8.7627573 -3.083565 6.269176
6.2813668 -2.177664 4.6517949
6.1765242 -2.1092629 4.4687428
8.7800608 -2.975626 6.1445141
8.8747463 -2.9962471 6.0760689
8.826128 -2.968435 5.889328
8.6768141 -2.907006 5.6241708
8.6108971 -2.8738201 5.400979
8.6817417 -2.8862791 5.2514911
8.8477602 -2.9300671 5.1427498
10.00708 -3.30112 5.5677352
9.9976835 -3.2723119 5.0385709
12.390056 -3.2276111 3.429879
12.356632 -3.2036071 3.7550199
13.229269 -3.3971009 4.7443461
12.527631 -3.2014489 4.8360329
10.429898 -2.6267331 4.8754458
10.797162 -2.705898 5.3314509
6.8257122 -1.702195 3.5461349
6.7295408 -1.669925 3.6635489
6.6404238 -1.639627 3.7740879
6.443933 -1.583184 3.8088119
8.721303 -2.1319671 5.3416672
8.7392864 -2.1256261 5.5278249
8.7377157 -2.1145151 5.6856771
7.9035778 -1.9029419 5.2733641
7.8228951 -1.864331 5.4272819
8.9140759 -2.080699 6.4049611
7.7720022 -1.776132 5.4585328
8.8209248 -2.015842 6.1952262
6.7228298 -1.519956 4.5683322
7.8065801 -1.76498 5.3047681
6.7903728 -1.526952 4.514739
6.9347539 -1.5509731 4.4942341
8.8443747 -1.967283 5.5686669
6.4812799 -1.433766 3.949367
9.0976229 -2.0125439 5.5436349
6.4873662 -1.427223 3.8127949
6.5167289 -1.425751 3.6808469
6.821794 -1.484207 3.688776
6.6225739 -1.432811 3.415597
11.258622 -2.4085109 5.2189441
11.909087 -2.5332041 5.2013588
11.669915 -2.4681871 4.7795019
11.52516 -2.4236121 4.4048009
12.470012 -2.5770149 3.745707
12.2464 -2.5159791 3.3491459
13.7535 -2.7923789 3.0372269
14.934849 -2.2813051 3.6553869
11.525338 -1.7469341 3.12273
11.091607 -1.6548671 3.596581
10.733939 -1.576062 4.0576439
7.1129928 -0.99386901 3.7948239
7.099503 -0.98357999 3.954772
6.7113142 -0.92186898 3.888463
6.7893 -0.92455 4.076683
6.8185282 -0.92047799 4.2287312
6.9251809 -0.92669898 4.4188671
6.7057371 -0.88940901 4.387939
4.759933 -0.62009901 3.239475
8.223896 -1.032568 5.799551
4.7650909 -0.57584399 3.2863059
6.1158962 -0.73908401 4.217906
6.8727708 -0.81436998 4.5871158
8.2658663 -0.97944099 5.5169139
8.2215471 -0.96452302 5.369688
6.4701309 -0.75144798 4.1195359
6.6559238 -0.765194 4.1177239
6.899394 -0.785079 4.1313939
7.0722041 -0.79643601 4.0851021
7.2467828 -0.807576 4.023375
7.2152829 -0.79559499 3.8354681
10.013211 -1.0805939 4.8238788
7.3158422 -0.78092098 3.3350711
7.1167932 -0.75131601 3.057173
6.9612079 -0.72672999 2.8044701
7.2522221 -0.74861002 2.726815
15.013317 -1.496956 4.4382381
16.865005 -1.582828 2.830637
17.675795 -1.638247 2.54459
9.9313974 -0.42273301 3.4528501
9.7635336 -0.40424499 3.6547871
10.83319 -0.448533 4.055192
9.7768183 -0.39342299 3.9206791
10.59584 -0.414074 4.5299749
10.534884 -0.39945701 4.7788372
10.06906 -0.37008601 4.8260379
7.234664 -0.25750801 3.6492159
7.0797529 -0.243774 3.7429681
8.7463579 -0.280837 5.0229921
9.1456079 -0.28302601 5.4439292
9.0505514 -0.26957899 5.565002
8.9431639 -0.256001 5.6584158
8.7518377 -0.13877299 5.9929738
8.6263094 -0.116757 5.7180109
9.1659918 -0.1028 5.7973909
8.5145559 -0.075731002 5.0660701
9.4305325 -0.072940998 5.4132819
9.4215603 -0.040063001 4.7493372
9.4453964 -0.029211 4.524087
10.072465 -0.019470001 4.5658021
9.9528465 -0.007681 4.2518358
9.7550259 0.0037839999 3.908777
9.641696 0.014921 3.6060939
10.456566 0.016182 3.9108641
10.183124 0.027584 3.537178
4.6273952 0.28667101 1.610433
4.5822601 0.289215 1.717221
4.5474148 0.29232201 1.825881
4.5478158 0.297649 1.946974
4.5384531 0.30232701 2.061815
8.9460411 0.595936 4.0641789
9.7342558 0.65980798 4.6731191
8.7890997 0.60599297 4.4409971
8.7388763 0.61272299 4.6287231
8.6190062 0.61438602 4.7678542
7.157989 0.518592 4.119451
4.1225371 0.30349299 2.4594059
8.6980133 0.65048099 5.3607912
8.3935843 0.63751298 5.3238068
8.7084608 0.67160898 5.6657372
8.5818968 0.68189299 5.8099098
8.6280031 0.78648901 5.7423201
8.4859753 0.78347498 5.5280519
8.8844156 0.83066303 5.6434498
8.2924747 0.78504199 5.1194038
4.062654 0.38936701 2.428216
8.8912535 0.86255801 5.1275339
3.862771 0.37926799 2.141645
8.9541702 0.87916797 4.9644809
4.2575231 0.42301601 2.260637
3.983073 0.400424 2.0179391
4.4082208 0.448333 2.122299
9.0255032 0.91792899 4.3452492
4.4159088 0.45429501 2.0122719
4.4388628 0.46187001 1.90651
4.2188311 0.44392601 1.699792
4.3206558 0.459712 1.625089
4.4302812 0.47658399 1.547761
4.7767758 0.51946801 1.5409991
4.186348 0.460177 1.23888
11.64087 1.306978 2.8341949
9.5366306 1.081935 2.0771339
9.5020733 1.089202 1.831093
9.8418474 1.139725 1.655627
13.577334 1.6362489 1.0523
11.604168 1.658954 -0.82289302
10.299777 1.4969 -0.54033101
10.085015 1.477643 -0.41163599
10.110437 1.4933569 -0.28128999
9.7091227 1.4456151 -0.128942
13.390004 2.0095589 0.032453999
9.4274654 1.459684 0.73406303
9.4447527 1.473588 0.93871999
9.3312588 1.466977 1.136564
9.4973001 1.504395 1.378361
9.4857635 1.5138561 1.6051919
7.024703 1.13783 1.5400831
9.4823847 1.5472111 2.324595
4.4283562 0.72779298 1.202204
4.5752521 0.75739002 1.364179
7.7270079 1.279133 2.3039219
4.6467738 0.78032398 1.636683
4.0810332 0.69019198 1.548021
3.7765231 0.64320803 1.53502
4.1203461 0.70669001 1.785905
3.9885261 0.68884802 1.834743
4.2099452 0.73212898 2.0467031
5.3312941 0.927136 2.591857
3.907974 0.68428898 1.999934
4.225698 0.74497902 2.2671771
4.0957551 0.72697997 2.295275
4.2815928 0.76509303 2.496562
3.9668901 0.71361601 2.3980491
4.075067 0.73796099 2.5453019
5.1632051 0.935013 3.224957
3.9560621 0.72115302 2.5432401
5.0161672 0.91440099 3.2247519
4.1093702 0.75403601 2.71015
5.03439 0.92377001 3.3202059
4.0437231 0.75169802 2.7757339
4.1722789 0.79566699 2.972012
4.9843612 0.95053399 3.550477
3.955838 0.773449 2.759774
5.1146512 1.0000221 3.5682149
4.217556 0.83479702 2.8496139
3.9535301 0.78730798 2.6149139
3.8401439 0.76936299 2.4769599
4.3069119 0.86808699 2.7002931
4.8943501 0.99240202 2.9712291
3.84442 0.78416002 2.2521329
4.8301692 0.98522699 2.829602
3.995115 0.819736 2.2503459
3.9000871 0.80495602 2.104135
3.950175 0.82008201 2.033694
3.602879 0.75234503 1.762895
3.8274469 0.80387598 1.772814
3.839216 0.81100798 1.676299
6.0471921 1.277428 2.640357
4.282074 0.90975201 1.754096
5.646781 1.199692 2.3131299
3.9770911 0.84978199 1.521047
4.2797418 0.91965199 1.520527
4.8044949 1.038249 1.576424
4.0986319 0.89069402 1.2338001
4.7457209 1.037094 1.3013099
6.4562249 1.418748 1.599349
6.920011 1.529086 1.5337369
5.9425278 1.3203419 1.165446
9.0676432 2.025744 1.552614
5.8992062 1.3250951 0.86668998
9.4084711 2.124845 1.160575
8.8791809 2.0161431 0.89415401
8.9972553 2.0539379 0.71012598
8.7296877 2.003535 0.50718701
6.041923 1.394055 0.231959
6.031713 1.399086 0.119337
6.066247 1.414518 0.01493
6.282166 1.472556 -0.084757
6.4459658 1.518857 -0.182272
6.3587441 1.506098 -0.26390499
8.1214972 1.923614 -0.33706501
6.7237592 1.600798 -0.358821
6.4861259 1.5521899 -0.41230899
6.5174112 1.575682 -0.51594597
6.2211962 1.534696 -0.55861503
6.9398451 1.711978 -0.62314397
6.3364091 1.5943739 -0.45868
6.051302 1.537591 -0.324137
6.028523 1.539255 -0.251275
5.9296312 1.521338 -0.168488
5.6449251 1.4552881 -0.076573998
5.5498018 1.437637 0.013741
5.6438708 1.469007 0.1124
5.2670522 1.377457 0.20366099
8.7465982 2.2982891 0.51210499
7.4567142 1.968622 0.59343398
6.061235 1.607735 0.615812
6.3768482 1.699376 0.794065
5.971489 1.598787 0.88612998
9.5494556 2.5686221 1.652496
5.7088351 1.542676 1.132164
4.636939 1.2588069 1.039836
6.481905 1.759667 1.453571
4.8010721 1.30935 1.204039
6.5939722 1.79831 1.653672
4.0273671 1.103325 1.118625
4.1151729 1.132516 1.25553
3.841912 1.062119 1.2783639
3.7763751 1.048721 1.361387
3.946173 1.1008101 1.532257
3.810385 1.067706 1.585604
4.5915899 1.286607 1.9106849
3.6806891 1.035973 1.633478
3.976419 1.124193 1.873139
4.3040771 1.22223 2.143034
4.0170708 1.14577 2.105715
4.2286301 1.211421 2.324172
3.999259 1.1507421 2.296242
3.976794 1.149278 2.3760891
3.9723239 1.15299 2.4609399
4.3766308 1.275853 2.8018751
3.762732 1.101632 2.4796331
4.2465382 1.248639 2.8712349
4.277019 1.268396 3.0106809
4.256351 1.283812 3.1107521
4.3237338 1.326075 3.096483
4.4713879 1.382732 3.1020899
4.7624168 1.478789 3.2347651
4.2811408 1.334797 2.8361571
4.4993792 1.408581 2.897697
4.1344848 1.299618 2.578542
4.1187901 1.299939 2.4791379
3.869447 1.226191 2.239717
3.9060581 1.242784 2.165801
4.4129901 1.409724 2.3352821
3.65675 1.172823 1.839355
4.336916 1.390972 2.1814799
4.3261118 1.393047 2.060164
3.9900489 1.289952 1.791404
4.2212019 1.370096 1.778272
3.8266749 1.246953 1.505283
4.2224102 1.381338 1.5431679
3.8241 1.255949 1.290885
4.2940469 1.415818 1.330032
4.0797811 1.35043 1.151228
4.3803129 1.455551 1.116793
4.4456758 1.483003 1.0142421
4.576551 1.5325741 0.92400801
5.6187081 1.881567 1.13442
6.2648382 2.10603 1.104466
3.832329 1.293255 0.57977998
7.0578251 2.3817279 1.067754
3.900568 1.321334 0.495529
3.908355 1.329031 0.40539399
4.360352 1.488381 0.35452601
4.2455058 1.4546911 0.25413001
4.169209 1.4339581 0.164932
4.6989241 1.6222579 0.095808998
4.4645128 1.547132 0.011325
4.2989588 1.495353 -0.059788
4.257268 1.4864 -0.12411
4.4535909 1.560747 -0.190585
4.4776759 1.575025 -0.24642
4.843205 1.709929 -0.31753099
4.3447418 1.545295 -0.35483301
4.4510322 1.606434 -0.412534
4.1056499 1.50337 -0.30693001
4.002708 1.47623 -0.22148301
4.2280111 1.564901 -0.182071
4.2092948 1.563531 -0.123587
3.923877 1.462706 -0.055007
4.0142908 1.501719 0.010273
3.905102 1.466048 0.080393001
4.6233201 1.741806 0.18482
5.6463609 2.1272299 0.22571599
4.2491798 1.606486 0.25724
3.764282 1.4281631 0.309798
3.7110341 1.412891 0.389952
3.711673 1.418069 0.47808799
4.4383979 1.701633 0.68137598
4.6377211 1.784229 0.83036798
5.1356058 1.982622 1.053941
4.4320278 1.716925 1.028626
4.8466568 1.884021 1.258127
4.3483558 1.69608 1.250334
3.770005 1.4755369 1.190905
3.7181351 1.460222 1.281112
3.745688 1.476063 1.398465
3.665226 1.449273 1.474106
3.818861 1.515157 1.6462311
4.086535 1.626851 1.87901
3.6962061 1.476433 1.8041919
3.886049 1.557505 2.005234
3.8424971 1.545229 2.0877099
3.925864 1.5840501 2.2368109
3.7129431 1.503159 2.210247
3.766109 1.529774 2.333277
3.976018 1.620424 2.5545101
3.7236509 1.522614 2.4725201
3.9556911 1.622858 2.7041309
3.9255481 1.615824 2.753686
3.938355 1.631798 2.8769851
3.936028 1.652302 2.986918
4.1010718 1.7440341 3.0512869
3.9326351 1.683202 2.8352499
3.9176691 1.682179 2.7656591
3.5992651 1.550413 2.478564
3.8860359 1.679299 2.6018529
3.8415289 1.66536 2.4911079
3.5368099 1.538139 2.2138009
3.6144969 1.576923 2.175946
3.734859 1.6345969 2.1541221
3.922168 1.72201 2.159281
3.597822 1.584591 1.882984
3.5573599 1.571703 1.762906
3.594955 1.593309 1.679835
3.587894 1.595165 1.57333
3.5944591 1.603083 1.4720041
3.9130061 1.750607 1.489027
3.984107 1.787969 1.40052
3.5665591 1.6055599 1.15055
4.0795188 1.842185 1.1990989
4.1594281 1.8840851 1.1048
3.3510921 1.522625 0.79658699
3.8295679 1.745402 0.80573303
3.9666491 1.8134429 0.72883898
3.990541 1.829969 0.62930101
4.1130738 1.8919491 0.54474801
3.672488 1.694453 0.39718401
3.5406721 1.638622 0.300208
3.515476 1.631925 0.219474
3.34372 1.556914 0.137979
3.1153409 1.4549839 0.066269003
3.1368589 1.469471 0.0083029997
3.2208641 1.5133851 -0.046746001
3.2272041 1.520946 -0.098192997
3.238483 1.530858 -0.144664
4.0289078 1.904498 -0.17997199
3.758359 1.781947 -0.21593501
4.1561842 1.976488 -0.28451899
3.922395 1.8764859 -0.33457899
3.4602439 1.675192 -0.33515099
4.3734488 2.142427 -0.341874
3.870774 1.907344 -0.224023
3.5239501 1.741531 -0.158747
3.3398559 1.655378 -0.102595
3.1114769 1.5466909 -0.045642
3.0678761 1.529461 0.0082170004
3.302516 1.651234 0.071162999
3.3087289 1.659143 0.138465
3.4269121 1.723386 0.21721201
4.2600031 2.1423459 0.270017
3.6748891 1.853448 0.31670299
3.806273 1.925258 0.418881
3.437247 1.743613 0.463752
3.29794 1.6777689 0.53040099
3.62679 1.850368 0.680381
3.732631 1.909832 0.80272502
3.278302 1.682181 0.79743302
3.358438 1.728228 0.91384703
3.8601501 1.992027 1.163649
3.744621 1.937915 1.240291
3.349447 1.738344 1.2102619
3.407882 1.773695 1.334481
3.2607269 1.701918 1.375668
3.6120131 1.890615 1.633585
4.3456001 2.2745931 1.965361
3.334336 1.750206 1.6087281
3.431761 1.806429 1.757951
3.4248199 1.807862 1.854906
3.365181 1.781378 1.91936
3.4401021 1.826153 2.0578849
3.5621641 1.896259 2.2266729
3.472753 1.853839 2.2595999
3.5898161 1.921695 2.4225919
3.3080561 1.775806 2.30758
3.269942 1.7602381 2.348676
3.505981 1.8925591 2.5844381
3.5710831 1.938421 2.7421701
3.5604739 1.954133 2.841872
3.7755611 2.095058 2.9563761
3.4386139 1.918547 2.609844
3.475548 1.944448 2.5833499
3.34935 1.878952 2.428853
3.401557 1.9134409 2.39869
3.369894 1.900782 2.301923
3.331398 1.8841701 2.1968751
3.3868711 1.920743 2.1484089
3.3887169 1.9269921 2.0597539
3.3418119 1.905463 1.9391659
3.3815811 1.9333431 1.865705
3.3597801 1.926057 1.755474
3.116539 1.79143 1.535658
3.4421339 1.983906 1.5919271
3.349236 1.935546 1.446781
3.2766781 1.898698 1.31545
3.5058041 2.036906 1.300352
3.5230269 2.052386 1.199371
3.357146 1.9609801 1.041514
3.530916 2.0679829 0.99004
2.959065 1.7376781 0.74264997
2.906363 1.7112761 0.645715
3.189322 1.882872 0.61890298
2.9141209 1.724966 0.48541999
2.85934 1.697031 0.40007901
2.8214381 1.678968 0.32241899
4.091063 2.4409239 0.36657101
3.1247189 1.869285 0.20618799
2.9582551 1.774368 0.12904499
3.6472571 2.187633 0.15910099
2.9131551 1.751924 0.065517001
4.0115852 2.4125021 0.090221003
3.2276509 1.946162 0.0090340003
3.1532431 1.906291 -0.048401002
4.1424279 2.504302 -0.063584
2.8303919 1.715607 -0.091095001
2.71787 1.651719 -0.128442
2.838167 1.729341 -0.17254101
2.7323551 1.669227 -0.19794799
3.1402459 1.928436 -0.28355899
3.2793181 2.034883 -0.336454
3.960746 2.4577229 -0.40636799
3.044291 1.908684 -0.25223899
2.562499 1.6149189 -0.15724701
2.5957699 1.6401 -0.124003
2.8643761 1.8144701 -0.093323
3.0285411 1.923398 -0.047127001
2.6908369 1.713312 0.007646
2.780211 1.774763 0.063570999
2.6875041 1.719977 0.119363
2.6276259 1.685958 0.176789
2.713521 1.745526 0.24826799
2.8980179 1.8689671 0.33864301
3.1840861 2.0586929 0.45622599
2.8291609 1.8338799 0.48329201
3.0815179 2.002543 0.61412299
3.2916801 2.144556 0.75214303
3.252691 2.1245439 0.84079498
3.3883281 2.2187531 0.97992802
3.5303581 2.317565 1.131304
3.457931 2.2757659 1.217715
3.1148691 2.0551801 1.196824
3.1443901 2.0799 1.309543
3.2004471 2.122324 1.436272
3.330929 2.2144301 1.6027139
3.236114 2.156816 1.66137
3.2624691 2.1798539 1.778594
3.2962289 2.207958 1.900263
3.2936959 2.2118039 1.999934
3.2682469 2.200223 2.0817111
3.2200971 2.1732509 2.1435781
3.312144 2.2409739 2.2954431
3.585984 2.432332 2.5780311
3.2978029 2.242456 2.451051
3.3233769 2.265492 2.5437751
3.276273 2.2389629 2.5740981
3.4143071 2.3449399 2.7953129
3.535136 2.4521749 3.0104239
3.4364021 2.4074039 2.8727629
3.219723 2.2667761 2.609844
3.4237421 2.4163589 2.718313
3.31653 2.3464651 2.569432
3.244554 2.3012049 2.444768
3.081089 2.1906469 2.249258
3.0771289 2.193213 2.168997
3.097506 2.2131701 2.10058
3.3251979 2.381691 2.16113
3.4533989 2.479594 2.1430759
3.149014 2.2665851 1.858362
3.375411 2.435493 1.886763
3.407423 2.464618 1.796512
3.112699 2.2569499 1.540599
3.2093699 2.332732 1.483914
3.009589 2.192872 1.293465
3.159626 2.3078129 1.254849
3.1356781 2.295907 1.143213
3.1070189 2.2804749 1.032457
3.147186 2.315582 0.94535899
2.733341 2.015985 0.735035
2.724633 2.014456 0.64872402
2.9168739 2.1618309 0.60670602
2.8422401 2.1116309 0.50755602
2.535332 1.8881921 0.38036799
2.5663099 1.915898 0.31450301
2.6478529 1.981566 0.254482
2.6930499 2.020277 0.19064
2.9399209 2.2108121 0.137605
2.649842 1.9974999 0.063956
3.520083 2.6535029 0.084959999
2.569021 1.941256 0.0077180001
2.462136 1.864983 -0.040573001
3.3261549 2.519448 -0.054809999
2.422626 1.8394901 -0.083720997
2.4957609 1.899593 -0.12666699
2.4334781 1.856653 -0.158906
2.3895199 1.827512 -0.185977
3.1189029 2.3853459 -0.242745
2.376457 1.826281 -0.23062199
2.646961 2.053791 -0.29207399
3.0594521 2.396692 -0.272827
3.9224751 3.0727611 -0.349787
2.404387 1.892561 -0.15885399
2.4615109 1.942157 -0.126626
2.8492141 2.2534289 -0.099981003
2.7510481 2.1809931 -0.046115
2.6493161 2.1053541 0.0081110001
3.378191 2.6845751 0.010343
2.596334 2.0681779 0.063975997
2.701926 2.1574211 0.129344
2.7008851 2.1617279 0.195898
2.4699731 1.981625 0.24366499
2.792722 2.2458961 0.35193399
3.107331 2.504848 0.48023799
2.8387811 2.2938161 0.52316397
5.9886189 4.838975 1.103653
2.7462101 2.2242899 0.590554
2.8632021 2.3245561 0.706074
2.558485 2.082103 0.71388298
3.0209041 2.4642551 0.94324201
3.0061209 2.457962 1.04022
4.8950419 4.0024428 1.693851
2.9189751 2.392365 1.110195
3.06302 2.516381 1.27134
3.042989 2.505846 1.369262
2.9558201 2.439827 1.43347
3.556808 2.9359009 1.724928
2.9587481 2.4480319 1.538739
3.108144 2.577723 1.7250119
3.0936229 2.5717471 1.823596
3.131762 2.6096129 1.952533
3.1155961 2.6022761 2.046298
2.975481 2.4911151 2.05041
2.9899139 2.509115 2.153723
2.9946041 2.51898 2.2461591
3.1497531 2.655745 2.451225
3.1005499 2.6204231 2.4950349
3.0547371 2.5877881 2.532016
3.118211 2.6477909 2.6535521
3.005403 2.564033 2.6660919
2.926661 2.520442 2.702559
3.1185801 2.711051 2.829262
2.8665099 2.5036359 2.5225551
3.055794 2.6752181 2.634505
2.8815141 2.5285571 2.424577
3.147372 2.768332 2.576196
3.1284311 2.7581191 2.4813931
2.9192929 2.579766 2.236202
3.143369 2.7842929 2.3170149
3.1703529 2.814769 2.2400811
3.257951 2.8993211 2.198442
2.932415 2.615725 1.88212
3.6498699 3.255698 2.342607
2.880235 2.5751891 1.751346
3.4926751 3.122766 2.123744
2.8694489 2.571553 1.646049
2.9134591 2.617099 1.569239
2.858732 2.573941 1.438724
2.808603 2.5347221 1.314137
2.6954501 2.4382861 1.165675
2.879787 2.6111209 1.143495
3.10023 2.8175709 1.122247
2.430768 2.214303 0.79555899
2.734046 2.496387 0.80124098
2.5003569 2.2883461 0.64891201
2.692169 2.4696431 0.610497
3.0975871 2.8481779 0.60319197
2.4749291 2.2809689 0.40497699
