# .PCD v0.7 - Point Cloud Data file format
VERSION 0.7
FIELDS x y z
SIZE 4 4 4
TYPE F F F
COUNT 1 1 1
WIDTH 1556
HEIGHT 1
VIEWPOINT 0 0 0 1 0 0 0
POINTS 1556
DATA ascii
6.9400191 -0.77759099 3.853318
7.7324109 -0.857279 4.110631
7.6878352 -0.84328401 3.8985879
10.180677 -1.092792 4.641355
10.46237 -1.110718 4.4946179
7.6707072 -0.80533499 3.0904961
7.5033231 -0.77894998 2.821399
7.6782718 -0.78808397 2.681102
7.9597459 -0.80763 2.5658889
15.684412 -1.554571 4.2222061
11.748637 -0.53303403 3.4595511
10.416716 -0.460473 3.344023
10.246411 -0.44102901 3.562443
11.076288 -0.46386901 4.1462722
11.064909 -0.45051 4.4373121
10.522133 -0.41617799 4.4985471
10.64755 -0.40876099 4.8300309
9.403923 -0.33914199 4.743485
9.3364277 -0.32585701 4.936121
7.198185 -0.22611301 4.2847872
5.37848 -0.16270299 3.3071649
5.1431379 -0.149608 3.2541511
5.0938029 -0.142248 3.305512
5.0430269 -0.129114 3.4044981
5.165638 -0.108241 3.6152599
4.9748492 -0.081129 3.4066401
5.0932422 -0.071225002 3.3761129
6.6909242 -0.0858 4.3405929
6.6298032 -0.077320002 4.1932998
9.3260384 -0.054606002 4.927712
9.3398628 -0.032990001 4.473546
9.8228979 -0.023294 4.4526792
9.8737574 -0.011938 4.21805
12.128573 -0.00058699999 4.8598418
10.861198 0.012082 4.0621982
10.329553 0.023496 3.588037
5.1039081 0.017534001 1.636892
10.876083 0.049988002 3.199358
12.812999 0.073783003 3.432467
12.15833 0.621189 1.464846
16.895302 0.90256399 2.8273399
4.978828 0.277574 1.079179
5.2895699 0.30105799 1.281878
4.909337 0.28508401 1.317353
4.875526 0.28880399 1.4367059
5.0975041 0.30790499 1.637808
4.823617 0.29698601 1.678683
4.8422432 0.30377999 1.814607
9.1993275 0.577124 3.447403
4.8689742 0.31114399 1.954946
4.7782612 0.310922 2.0455799
4.585824 0.30375099 2.0832839
9.8614302 0.65319097 4.4799271
4.5972981 0.309883 2.2069671
4.6521239 0.31900901 2.3505859
9.6962318 0.66489702 4.899231
9.0978374 0.64512002 5.0325999
9.0474224 0.65210998 5.2066879
5.8274202 0.42683801 3.476404
5.6835251 0.42957699 3.604795
5.6781001 0.43581101 3.6940761
6.7722301 0.51978898 4.4058981
5.9147892 0.467805 4.0041718
6.7667232 0.53518498 4.5809121
5.3308129 0.44657299 3.7431071
5.566021 0.49234399 3.8258319
6.366569 0.56315601 4.376091
6.828577 0.62002897 4.5445762
5.732688 0.52723902 3.7343471
6.7834458 0.63182598 4.3087559
7.7276249 0.719769 4.9084859
4.8660641 0.45894799 3.0039909
4.8601198 0.464084 2.904758
7.7243481 0.73758399 4.6166282
4.8471909 0.46853301 2.795253
4.7839689 0.46803999 2.652297
4.6131339 0.456738 2.449374
4.6158328 0.46242899 2.338433
4.586935 0.464917 2.208262
9.3273058 0.94538498 4.4903932
4.6443882 0.476192 2.116313
4.6759272 0.48492301 2.0082591
4.6916561 0.49206501 1.890228
4.8722072 0.51672399 1.832473
4.7507262 0.509431 1.659652
4.517561 0.489737 1.457322
4.5603318 0.499735 1.349504
4.8627558 0.53860199 1.310625
5.047914 0.56504703 1.228966
4.8151121 0.544653 1.04872
11.721175 1.325821 2.552845
9.9598007 1.1500469 1.675406
10.214625 1.191498 1.474139
10.019914 1.180603 1.213975
10.009173 1.202924 0.77572203
10.211738 1.299592 -0.283326
10.445601 1.341689 -0.42531601
10.346387 1.341166 -0.54162699
10.463709 1.368753 -0.65240097
10.443652 1.390819 -0.81070697
10.240863 1.412312 -0.90123498
10.444526 1.514697 -0.54790097
9.2065306 1.346082 -0.375763
10.944931 1.652275 0.21333501
9.3387108 1.4319969 0.53500199
9.2022486 1.422032 0.71649402
9.5720396 1.490564 0.95132703
9.7142153 1.524266 1.183154
7.552042 1.194001 1.095991
7.4709091 1.1900719 1.264177
7.2886648 1.169726 1.413277
5.3693581 0.86811399 1.1771131
5.0412011 0.821069 1.235786
7.9383321 1.2929291 1.945981
4.5715451 0.74997503 1.241019
4.7411108 0.783445 1.413565
4.3555608 0.72493702 1.416095
5.2929878 0.880961 1.720874
4.2734122 0.71636301 1.505105
4.52916 0.76463997 1.717922
4.765955 0.81031603 1.937093
4.202126 0.71947199 1.821261
4.3899298 0.75687301 2.0192909
4.7255402 0.82039303 2.29725
4.8581648 0.84922802 2.4860761
4.5002089 0.79203999 2.414336
4.522717 0.801422 2.5344169
4.5678358 0.81488699 2.663331
4.7943478 0.86104703 2.8981111
4.8448958 0.87593102 3.0259831
4.918313 0.89510101 3.161679
4.8002939 0.87938797 3.1656511
6.4375272 1.17932 4.245357
5.2998261 0.983621 3.6377671
4.741559 0.90281802 3.3773389
5.3813748 1.050565 3.7540829
5.37078 1.0614541 3.6285889
4.750267 0.94454998 3.141706
4.9541869 0.99107701 3.195353
4.9886899 1.004011 3.1275649
4.382513 0.88730699 2.660352
5.4353948 1.10048 3.2994909
4.377491 0.891581 2.564265
4.6566672 0.95407999 2.6228271
4.4631972 0.91984099 2.407795
4.3875961 0.90957701 2.25876
4.391521 0.91570902 2.1486499
4.504252 0.94467199 2.086174
4.3001471 0.90708399 1.877439
4.2714391 0.90620798 1.749632
5.075058 1.0767 2.078804
4.1898499 0.89398199 1.602319
4.349277 0.93328601 1.545136
6.10783 1.310643 2.1698849
4.3505621 0.93884498 1.427394
4.3070202 0.93468201 1.29645
4.408164 0.96199799 1.208673
4.8759389 1.070012 1.2078021
4.4704709 0.98647302 0.99076301
5.1825452 1.1499209 1.0163341
6.9602389 1.5443619 1.364952
6.1629281 1.374959 1.055184
7.054348 1.573837 1.207809
6.5035491 1.466821 0.80218899
6.5086541 1.475913 0.655393
7.9936562 1.822413 0.63087398
5.1246872 1.174606 0.29771999
6.258503 1.442131 0.24025799
5.5860138 1.29401 0.110512
5.4365168 1.26603 0.013379
5.3148379 1.244199 -0.071700998
5.6134791 1.320995 -0.158721
5.9313421 1.403064 -0.24615
6.212203 1.477118 -0.33149901
5.8992672 1.409956 -0.37497801
5.9043608 1.425671 -0.46738201
5.9179072 1.458073 -0.531344
5.4729252 1.37543 -0.39614499
6.6609669 1.674003 -0.48213899
5.7090831 1.4488879 -0.305783
5.358973 1.366658 -0.223351
5.4972229 1.408712 -0.15618999
5.173768 1.332234 -0.070178002
5.0709972 1.312049 0.012555
5.0811219 1.320972 0.101185
5.6155171 1.466863 0.217118
4.9897418 1.309589 0.29212299
4.731782 1.247766 0.37654501
6.3272152 1.676338 0.64278603
5.3267598 1.417895 0.66325402
6.3047328 1.686065 0.93550903
5.0570502 1.358691 0.87503499
5.9648228 1.602585 1.032109
5.314816 1.434562 1.053941
4.5665531 1.238289 1.023972
4.3906999 1.196076 1.101037
4.684401 1.2823581 1.301051
4.3318439 1.191252 1.321566
4.2193508 1.165593 1.403879
4.4638062 1.2387021 1.609121
4.429081 1.234605 1.719673
4.5390978 1.270959 1.8887399
4.5342731 1.275286 2.012187
4.7672291 1.346779 2.245537
4.7528758 1.348691 2.3663659
4.7111712 1.342768 2.4694209
4.7337751 1.355153 2.601671
4.714725 1.355631 2.7068889
4.8685722 1.405987 2.908756
4.5932288 1.332257 2.8454461
5.6711731 1.644912 3.5132191
4.8210249 1.404397 3.086199
5.2197752 1.527131 3.4396291
5.2883492 1.5538681 3.575438
4.5784669 1.3568389 3.222693
4.5805879 1.380651 3.347527
5.6231642 1.6948971 4.1094489
4.6450729 1.423654 3.326417
4.5074902 1.3929501 3.126951
5.2767901 1.630686 3.6606319
4.5864229 1.4231761 3.1150401
5.4053121 1.677279 3.6712191
4.684845 1.459681 3.103416
5.426384 1.690725 3.5946391
4.5793319 1.432647 2.9490111
5.3436379 1.67176 3.441211
4.6209321 1.451552 2.8817489
4.8080268 1.516457 2.893821
4.2745128 1.353651 2.4740281
4.5896449 1.4593101 2.5446761
4.341804 1.386066 2.297471
4.5596251 1.461437 2.2933619
4.178987 1.344787 1.989978
4.3683252 1.41132 1.961116
4.4015899 1.427712 1.854149
4.5313792 1.475626 1.782379
4.2864242 1.40137 1.5664639
4.2359982 1.390329 1.429837
4.440105 1.4630311 1.375185
6.2669902 2.064997 1.9410059
4.1937561 1.387264 1.183315
4.4018078 1.4617569 1.122202
4.898438 1.632993 1.1174639
4.7146912 1.577829 0.951837
5.81739 1.954372 1.025517
5.1335521 1.731268 0.77658701
5.1534472 1.744651 0.65465301
4.4947119 1.52746 0.46618301
4.4691582 1.524565 0.36334899
4.1097679 1.4073009 0.24598899
4.7176032 1.6215611 0.18661401
4.1066322 1.416894 0.083727002
4.1435332 1.43501 0.01051
4.055572 1.409821 -0.056400001
4.6492372 1.6222529 -0.135528
5.9252758 2.0675001 -0.17272501
4.4378591 1.554278 -0.189899
3.995604 1.404595 -0.21987601
4.1300859 1.457266 -0.27075899
4.4962921 1.598226 -0.367185
4.3173308 1.5572439 -0.40011501
4.3673019 1.59823 -0.32646799
3.8455701 1.417439 -0.212773
3.8365929 1.41919 -0.16520301
3.6922979 1.370688 -0.1084
3.8360789 1.42914 -0.053773001
4.2272038 1.580444 0.010817
4.0457969 1.517983 0.083283998
4.1064858 1.546193 0.164147
4.2756391 1.6155519 0.25882301
4.6026769 1.74524 0.37876999
4.5419312 1.7282391 0.477227
5.003984 1.910705 0.644499
4.180831 1.601966 0.64178801
3.8592219 1.483875 0.69093001
4.6860709 1.808045 0.96161503
4.210876 1.630324 0.97722602
4.181119 1.624386 1.085281
4.0713372 1.5875781 1.1706361
4.0524602 1.585639 1.280082
4.1942501 1.646742 1.445107
4.0253162 1.585811 1.502808
4.0817261 1.6135091 1.641554
3.8983891 1.546278 1.68045
4.067039 1.618638 1.869975
3.9720931 1.586194 1.938783
4.1566081 1.665481 2.144762
4.1085982 1.651781 2.2322021
4.4466958 1.7937061 2.533464
4.5376759 1.83654 2.7010911
4.3817778 1.7793649 2.714606
4.129777 1.682626 2.653193
4.2639918 1.743084 2.831197
4.5008602 1.846014 3.07669
4.2088809 1.731977 2.952322
4.1667199 1.72595 3.0436859
4.0933318 1.717875 3.1061649
4.1953988 1.783672 3.121341
4.3849301 1.87629 3.1612041
4.432806 1.902867 3.129189
4.5518579 1.960232 3.134418
4.388298 1.895846 2.938015
4.1089978 1.780844 2.6644421
4.1247268 1.7933511 2.5816889
4.2165542 1.839106 2.5382819
3.9836929 1.743047 2.297543
4.067059 1.785158 2.2389541
3.9595051 1.743434 2.07219
3.8349471 1.6939059 1.900388
3.7910049 1.679765 1.771369
3.780597 1.680406 1.6577621
3.9136961 1.7450089 1.60267
4.1235781 1.8443381 1.5690891
3.9773281 1.784469 1.398077
3.998008 1.799324 1.289677
4.20471 1.898232 1.2358429
4.2074208 1.905338 1.117499
4.4021702 1.999691 1.046393
4.1353989 1.884312 0.87004203
3.8448219 1.757301 0.70642298
3.5129099 1.610531 0.55395502
3.6676531 1.686636 0.485733
4.096487 1.889607 0.443021
3.5200169 1.628653 0.29844299
3.2711141 1.518108 0.204209
3.910089 1.820173 0.16134299
3.71611 1.735132 0.079043999
3.483844 1.63161 0.0092209997
3.6907201 1.733724 -0.053562999
3.9670451 1.8691601 -0.120698
3.7134089 1.7602 -0.21334299
3.239646 1.540244 -0.221766
3.2074981 1.534099 -0.273586
3.4155691 1.653159 -0.330809
3.1400361 1.53784 -0.245446
3.28776 1.619669 -0.190272
3.6531141 1.8049279 -0.16455799
4.1846471 2.0735929 -0.128539
3.5888901 1.7835799 -0.052643001
3.3660541 1.677712 0.0090150004
3.2043011 1.601743 0.069043003
3.2981679 1.653452 0.138017
4.4344821 2.223114 0.18556701
3.4877329 1.753554 0.221057
4.3948998 2.2096579 0.27855399
3.445375 1.737278 0.296909
3.376611 1.707523 0.37157899
3.791605 1.922911 0.51153702
3.5186801 1.789642 0.56587398
3.7359171 1.905593 0.70081902
3.8587279 1.973883 0.82980198
3.969811 2.036531 0.96559203
4.0457091 2.081403 1.1008019
3.876651 2.000071 1.168565
3.7022021 1.915517 1.226181
3.792506 1.967837 1.370286
3.81195 1.983551 1.492637
3.8454671 2.0066719 1.622287
3.7643361 1.969911 1.702395
3.770134 1.978528 1.818904
3.7599599 1.9787641 1.925985
3.8229899 2.0176179 2.070462
3.823096 2.023356 2.1804371
3.8174751 2.026062 2.2835281
4.0368872 2.1485341 2.5233049
3.922035 2.0932579 2.55182
3.863503 2.0677969 2.6071751
4.1376891 2.2207329 2.8861771
4.014297 2.1605189 2.883194
4.2901912 2.315448 3.1623859
4.305584 2.3366899 3.3060429
3.574981 1.96176 2.853338
4.332788 2.377604 3.4581749
4.3990951 2.440666 3.4444909
3.943923 2.200141 2.9932549
3.70924 2.0748761 2.756952
4.3945642 2.4582319 3.2663291
3.8145919 2.1396289 2.766135
4.0061221 2.253191 2.824914
3.808666 2.147963 2.6015511
3.8916709 2.200738 2.566256
3.8774769 2.198669 2.4595339
3.878437 2.2051721 2.3573411
3.8027151 2.1679771 2.2065439
3.7410769 2.1385989 2.063982
3.9485769 2.263308 2.0630541
3.959378 2.2756231 1.950902
3.7623341 2.1681919 1.739962
3.8221359 2.208575 1.6510119
3.720598 2.155679 1.493621
3.6944561 2.14627 1.370286
3.6002209 2.0971229 1.225616
3.6450019 2.1288919 1.1307859
3.6165609 2.117919 1.014027
3.6898689 2.166611 0.92603803
3.92293 2.3096001 0.87154597
3.558032 2.1003389 0.69043499
3.1620829 1.871564 0.52671099
3.7277341 2.21222 0.52157199
3.6434109 2.167906 0.41633999
3.5029149 2.089823 0.31386399
3.111937 1.86148 0.20534
3.16571 1.898643 0.138091
3.4744401 2.089304 0.078139
3.207165 1.933659 0.0089760004
4.3444452 2.6193459 0.012159
3.1387589 1.897391 -0.048177
3.815629 2.3065619 -0.058566999
3.1168261 1.889087 -0.100311
3.2387919 1.968159 -0.15305699
2.882566 1.756276 -0.175237
2.907012 1.77581 -0.21059699
2.975466 1.827134 -0.26867601
3.7359011 2.2940919 -0.33734101
3.6010361 2.2344029 -0.36945701
2.935298 1.840274 -0.243205
3.1446481 1.9817261 -0.192968
3.8045001 2.397558 -0.233459
3.1000869 1.95868 -0.148094
3.900028 2.4640939 -0.186308
3.0907171 1.957787 -0.100697
3.1011569 1.96946 -0.048255999
3.8093419 2.419209 -0.059276
3.1488931 2.004914 0.0089480001
3.325489 2.1227939 0.076038003
3.0393479 1.945112 0.13498899
3.1814029 2.0412381 0.214046
3.646836 2.345861 0.33365801
3.6591289 2.3597829 0.42757899
3.1390741 2.029566 0.44977501
3.398989 2.2032249 0.58063102
3.3784289 2.195477 0.67329401
3.856209 2.5123391 0.881136
3.562006 2.3265719 0.92075002
3.684309 2.4125669 1.065527
3.6579421 2.401319 1.172188
3.4675419 2.2821031 1.221101
3.570286 2.355684 1.3718131
3.642309 2.4092889 1.5169179
3.5431089 2.3495989 1.590058
3.5481219 2.358876 1.707231
3.9936471 2.6617739 2.0502939
3.671376 2.453151 2.001538
3.61989 2.42485 2.0868771
3.716943 2.49613 2.256959
3.597513 2.4220009 2.2914701
3.813689 2.5739989 2.538765
3.486634 2.359163 2.4164131
3.7409589 2.5376041 2.689496
3.5858729 2.4384971 2.665211
3.7353129 2.546478 2.8591411
3.6010439 2.4610901 2.8293309
3.3527229 2.3028359 2.744967
3.6003211 2.4976439 3.0660341
3.536957 2.4781439 2.9569409
3.5862539 2.525147 2.9070699
3.375613 2.3827071 2.680218
3.3646719 2.380852 2.606848
3.4452209 2.4438739 2.5960929
3.733685 2.6550281 2.7258
3.5112939 2.5030389 2.4751551
3.4193311 2.4434929 2.318948
3.7383101 2.6780109 2.4297521
3.6229291 2.6017449 2.2484069
3.627526 2.6114459 2.1408739
3.6396151 2.62658 2.0345671
3.685873 2.6664951 1.9434381
3.4281139 2.4861009 1.696816
4.3245931 3.136236 2.140547
3.4546239 2.511462 1.597415
3.408658 2.484117 1.4650739
4.3736172 3.1873469 1.879823
3.4462121 2.517627 1.368759
4.5764961 3.343354 1.817683
3.3003221 2.4169381 1.2033221
3.0935609 2.271059 1.0280581
2.726579 2.006532 0.819076
2.7787549 2.0499139 0.74730301
3.559763 2.6260719 0.95734298
2.9810729 2.2045319 0.70983499
3.141674 2.328954 0.65351498
3.092288 2.29792 0.55225199
3.437227 2.560467 0.51571798
3.3060999 2.468771 0.40519801
4.477509 3.3434999 0.54876697
2.9469509 2.2059259 0.28325301
3.7770791 2.8273129 0.363042
3.409941 2.558696 0.24141
3.08181 2.318085 0.14426
2.8515749 2.1501091 0.068830997
3.5970931 2.718802 0.010808
3.1943369 2.420228 -0.052643001
3.018636 2.292644 -0.104328
2.9637721 2.2564149 -0.150434
3.2644241 2.491312 -0.21318799
3.1748681 2.4288211 -0.247126
2.9785571 2.2896409 -0.289083
2.9197471 2.2661331 -0.322211
3.0284581 2.3731699 -0.270096
4.2627692 3.340405 -0.38017899
3.2075391 2.525573 -0.211943
2.9561031 2.3331699 -0.152089
3.0463979 2.410192 -0.106914
3.084435 2.446131 -0.051711001
3.0082631 2.3914261 0.0092110001
2.963485 2.3614659 0.073031999
2.9459431 2.3530941 0.141045
2.907819 2.328187 0.21093699
3.0053811 2.4120491 0.296525
2.9885039 2.404223 0.376661
3.1331551 2.5266011 0.48429999
3.302568 2.669569 0.60872602
2.9212899 2.366992 0.62829798
3.072423 2.4953721 0.75778401
3.051517 2.4842961 0.851583
3.075403 2.5096941 0.96040899
3.1888299 2.6083751 1.103616
3.427439 2.8101959 1.303787
3.265579 2.6838391 1.3556269
3.3268559 2.7406759 1.4972301
3.31141 2.73441 1.606173
3.9493771 3.2689421 2.054256
3.7587631 3.1185269 2.086436
3.329124 2.7686 1.962729
3.2795119 2.7337949 2.044975
3.272017 2.7339909 2.1493781
3.296973 2.761348 2.272316
3.320698 2.787792 2.392381
3.473233 2.9227281 2.6055839
3.500036 2.9522381 2.7242661
5.6028161 4.7259078 4.3609719
3.461123 2.9262979 2.7856431
3.242511 2.7479279 2.6880951
6.5256362 5.6750789 5.921226
6.637815 5.7997742 5.8423162
3.204226 2.8062501 2.762938
6.6106138 5.803124 5.563272
3.4269869 3.015439 2.8055401
5.3592238 4.7156329 4.3873868
3.4321201 3.02703 2.7227321
3.502948 3.096735 2.683742
5.882432 5.2002859 4.5067539
3.4049561 3.017164 2.5102611
3.1982391 2.8406241 2.26017
3.3967879 3.0240419 2.2925191
3.3215339 2.963964 2.1322351
3.4024661 3.0432849 2.069247
3.7015691 3.3185661 2.1237569
3.9182351 3.5210249 2.1107919
3.222913 2.9029601 1.622287
3.209877 2.897984 1.502152
3.0430641 2.7537971 1.316232
3.0825131 2.796011 1.224205
3.066813 2.788274 1.1103441
3.323314 3.028532 1.087868
3.131912 2.860769 0.91799998
3.0280089 2.7723241 0.78599
3.092834 2.8382821 0.701478
2.9251039 2.690618 0.56970501
2.7161009 2.504204 0.44451901
2.852704 2.636282 0.38145
2.782495 2.577394 0.29184499
2.7561841 2.5589809 0.212972
3.5419929 3.2885649 0.27369201
3.498935 3.2561591 0.178801
2.8623321 2.6699419 0.075441003
2.878015 2.690825 0.0094440002
2.80023 2.624198 -0.050409999
2.5384369 2.384409 -0.095853999
2.5309241 2.3828881 -0.140386
2.5115621 2.3701639 -0.179281
2.8684969 2.7133141 -0.244103
2.8339069 2.6930871 -0.30082199
2.8563981 2.7398291 -0.345052
2.729166 2.642236 -0.26666501
2.4819369 2.414077 -0.179747
3.915834 3.808769 -0.28359401
2.505491 2.442652 -0.141315
2.4129469 2.357899 -0.092854999
2.6573579 2.6027789 -0.048859999
2.56179 2.5150061 0.0086049996
2.492121 2.4523051 0.067386001
2.7128179 2.6756811 0.14253999
2.6980391 2.667289 0.214838
2.907311 2.8808651 0.31493801
2.517303 2.5002029 0.348416
2.6723449 2.6603601 0.45371699
2.649389 2.643646 0.536502
2.9583001 2.9587469 0.69917101
2.9333799 2.9406421 0.79520297
3.0356381 3.050236 0.93132597
3.011179 3.032692 1.0340151
2.9639239 2.991976 1.128199
3.0764799 3.1128221 1.287419
4.0037408 4.0510359 1.675451
2.935703 2.9773021 1.340969
3.763397 3.8167241 1.7190419
3.2003441 3.2532451 1.585168
3.1832659 3.243413 1.699705
3.3608129 3.4322929 1.924819
3.1661639 3.2410281 1.935581
3.2064891 3.2899439 2.082458
3.3731511 3.4690089 2.3175521
3.404803 3.5097101 2.46492
3.42749 3.5413189 2.604007
3.388814 3.5095201 2.6919119
3.344316 3.471499 2.7668769
6.5132122 6.7766681 5.5922098
5.4703531 5.7314949 5.1394892
3.423723 3.603893 3.3547111
3.3305831 3.5386629 3.4002709
3.3245499 3.5653169 3.3377161
3.3982489 3.661386 3.3109219
3.473042 3.7507 3.3158519
3.326726 3.643328 2.6068101
6.0620341 6.6389532 4.7501869
2.9916689 3.2994161 2.018878
2.9685991 3.281637 1.890403
3.5014119 3.8796849 2.094054
3.080359 3.4211259 1.7217751
2.9902911 3.3288751 1.554324
3.1356211 3.4988289 1.506795
3.286077 3.6752939 1.4502521
2.393857 2.6836729 0.963368
3.0304179 3.397301 1.219541
2.803653 3.1504419 1.020376
2.486603 2.8007209 0.81054801
2.2552071 2.5460539 0.65116799
2.254606 2.5513411 0.56896198
2.5379779 2.878742 0.55012399
2.4589231 2.7956231 0.447983
3.0470979 3.4643359 0.55514097
2.2915349 2.6114249 0.34118399
2.4529779 2.801966 0.28655201
2.4070549 2.755971 0.207205
2.8169789 3.2328899 0.160409
2.8572979 3.2868741 0.083939001
2.435334 2.8080521 0.0089090001
2.4894409 2.877188 -0.049977001
2.4128621 2.7952459 -0.101632
3.068006 3.5542159 -0.129227
2.888449 3.354073 -0.178762
2.5836539 3.0072031 -0.205826
2.7423911 3.1994851 -0.26051599
2.869282 3.3633101 -0.340179
2.91875 3.453696 -0.394209
2.7413111 3.274493 -0.299788
2.578192 3.0942359 -0.20909201
2.5791559 3.102716 -0.16294301
2.3648219 2.8516059 -0.101962
2.364743 2.8582709 -0.048728999
2.4150879 2.926039 0.0090939999
2.5370791 3.0811329 0.076925002
2.6907761 3.275537 0.158577
2.2466159 2.741338 0.20070399
2.3035059 2.817436 0.28003001
2.6476181 3.246011 0.411356
2.489651 3.0595911 0.47462299
2.3464229 2.8904369 0.53366399
2.255805 2.7854171 0.59895998
2.301085 2.8480861 0.70099699
2.606122 3.2333231 0.89875197
2.3242109 2.8904331 0.897385
3.407198 4.247252 1.458637
2.7993979 3.497916 1.317897
3.0805349 3.8583961 1.5834481
3.400521 4.2693448 1.895901
3.39535 4.2730312 2.0412581
3.1668739 3.995028 2.0427251
2.9770291 3.764513 2.0502939
2.7946911 3.5423951 2.045301
2.689641 3.417407 2.082989
4.0556569 5.1530418 3.1408989
6.494442 8.271472 5.301198
3.3939431 4.3329592 2.9081349
3.27719 4.1939449 2.936851
3.2136559 4.1225009 3.0003541
3.1696589 4.0758319 3.0719571
3.176682 4.0946698 3.1851621
3.1838601 4.1137819 3.289963
3.1993101 4.1436958 3.3958499
3.583843 4.641736 3.8040049
3.5216501 4.5831618 3.9006841
4.7766471 6.3375659 5.4336748
3.8491471 5.1317582 4.25177
4.9954891 6.6600828 5.5180192
4.9296789 6.588275 5.3375802
3.1364281 4.2018509 3.316155
3.115 4.1832881 3.2055831
3.104507 4.1793251 3.097523
3.143064 4.2415161 3.0302229
3.1675539 4.284977 2.940233
3.185277 4.3194418 2.8357229
3.2695611 4.444551 2.7813621
3.393059 4.6236749 2.746937
6.5518742 8.9281502 5.3042359
2.718523 3.713532 2.086174
2.8695221 3.9293809 2.0785789
4.0355358 5.5531092 2.5674241
3.1580901 4.3563452 1.868995
2.8285029 3.9112599 1.548023
3.2927589 4.5532351 1.802108
2.504961 3.4723539 1.259481
2.7076681 3.762563 1.2417949
2.4350209 3.391999 1.010264
2.5430751 3.5512199 0.94528598
2.3155971 3.241524 0.76267302
2.1132729 2.9655759 0.60851902
2.572814 3.619343 0.63653803
2.145555 3.025739 0.446311
2.145436 3.0330329 0.36483499
2.4022479 3.404475 0.32061499
2.469913 3.5090289 0.242993
2.280859 3.2484491 0.14848401
2.344209 3.346947 0.078754999
2.2073009 3.159281 0.009238
2.2137361 3.1763451 -0.050857
2.448478 3.521889 -0.118057
3.0618811 4.4042082 -0.147633
2.3117859 3.333528 -0.163831
2.231122 3.225209 -0.203596
2.1314499 3.0888009 -0.23200899
2.179616 3.174355 -0.29629499
2.7321391 3.9790399 -0.37140399
2.220154 3.265837 -0.344271
2.2535501 3.348336 -0.28333101
2.5205381 3.7638919 -0.23517001
2.304378 3.449765 -0.16754401
2.9348631 4.393631 -0.213384
2.232641 3.3507929 -0.110821
2.1646371 3.2569361 -0.051369
3.0922589 4.6526461 -0.073383003
2.211314 3.335566 0.0095920004
2.2037189 3.3325231 0.077001996
2.169004 3.2883229 0.14736199
2.2455461 3.4129851 0.231346
2.1417191 3.2634411 0.30036101
2.3580079 3.6021271 0.42278999
2.216846 3.395087 0.48788401
2.328397 3.5750051 0.61156398
2.2422719 3.4515331 0.68779802
2.1919651 3.38269 0.77169901
2.3476651 3.6322219 0.93598002
2.6659329 4.1351662 1.1903991
2.5532761 3.970444 1.2645659
2.408006 3.754123 1.3119709
3.212919 5.008997 1.750518
2.5274179 3.9503951 1.504047
3.166842 4.9498248 1.884563
2.3827839 3.7338791 1.538574
3.0387809 4.7740641 2.116575
2.991164 4.7113452 2.2361369
2.945065 4.6506681 2.3516109
2.9261 4.632618 2.483757
2.9051161 4.611268 2.6104319
2.846837 4.530426 2.6971879
2.8323669 4.5190439 2.817971
2.7972569 4.474586 2.9117291
2.7762179 4.4524322 3.0118041
2.7494731 4.4209862 3.097523
2.726409 4.395278 3.178879
2.703146 4.3691001 3.2493401
2.691468 4.361558 3.324559
2.652669 4.3211169 3.421839
2.579222 4.2456298 3.4759469
2.5711479 4.2770219 3.4168091
2.5885839 4.3287892 3.3429649
2.6007669 4.3606548 3.293539
2.606257 4.381423 3.2242169
2.6220779 4.4197149 3.158458
2.632798 4.4495568 3.0760479
2.651737 4.4934678 2.9948781
2.671762 4.5394602 2.906415
2.70345 4.6055312 2.821708
2.7249291 4.6545162 2.7187941
2.7462389 4.7034411 2.6087041
2.7816 4.7767401 2.5056379
2.8116579 4.8413 2.3916819
2.8468561 4.9150472 2.2759349
2.8766291 4.9797802 2.1509049
2.9090321 5.049427 2.0241981
2.4516361 4.2669439 1.578257
2.3075891 4.02706 1.365308
3.00349 5.2415042 1.777045
2.4797499 4.3391991 1.33883
3.047431 5.346971 1.489058
2.0415161 3.5917029 0.89409798
1.984354 3.500608 0.770383
2.4682131 4.3541861 0.95823002
2.1750679 3.8474619 0.738563
1.906671 3.381861 0.55650902
1.907933 3.393321 0.468411
2.111516 3.7656341 0.42396301
1.848251 3.3051281 0.29138499
1.922271 3.446902 0.223488
2.1541059 3.8731849 0.165792
2.2787261 4.1085038 0.090548001
2.903327 5.2346492 0.115368
2.053658 3.7128739 0.01017
1.900423 3.4452789 -0.051684
1.9416291 3.529686 -0.110876
1.880456 3.4279029 -0.15789901
1.8908139 3.456301 -0.20453
1.8895561 3.4635661 -0.243918
1.983192 3.6553781 -0.32000199
2.285753 4.2601991 -0.42148
1.821973 3.4340279 -0.27289701
1.923648 3.6461151 -0.214017
1.903682 3.6184521 -0.165123
1.932349 3.6833191 -0.11448
1.831755 3.5014689 -0.051908001
1.89814 3.6386521 0.0098369997
2.3426111 4.490685 0.01214
2.0582759 3.956846 0.085961998
2.840338 5.460288 0.118624
1.973942 3.8055141 0.160372
1.973708 3.815902 0.243275
1.947413 3.7758231 0.32690701
1.964018 3.818902 0.42171499
1.876528 3.65923 0.494813
1.923478 3.761555 0.60560501
2.3351519 4.5797429 0.859047
1.941643 3.8189421 0.82021201
1.985206 3.915895 0.95015103
2.1599791 4.272943 1.158417
2.1112909 4.18859 1.256544
3.1385641 6.299283 2.632231
3.005342 6.049521 2.7066481
3.160351 6.4364638 3.6145549
3.6299391 7.4146032 4.361969
3.852206 7.8918462 4.8456349
3.1618819 6.496747 4.1473289
3.6313889 7.4835591 4.9489799
3.1863 6.6646419 4.9853568
3.442338 7.5119209 4.916256
2.916966 6.3850231 4.029346
3.4950261 7.650352 4.827847
2.9035521 6.3752718 3.865396
3.4846179 7.6747351 4.4535341
3.420414 7.5566702 4.1812711
2.825871 6.2625108 3.2907951
4.5151448 10.03726 4.9889822
2.47155 5.5286312 2.426573
2.447726 5.492456 2.248992
2.4426291 5.4982152 2.0898221
2.4442539 5.519145 1.935869
1.645527 3.727303 1.198525
2.483983 5.6264992 1.809216
1.638451 3.7229929 1.089643
2.5123439 5.7087069 1.670821
1.867653 4.2572069 1.124789
2.5412259 5.7925792 1.5304461
1.8632981 4.2607288 1.006416
1.777566 4.0776038 0.851614
1.72727 3.9748299 0.72422397
1.604139 3.7032421 0.57850301
1.567219 3.629581 0.47569901
1.495523 3.4746239 0.371481
1.5245121 3.55334 0.29752299
1.530677 3.579195 0.22043499
1.652509 3.8765261 0.15764301
1.6234289 3.820626 0.080008
1.5740449 3.7163939 0.0096739996
1.789323 4.2383809 -0.060431998
2.2404461 5.3069568 -0.075668
1.653598 3.9296401 -0.117342
1.649085 3.9316871 -0.17218401
1.617835 3.8697801 -0.21775
1.527198 3.6649561 -0.24546
1.498024 3.618603 -0.301359
1.494639 3.6584749 -0.344531
1.5944541 3.955214 -0.29936701
1.52465 3.807565 -0.212928
1.516959 3.8011489 -0.16528399
1.546082 3.8872349 -0.115141
1.591751 4.0156579 -0.056740999
1.5637029 3.9583161 0.010201
1.495448 3.798465 0.078677997
1.499759 3.8224349 0.153605
1.3932559 3.5631621 0.216647
1.53566 3.9408619 0.32544899
1.390273 3.5800531 0.37714899
1.522197 3.933305 0.50747502
1.690484 4.3832951 0.67343003
1.547703 4.0270028 0.720927
1.581828 4.1301188 0.84672499
1.642869 4.3044801 0.997109
2.373131 6.2612619 1.793732
2.271081 6.013083 1.890774
2.1657591 5.7544699 1.971905
2.1166461 5.643858 2.09376
2.0646739 5.5247908 2.205904
2.043395 5.4873118 2.3462329
1.9850791 5.3497071 2.4376459
1.972546 5.3349271 2.578301
1.9626909 5.3273191 2.71929
1.938375 5.280221 2.8353779
1.903489 5.2038698 2.9277561
1.8924479 5.1924019 3.049417
1.887825 5.198482 3.1745911
1.884258 5.2075348 3.294889
1.872344 5.193459 3.393038
1.856562 5.1684961 3.4733031
2.1740091 6.2106271 4.6042109
1.730949 5.0196199 3.6354439
1.722222 5.032249 3.5252781
1.725359 5.0605979 3.46823
1.727304 5.0856409 3.396867
1.7199399 5.0833712 3.298264
1.718574 5.0988412 3.201319
1.722015 5.128727 3.1053939
1.725757 5.15976 3.0020709
1.758193 5.2771111 2.9389679
1.7593549 5.3011551 2.815572
1.7814699 5.3887262 2.718426
1.817816 5.5201788 2.63445
1.89053 5.7635522 2.5912509
1.992081 6.097054 2.5701439
2.088712 6.418056 2.5243361
2.089993 6.4474702 2.35429
1.916086 5.9344769 2.000001
1.871787 5.8203921 1.798493
1.41168 4.407258 1.239725
2.0946839 6.5395951 1.839533
1.4989181 4.6983981 1.193221
1.446139 4.5512171 1.033491
1.914078 6.0238881 1.367905
1.386858 4.3823071 0.88000798
1.279694 4.0600729 0.71136802
1.437892 4.5805421 0.688187
1.446025 4.6252751 0.58309501
1.2588871 4.043179 0.415851
1.459379 4.7063599 0.37915301
1.592853 5.1580062 0.305691
1.250188 4.0651269 0.15910099
1.676121 5.4500971 0.213305
1.244926 4.0648432 0.081935003
1.345452 4.4113698 0.011054
1.846058 6.0527201 0.015167
1.314351 4.3274102 -0.059406999
1.2365839 4.0884681 -0.117562
1.274232 4.2306709 -0.17843901
1.298192 4.3284278 -0.23459999
1.262725 4.2280431 -0.27279499
1.260083 4.2552299 -0.341483
1.47479 5.0667119 -0.46004099
1.225999 4.2861338 -0.312953
1.51844 5.3085151 -0.387602
1.1446511 4.0372171 -0.21785399
1.1229219 3.978184 -0.16693801
1.153403 4.1044021 -0.117342
1.187217 4.243679 -0.057884
1.218068 4.3735328 0.010882
1.340978 4.8366132 0.096734002
1.213169 4.395463 0.170577
1.155393 4.2051759 0.24695
1.251794 4.5768752 0.36511299
1.175157 4.3163691 0.439307
1.172284 4.3256388 0.53925198
1.226424 4.5463529 0.67499101
1.17378 4.3713932 0.75636399
1.281186 4.7936258 0.94995701
1.200543 4.5129342 1.010646
1.524775 5.7586722 1.441319
1.168306 4.4329891 1.22808
1.782985 6.7973142 2.067152
1.656427 6.4056802 2.474592
1.485369 5.8562918 2.8938091
3.230161 12.735402 6.2930298
1.391834 5.5688572 3.1672959
1.329783 5.3469591 3.162643
2.396874 9.6376562 5.7005239
1.3093539 5.3175268 3.3658099
1.292784 5.2766061 3.4358871
1.283958 5.267065 3.516664
1.28274 5.3156662 3.6903501
1.236362 5.2299132 3.7603059
1.1973521 5.1720748 3.6348791
1.227007 5.3567729 3.642401
1.238037 5.4339018 3.6151659
1.1722879 5.1730371 3.35464
1.186332 5.2633839 3.316067
1.196171 5.3359032 3.253473
1.1950409 5.3894868 3.0460351
2.304358 10.507812 5.4227328
2.1567161 9.8894148 4.8480692
1.923785 8.8707781 4.1145482
1.437628 6.7810102 2.4077749
1.992764 9.4535484 3.098489
0.92392498 4.4083881 1.324953
1.558176 7.4346371 2.234499
1.7200561 8.303051 2.051569
0.92148697 4.474339 0.988648
0.917032 4.479053 0.87530702
0.939695 4.6170101 0.78735
1.05568 5.2178631 0.763107
1.371912 6.7808928 0.99169898
0.98149598 4.8803768 0.598984
0.97874898 4.8961129 0.49032301
0.89850003 4.5219712 0.354756
0.93526602 4.7357979 0.27335301
0.95601302 4.8705902 0.18568
0.967686 4.960557 0.097409002
0.98170698 5.0637012 0.012363
0.953614 4.9495368 -0.066211
0.88198 4.6065512 -0.12909
0.90276903 4.744946 -0.19506399
0.89066303 4.7110901 -0.248909
1.123857 5.9445491 -0.31407899
0.924308 4.9203768 -0.30950901
0.828664 4.4683771 -0.349693
1.04592 5.6398802 -0.441374
0.90356302 5.0017629 -0.44310501
0.82309502 4.6804819 -0.33361101
0.86006099 4.9581819 -0.26124799
0.85306299 4.9519639 -0.202933
0.84245902 4.9245672 -0.137509
0.879682 5.17836 -0.068995997
0.846964 5.0210519 0.012205
0.86905003 5.1887488 0.101397
0.83701098 5.0333099 0.19087601
0.79903102 4.8396249 0.27776301
0.79668802 4.8605809 0.37900001
0.829225 5.0961399 0.50703597
0.81263798 5.031033 0.61320001
0.74076402 4.6201639 0.67073399
0.90452403 5.6415458 0.81901401
0.74500299 4.6813612 0.79212999
0.72894001 4.6149311 0.89448601
0.80481201 5.133996 1.124656
1.233099 7.9262061 1.940807
1.224511 7.9310689 2.1497879
0.82852799 5.4932661 1.929698
1.111982 7.3726149 2.589884
1.474679 9.9339247 4.0240798
1.157968 7.9272261 3.6315031
0.92479402 6.4355512 3.2774069
0.969033 6.7995081 3.628978
0.93284899 6.6563792 3.8580959
0.651178 4.8946252 3.332335
0.62919301 4.9037099 3.459321
0.612391 4.9551401 3.418504
0.61541897 5.0765781 3.3893721
0.90373898 7.6027479 4.842206
0.75719398 6.5651598 3.79338
0.68421602 5.9936628 3.3286569
1.1042089 10.088743 4.600482
0.71121198 6.6408148 2.6761489
0.98313099 9.2816334 3.4908421
1.052784 10.281361 3.040195
0.98775399 9.7583046 2.627461
0.95201701 9.5155668 2.313777
0.63490701 6.421308 1.3964601
0.76964003 7.7839642 1.692801
0.75304103 7.7076502 1.482662
0.545479 5.6510119 0.94871002
0.53249502 5.5843301 0.804115
0.55428702 5.8853178 0.71127802
0.50599301 5.440238 0.536551
0.47552001 5.1778402 0.400098
0.473286 5.220192 0.29681501
0.56713903 6.3372231 0.238015
0.48238301 5.4617209 0.105675
0.44269899 5.079731 0.012222
0.54682797 6.3599849 -0.083851002
0.556081 6.5569701 -0.181116
0.45137 5.3967428 -0.218711
0.55197102 6.5995588 -0.267456
0.447326 5.4242568 -0.28255701
0.46050099 5.6644621 -0.351345
0.43823799 5.5502682 -0.428408
0.50989199 6.4577522 -0.498454
0.40794599 5.491982 -0.48010299
0.39656499 5.6971598 -0.40090701
0.374762 5.5708899 -0.28986701
0.35886201 5.4287171 -0.21971899
0.39656299 6.1068201 -0.168433
0.37385401 5.8625851 -0.077165
0.35713899 5.7048159 0.013701
0.37410301 6.089386 0.117584
0.33082899 5.489193 0.205717
0.33988601 5.7507362 0.32621399
0.318041 5.4895401 0.423114
0.34143499 6.014339 0.59157401
0.31523901 5.6692872 0.683204
0.33182901 6.0955758 0.87506199
0.335228 6.2926979 1.0530421
0.32034999 6.1478519 1.1786079
0.56605798 11.112011 2.407953
0.41021499 8.6436462 2.5454891
0.462533 9.9914951 3.207819
0.339542 7.5239139 2.616133
0.395055 8.9858141 3.3640299
0.35079601 8.1964102 3.287256
0.28680101 7.0865612 3.2149291
0.34447899 8.7640638 4.2009692
0.331765 9.9075756 5.897974
0.152578 5.5142131 3.722795
0.09888 10.908121 6.0191188
0.072136998 9.1278591 4.8230662
0.038819 6.9597378 3.3335609
0.043669 9.8893185 4.4828172
0.015076 7.2115941 2.8896461
-0.001777 7.5721912 2.6302431
-0.013453 9.6336737 3.089633
-0.018385001 7.1864982 2.1139979
-0.02942 7.9052091 2.1177011
-0.048285998 9.8875875 2.3923221
-0.039680999 6.56392 1.4205739
-0.046558 6.4585309 1.236523
-0.052136 6.228415 1.040845
-0.063510999 6.6625919 0.95508999
-0.069233999 6.4729381 0.77889401
-0.073303998 6.1818271 0.60711402
-0.076064996 5.8422332 0.44958299
-0.082888998 5.844049 0.33096299
-0.084638 5.515492 0.206352
-0.11089 6.7168369 0.129473
-0.11921 6.7459269 0.016171999
-0.12677 6.3393312 -0.174513
-0.137036 6.4762702 -0.26160499
-0.14753699 6.6094508 -0.343216
-0.16059899 6.8380561 -0.42286101
-0.237305 6.757195 -0.474646
-0.26551801 7.0904751 -0.368361
-0.286854 7.4294038 -0.30026299
-0.28151101 7.0777211 -0.19495501
-0.27763501 6.5941391 0.015819
-0.296267 6.6677532 0.249679
-0.296509 6.5028148 0.36861601
-0.334822 7.159987 0.55154502
-0.31858999 6.647357 0.65353602
-0.348268 7.0942249 0.85463297
-0.4346 8.4514894 1.414165
-0.33149499 6.3036461 1.208506
-0.54524302 10.143199 2.1983359
-0.410514 7.32096 1.964256
-0.60759199 10.615147 3.1276779
-0.53587598 9.1752625 2.9476271
-0.58626199 9.8417053 3.4246311
-0.49070099 8.0795012 3.0273809
-0.573843 9.2703714 3.721688
-0.63032001 9.994607 4.2781572
-0.67611498 10.526227 4.7813139
-0.454124 6.8223152 3.446656
-0.72009498 9.6353292 6.2676291
-0.61967999 8.0405149 5.4423852
-0.71891999 8.0993013 5.3892951
-0.85965002 9.4359732 5.9924898
-1.03578 10.308389 4.6962652
-1.225499 11.91814 4.8007021
-0.77073503 7.4109511 2.7867179
-1.0213 9.4984999 2.8101981
-1.076901 9.9072599 2.6696391
-0.96661699 8.2666426 0.81733602
-0.96117699 8.1382113 0.63056701
-0.94226497 7.8992548 0.450481
-0.98719001 8.1949806 0.308781
-0.86925298 7.145988 0.138742
-0.99571002 8.1070585 0.019578001
-0.89970899 7.2558012 -0.096040003
-0.87301099 6.6601701 -0.51686698
-0.79942602 5.8864322 -0.51788199
-1.235929 8.4382334 -0.112024
-1.264523 8.5641232 0.020749999
-1.29553 8.6352501 0.32664999
-1.2375 8.1837053 0.468685
-1.33576 8.7645893 0.68220001
-1.441654 9.3862524 0.93256199
-1.531339 9.5272942 2.334707
-1.65573 10.077526 3.27531
-1.2778209 7.5576172 3.27442
-1.517234 8.4924164 5.302146
-1.688066 8.4774904 5.3126178
-1.785165 8.9110556 5.407115
-2.1963921 10.457909 4.2818379
-1.660538 7.010262 -0.44538301
-1.424902 5.9537678 -0.47106501
-1.3189909 5.400167 -0.48461899
-1.6106991 6.4639502 -0.46764299
-3.3094261 12.897128 0.031913999
-2.1321189 -7.6664639 2.1316741
-2.118252 -7.6508341 2.335247
-1.72063 -7.6387768 2.511224
-1.7076271 -7.622118 2.297713
-1.708371 -7.6670098 2.1042459
-1.711146 -7.7214742 1.913528
-1.697618 -7.7025471 1.706973
-1.305433 -5.9558759 1.167326
-1.693295 -7.7683482 1.328622
-1.325307 -6.1140628 0.89677203
-1.688508 -7.7896261 1.142532
-1.669867 -7.7469101 0.953547
-1.363072 -6.359273 0.63868099
-1.665096 -7.7683358 0.78019798
-1.647542 -7.730011 0.60816401
-1.1477619 -5.4158459 0.31349301
-1.1276979 -5.3516512 0.204595
-1.621594 -7.6955042 0.29420099
-1.604908 -7.6602292 0.15084299
-1.210313 -5.8102641 0.014225
-1.590434 -7.635088 0.018693
-1.585739 -7.6568451 -0.102712
-1.568355 -7.6172729 -0.214049
-1.556669 -7.6049891 -0.313499
-1.54009 -7.5684938 -0.400971
-1.39115 -7.4043002 -0.391121
-1.409917 -7.5522571 -0.31027099
-1.377008 -7.4235082 -0.20780399
-1.370631 -7.4371009 -0.099335998
-1.3643121 -7.4511042 0.018155999
-1.35759 -7.463119 0.146199
-1.349696 -7.4687171 0.283921
-1.339681 -7.4625568 0.42933601
-1.333801 -7.4795461 0.584611
-1.327747 -7.4956951 0.74755502
-1.144415 -6.5044551 0.79466301
-1.3173161 -7.4871631 0.91472203
-1.312765 -7.5122089 1.093153
-3.8961799 -23.410355 7.6112409
-3.845119 -23.437843 8.8831682
-3.7858281 -23.415213 10.132828
-0.74926102 -5.7202611 3.432431
-2.9126689 -23.281046 11.237862
-2.77474 -23.269646 8.1401033
-2.7490599 -23.283056 7.5190129
-2.7214789 -23.280409 6.8948331
-0.85311401 -7.6825948 1.291703
-0.842094 -7.6640658 1.105214
-0.83153099 -7.649437 0.92583197
-0.82412797 -7.6637378 0.75693703
-0.80865997 -7.6025128 0.58829403
-0.79812503 -7.5869141 0.43199301
-0.78686601 -7.5638618 0.284482
-0.77616102 -7.5457778 0.146199
-0.765863 -7.531137 0.018144
-0.75639802 -7.5244241 -0.099335998
-0.74371898 -7.4852948 -0.20703299
-0.73514003 -7.4868622 -0.30381399
-0.72321099 -7.4539118 -0.38878801
-0.71418601 -7.4505591 -0.462722
-0.62449902 -7.4164371 -0.522475
-0.60843199 -7.4310932 -0.387077
-0.60145098 -7.451673 -0.301918
-0.59230697 -7.4456491 -0.205575
-0.58355099 -7.44452 -0.098089002
-0.57638299 -7.4637561 0.017943
-0.569161 -7.4829922 0.144639
-0.56082398 -7.4877748 0.280893
-0.55145502 -7.478683 0.42464399
-0.543585 -7.4901009 0.57786
-0.53557497 -7.499733 0.73836797
-0.52600098 -7.4874082 0.90313399
-0.519481 -7.5190358 1.0803829
-1.280015 -18.843683 3.156158
-1.478636 -23.362843 6.2710772
-1.451882 -23.367977 6.8872142
-1.42466 -23.366163 7.5077138
-1.398275 -23.377602 8.1348534
-1.321733 -23.461384 10.038543
-1.294296 -23.456459 10.648859
-1.266706 -23.449093 11.247797
-0.294357 -6.103209 3.635422
-0.17771401 -6.7679858 4.0281091
-0.141771 -6.5528102 3.3039651
-0.447303 -26.289003 10.53536
-0.35497499 -26.19813 8.402813
-0.264777 -26.255077 6.352716
-0.234146 -26.218952 5.674469
-0.124374 -18.787079 3.1395111
-0.041990999 -7.6823578 1.101241
-0.033064999 -7.6715941 0.92308497
-0.024192 -7.6660848 0.75283301
-0.01527 -7.6294308 0.58706599
-0.0064300001 -7.603816 0.43057999
0.0023459999 -7.6016831 0.28437001
0.011103 -7.581584 0.14612199
0.019866001 -7.5859518 0.018183
0.028566999 -7.5712929 -0.099454999
0.037223 -7.5520482 -0.20785899
0.045823 -7.5327201 -0.30421799
0.054430999 -7.5206752 -0.39044699
0.063055001 -7.512392 -0.46444899
0.165042 -7.4161739 -0.38510701
0.175752 -7.5078211 -0.30329001
0.183468 -7.4689178 -0.20563
0.194033 -7.5438542 -0.099126004
0.202435 -7.532259 0.018060001
0.211271 -7.5366392 0.14531299
0.220644 -7.5594912 0.28291199
0.22955699 -7.565393 0.428601
0.238387 -7.5678639 0.58261597
0.247933 -7.592412 0.74599099
0.256688 -7.5918708 0.91400498
0.26591799 -7.6045742 1.090741
0.44542199 -8.7030277 4.3928332
0.290153 -5.423326 2.996757
0.389561 -6.978601 4.158493
0.35431999 -5.9745798 3.8823709
0.41899401 -6.7989941 4.5971351
0.47605801 -6.4991741 4.31917
0.71189201 -8.6225739 4.3613238
0.76831502 -7.7693009 1.11912
0.775581 -7.7511072 0.93730098
0.78351301 -7.7400222 0.76397401
0.79281098 -7.7425079 0.59888101
0.797306 -7.6984239 0.43826899
0.80558199 -7.6915188 0.28930399
0.81332701 -7.6796169 0.148839
0.821293 -7.6701322 0.01849
0.82890898 -7.6576028 -0.101175
0.83698797 -7.6494312 -0.21179301
0.86086899 -7.6228981 -0.47426
0.88488799 -7.6763229 -0.594585
0.92783099 -7.7339988 -0.679075
0.96957803 -7.7775092 -0.55020601
0.99119103 -7.80371 -0.40838501
1.004812 -7.8384171 -0.319148
1.013677 -7.835712 -0.217461
1.0284849 -7.8784671 -0.104367
1.042383 -7.9136209 0.019131999
1.048061 -7.8861852 0.153329
1.059824 -7.9046898 0.29835099
1.068403 -7.8993049 0.45138499
1.07933 -7.911109 0.61437899
1.0859261 -7.8913159 0.78224999
1.096397 -7.8997531 0.95964003
1.203462 -7.5748782 4.23208
1.292182 -8.0730991 4.6929379
0.81145298 -4.9236631 3.2369421
0.89926201 -5.230134 3.713295
0.93712801 -5.3034391 3.6874189
0.89730197 -4.9445419 3.1782489
1.737057 -9.3262758 5.2345419
1.567095 -8.3600826 4.4941778
1.489156 -7.8938541 4.0493822
4.476263 -23.284655 10.129292
4.490706 -23.215076 9.4745712
1.893075 -9.7261276 3.7059319
4.5559392 -23.263687 8.2342739
4.6098752 -23.254072 6.973568
1.6394 -8.1707039 2.016295
1.651842 -8.1836796 1.806811
1.656354 -8.157361 1.593603
1.665729 -8.1552067 1.390925
1.672029 -8.1380882 1.190918
1.681242 -8.1351728 0.99953997
1.688606 -8.1234407 0.81479502
1.701333 -8.137475 0.63969702
1.703608 -8.1015558 0.468799
1.714512 -8.1068878 0.30997699
1.719367 -8.0836353 0.159284
1.731113 -8.0929003 0.019836999
1.740527 -8.091197 -0.108714
1.746839 -8.0750904 -0.227393
1.761773 -8.0988359 -0.33472401
1.766134 -8.0739613 -0.42907101
1.7794091 -8.0898008 -0.51208502
1.789943 -8.0490017 -0.63447899
1.830259 -8.0543356 -0.72006798
1.867023 -8.0438471 -0.579687
1.88726 -8.0465097 -0.42907101
1.897563 -8.0485964 -0.33395699
1.913455 -8.0742264 -0.228383
1.923589 -8.0753403 -0.109043
1.931914 -8.068923 0.019887
1.942764 -8.0729847 0.160035
1.9600151 -8.1035004 0.311883
1.9657151 -8.0861692 0.47123
1.9823411 -8.1136551 0.64268899
1.9972939 -8.1340847 0.82251602
1.999763 -8.1036987 1.004319
2.017211 -8.1339378 1.201277
2.030056 -8.1454391 1.402792
2.0439839 -8.1611319 1.610715
2.0539091 -8.1606874 1.8211941
2.067627 -8.1752758 2.040282
5.9324932 -23.34371 6.4522099
6.0372658 -23.641527 7.1776028
2.4164391 -9.4171543 3.1180339
6.103632 -23.672949 8.4918518
2.237128 -8.6354246 3.336355
2.236367 -8.5915337 3.5572879
2.5304279 -9.6299038 4.5133691
2.3946509 -9.028203 4.708375
6.3430171 -23.803143 13.01583
2.2042589 -8.083744 5.2992191
2.177187 -7.9482212 5.3457432
2.1586411 -7.8096471 5.4681182
2.141243 -7.609488 5.5312452
2.4457409 -8.5399952 6.0822358
2.478812 -8.5804625 5.919661
2.4927349 -8.5914183 5.8028769
2.499655 -8.5782213 5.6509328
2.4359601 -8.3237677 5.330421
2.4906859 -8.4744358 5.2552562
2.4856081 -8.4211845 5.0399179
2.5209041 -8.5045137 4.8944292
2.5583889 -8.5945196 4.7380409
2.590553 -8.6658936 4.559381
2.6208439 -8.7304525 4.365984
2.6577101 -8.8162584 4.1739988
2.689441 -8.8843107 3.9654469
2.7234859 -8.9594336 3.752188
2.7533181 -9.0201073 3.5272739
2.7571859 -8.9954958 3.268116
2.7186761 -8.833416 2.964118
2.7464709 -8.8871927 2.7362599
2.7702401 -8.9274807 2.5040319
2.7848549 -8.9380827 2.2650981
2.7967529 -8.939889 2.027215
2.7996559 -8.9129677 1.788597
2.7972341 -8.8694029 1.554098
2.8134241 -8.8849392 1.335934
2.8074701 -8.8306227 1.114941
2.8141191 -8.816246 0.908813
2.8137009 -8.7799091 0.709436
2.817277 -8.7561989 0.520868
2.8277919 -8.7541761 0.344145
2.829268 -8.6899986 0.021904999
2.7831521 -8.5149221 -0.117672
2.4973519 -7.610703 -0.220459
2.8573761 -8.6740398 -0.36882201
2.843612 -8.5988121 -0.47018501
2.8185041 -8.4247761 -0.68358099
2.8870959 -8.4989681 -0.78251201
2.7617781 -8.0083094 -0.59467298
2.803376 -8.0683489 -0.443432
2.925401 -8.3882771 -0.35877401
3.124486 -8.860198 0.022519
3.1391649 -8.8690958 0.181328
3.1521411 -8.8731527 0.35225701
3.137747 -8.8003864 0.52906603
3.1406519 -8.7764254 0.71726102
3.1432941 -8.7519188 0.91321099
3.1381381 -8.7059307 1.113507
3.1600471 -8.7350197 1.3315361
3.1809571 -8.7611656 1.557559
3.2169559 -8.8285046 1.798939
3.221839 -8.8102074 2.0301771
8.5797577 -23.294916 6.6501622
8.7458982 -23.661598 7.4205809
8.7836523 -23.429668 10.026167
8.9284019 -23.732246 10.832104
9.0574999 -23.824165 12.848102
2.244997 -5.7838788 3.923903
9.6833487 -23.408726 13.977942
3.4281859 -8.1800022 4.0204158
3.501905 -8.3288336 3.8597691
3.559727 -8.4390297 3.6699879
3.6279869 -8.5731544 3.481734
3.689291 -8.6899681 3.2792721
3.703326 -8.6950588 3.030998
10.050086 -23.521166 7.5241499
9.9626989 -23.242119 6.7741089
6.0846672 -13.92722 1.828728
4.2770009 -9.6977568 0.60018897
3.9981 -9.0088444 0.189961
4.0116892 -9.011342 0.023643
3.817503 -8.5485268 -0.122979
3.7727461 -8.4220963 -0.253997
3.7902529 -8.4350176 -0.373463
3.738894 -8.2950506 -0.47236201
3.767364 -8.3324432 -0.56533599
3.9882801 -8.7669821 -0.74112099
3.9604521 -8.5999727 -0.82541603
3.9064851 -8.330102 -0.47764999
3.9377589 -8.3715906 -0.373624
6.7283921 -13.96728 1.522475
11.456503 -23.298147 6.9549832
11.526485 -23.372169 7.6658168
11.569878 -23.391832 8.369525
11.60184 -23.388355 9.0686941
11.665138 -23.447805 9.7950258
11.708279 -23.466343 10.508208
4.3089352 -8.611249 4.1135521
4.502254 -8.8690042 5.4881768
4.7675409 -9.337985 6.2379961
4.5059352 -8.8004436 6.0765762
4.0308838 -7.82792 5.7114501
3.9964881 -7.5453591 5.8460879
4.1900401 -7.866713 5.9075069
4.6528888 -8.7114077 6.4064021
4.0295329 -7.5024881 5.234076
4.736093 -8.7936058 5.9424582
4.743649 -8.7832909 5.7298951
4.585681 -8.3745613 4.3279958
13.03299 -23.542048 9.3469429
7.9138021 -13.912727 1.57183
5.391871 -9.3278246 -0.141525
4.897922 -8.4282207 -0.39367899
4.8256221 -8.2817488 -0.49761099
4.7866769 -8.1930847 -0.58662403
4.8430128 -8.2456694 -0.73582703
4.8612962 -8.1897516 -0.83027899
4.9035959 -8.1745987 -0.669182
4.8676438 -8.0722542 -0.48936701
5.3262939 -8.7868338 -0.282803
7.335938 -11.883945 1.371479
5.2115579 -8.121911 4.6221461
5.7950501 -8.8497782 6.8619032
4.5247402 -6.7046809 5.3611188
5.3886242 -7.827384 4.7902989
9.9994555 -13.895708 0.96942699
9.9982576 -13.860177 0.63931799
6.6103678 -9.0969076 -0.14771099
6.123342 -8.3654156 -0.53820598
6.0150409 -8.1975079 -0.62858301
6.0874648 -8.2560711 -0.78930199
6.2657061 -8.4158955 -0.91469699
6.1067958 -8.1236324 -0.71344
6.9784412 -9.1720829 -0.151389
10.60412 -13.87068 0.33650699
10.643892 -13.889354 0.654607
10.717107 -13.917993 1.3516639
6.0307341 -7.5211682 4.8596191
10.265339 -12.240962 10.588542
10.344647 -12.306601 10.428634
9.6902618 -11.313823 7.1349511
12.196682 -13.846386 3.083472
11.408313 -12.921226 2.4708049
12.33768 -13.876469 1.428768
12.332579 -13.838428 1.049652
8.0008402 -8.9152784 0.028712001
8.2241888 -9.1004124 -0.495368
7.4962001 -8.2563677 -0.68942398
7.5329642 -8.2584 -0.86011499
7.7179699 -8.3829575 -0.99338198
7.6739531 -8.2581329 -0.79137999
8.3647957 -8.9184504 -0.33653599
13.131177 -13.871072 0.71453202
12.803267 -13.431004 1.82222
12.284936 -12.827683 2.5460091
12.267159 -12.779503 2.960186
12.243731 -12.725607 3.3808839
12.227865 -12.679696 3.8122389
12.229373 -12.651946 4.2574062
12.256877 -12.65124 4.7187691
7.905571 -8.065856 4.5254631
6.7473941 -6.7420449 5.8624158
6.8785372 -6.6227708 6.0389938
7.1867571 -6.8397059 5.2421169
8.259057 -7.7875528 4.8493629
12.084328 -11.158611 3.1490359
14.349487 -13.188778 2.793756
10.01781 -9.0164938 -0.37095401
9.874444 -8.8667707 -0.53596199
9.2359934 -8.2548704 -0.76581401
9.2715082 -8.2480469 -0.95486498
9.4424047 -8.3219576 -1.097254
9.4363708 -8.2392302 -0.87940502
10.103354 -8.7598677 -0.54003799
10.58447 -8.7764177 5.1425552
10.249527 -8.4786444 5.3299809
9.8650541 -8.1221714 5.7924051
10.325081 -8.4608307 6.7290149
