# .PCD v0.7 - Point Cloud Data file format
VERSION 0.7
FIELDS x y z
SIZE 4 4 4
TYPE F F F
COUNT 1 1 1
WIDTH 1541
HEIGHT 1
VIEWPOINT 0 0 0 1 0 0 0
POINTS 1541
DATA ascii
8.464015 -2.435667 5.4131532
8.454875 -2.4224141 5.232758
8.442709 -2.4083281 5.0394201
8.3568039 -2.373323 4.7934589
8.5736351 -2.4241519 4.707674
8.6136227 -2.42465 4.510767
8.702528 -2.4387779 4.3288341
12.425108 -3.4664359 5.8473148
12.801835 -3.555505 5.6759238
9.3646955 -2.58919 3.8931551
12.789036 -3.5199921 4.9610939
15.424329 -4.168323 4.2801681
14.609162 -3.9298401 3.6603251
13.516234 -2.8884139 4.0657282
9.6295776 -2.0344789 3.418725
9.1057854 -1.912787 3.4799819
9.2664032 -1.935295 3.793102
10.553547 -2.1913459 4.6046171
6.8995261 -1.424279 3.19346
10.801082 -2.229682 4.9993029
10.59549 -2.174417 5.1806908
7.0380168 -1.435845 3.620857
10.170426 -2.0626149 5.4831772
9.8608952 -1.987921 5.550499
9.7861176 -1.96104 5.7289
6.7924399 -1.352934 4.120656
6.945776 -1.375104 4.3517809
6.917645 -1.3612 4.4589558
7.1030731 -1.3891211 4.6948719
6.4551649 -1.215822 4.5961852
7.0087061 -1.2864341 4.8788962
7.2233911 -1.308517 4.8655581
7.2487202 -1.304426 4.7775912
6.9119978 -1.235558 4.4407821
6.7450609 -1.197636 4.2104049
9.8923635 -1.756464 6.1750159
6.809608 -1.200953 4.1140089
9.82757 -1.721457 5.7269082
6.7162132 -1.168416 3.7615271
6.88556 -1.189652 3.6920459
7.20363 -1.235994 3.6843259
7.029891 -1.197793 3.4156361
6.9983649 -1.184072 3.217406
9.2122192 -1.547639 3.9905889
9.2851391 -1.54882 3.7719009
9.978075 -1.593097 2.4447629
13.016528 -1.355998 4.5458312
7.63902 -0.77786201 3.0767341
7.3765559 -0.742486 3.167172
6.8282251 -0.67928803 3.110476
7.155334 -0.70343202 3.4437139
7.2808781 -0.70724201 3.6874771
8.219429 -0.79841 4.162816
7.6377158 -0.73295599 4.0541029
7.045547 -0.66786498 3.9050119
7.0746961 -0.66234398 4.07863
6.8185878 -0.630373 4.0741272
7.2879848 -0.66523701 4.49787
7.2912059 -0.65699798 4.630002
8.3423166 -0.72242302 5.651041
8.2166977 -0.67309803 5.7685928
6.772264 -0.52311999 4.6506562
9.1092024 -0.68235201 6.0544629
7.190423 -0.53022802 4.6769128
8.3140831 -0.613087 5.407783
7.3639212 -0.534428 4.6695561
7.065382 -0.48802501 4.0651889
7.2582908 -0.49287301 4.0141959
7.2808371 -0.48591501 3.855556
8.6403141 -0.57664502 4.5754652
7.3377872 -0.48115 3.7068319
7.0606589 -0.454748 3.3888531
12.28706 -0.76270097 5.2591081
12.113551 -0.73781699 4.8628168
12.088183 -0.72219002 4.5291619
12.023481 -0.704301 4.1835818
12.760733 -0.73262501 4.0992532
12.126256 -0.682078 3.572716
12.951936 -0.69834203 3.138262
6.9714808 -0.059783999 0.99936098
7.275908 -0.053948998 1.215885
7.0596442 -0.044151001 1.351601
7.2500629 -0.036915001 1.569061
7.0398211 -0.027673 1.703292
6.6398549 -0.018461 1.778724
6.9629831 -0.011285 2.048244
6.8350868 -0.0031409999 2.192091
6.953454 0.0048679998 2.4153211
11.671372 0.021706 4.3652158
11.786922 0.035608999 4.7229662
7.9544859 0.033255 3.398169
7.8509431 0.041926999 3.55884
6.9948721 0.045478001 3.3504081
6.929184 0.053087 3.4930201
6.8237381 0.060192998 3.6056199
6.8605261 0.068484001 3.7856829
6.7504959 0.075214997 3.8750219
6.450995 0.079369999 3.838413
8.472764 0.114072 5.2078948
8.5309439 0.12475 5.395967
8.8288612 0.13936201 5.7277761
8.904232 0.161209 6.0101738
8.8048306 0.200296 6.1624532
8.7150145 0.238718 5.9692459
8.4525995 0.26097399 5.4856038
6.558135 0.217719 4.0328979
8.220233 0.27289799 5.0549989
7.3598189 0.25287801 4.3814249
7.3039708 0.25943899 4.1951199
6.5718908 0.24107701 3.62867
6.8624158 0.25970301 3.628511
7.1141782 0.27750501 3.5888979
7.4715028 0.30012101 3.5815151
8.9962626 0.361368 4.3124189
7.7815661 0.321614 3.5303531
7.0139098 0.29804599 2.9990311
6.7558999 0.29493099 2.7096241
6.6771159 0.29925001 2.499814
7.7606502 0.34781101 2.905473
7.0319872 0.32333699 2.4451809
6.9663758 0.32841599 2.2366779
6.7124491 0.324247 1.976846
6.7253528 0.332699 1.8038239
6.47368 0.327775 1.568308
6.7934132 0.35186201 1.472185
7.0616722 0.373979 1.353858
7.1384249 0.38634601 1.194623
6.669538 0.36872599 0.95750201
12.130056 0.68474102 1.461859
12.093318 0.71080798 0.93215603
11.386082 0.748824 -0.31405801
11.539271 0.79924399 -0.71509302
11.30517 0.86214298 -0.98843199
11.088369 0.89737898 -0.78094602
9.2733774 0.77215999 -0.48309401
9.0713015 0.76592702 -0.367652
8.7825432 0.75180399 -0.242607
8.8449984 0.76749802 -0.116621
8.1046982 0.712731 0.019501001
9.8565521 0.91291398 0.76168197
8.4193726 0.78965098 0.830432
6.632113 0.62978399 0.80159098
6.8017979 0.65386802 0.979496
6.5066228 0.63310802 1.092434
6.8870039 0.67818302 1.3249
6.561842 0.65385801 1.4271311
6.7181211 0.67729902 1.633683
7.1610551 0.73027802 1.928288
7.1209149 0.73454499 2.105814
6.9951839 0.729801 2.2556119
6.9282279 0.73095298 2.419915
7.0316858 0.75013 2.6448431
7.4422822 0.80268902 2.9993701
7.4231749 0.80935401 3.1899569
7.5829101 0.83568603 3.4581029
6.92693 0.77155 3.3383119
7.0607128 0.79475802 3.581696
7.3038769 0.83072299 3.884053
8.0042019 0.91980898 4.4456158
7.480361 0.86841798 4.3225608
7.421586 0.87034702 4.4458499
7.5509 0.89440602 4.6732821
7.345283 0.87870502 4.6786432
6.5382271 0.78987497 4.2720232
6.6316428 0.81679899 4.5093088
6.6513228 0.85064101 4.691926
6.580524 0.87269801 4.545011
6.5926609 0.889911 4.4092221
6.9918952 0.95207399 4.577323
7.0483532 0.968104 4.499579
7.3857598 1.023203 4.582696
7.222672 1.009163 4.3389859
8.2435961 1.161574 4.778563
7.3881631 1.049806 4.1175818
7.315167 1.048105 3.904609
7.3919978 1.067891 3.764899
7.5208278 1.0954241 3.640264
7.4091082 1.087944 3.394522
6.762629 1.001054 2.9204609
8.0089025 1.185537 3.458668
6.9453521 1.03635 2.8137691
6.5455709 0.98447198 2.4756429
7.1653728 1.086218 2.5173681
6.8470502 1.046102 2.2214091
6.4533181 0.99362099 1.920687
6.4649611 1.003114 1.752589
6.5309262 1.021121 1.599349
6.4435182 1.015125 1.41169
6.7581129 1.072746 1.310045
6.4192858 1.02661 1.086336
7.2367482 1.165967 1.050727
9.2792597 1.495052 1.347286
7.4392819 1.20748 0.906838
6.1081209 0.99870199 0.60779798
7.4369979 1.215979 0.74002999
7.2948699 1.201444 0.568883
6.9192009 1.147842 0.397167
6.4164991 1.072109 0.243361
6.4392471 1.083612 0.12585101
7.1580062 1.204566 0.139898
6.394794 1.083773 0.015546
6.2372632 1.064531 -0.083114997
5.9780521 1.027449 -0.16694701
6.279458 1.086764 -0.257368
6.1627021 1.073934 -0.32475901
7.1829319 1.2517231 -0.37852201
6.9542809 1.220215 -0.436497
6.4553108 1.148132 -0.50451499
6.2720432 1.1456521 -0.55583602
6.6230412 1.241608 -0.47303501
6.069242 1.152403 -0.32071501
5.8257651 1.113187 -0.23953301
5.9192829 1.138186 -0.165902
6.1543131 1.190805 -0.082340002
6.31147 1.228822 0.015412
5.9252481 1.160782 0.11637
6.065959 1.195668 0.231286
6.2667179 1.242805 0.36177501
6.5892539 1.314739 0.51701999
6.1442852 1.23338 0.615421
6.6897268 1.350957 0.82118303
6.4101939 1.3022701 0.93763697
6.2648458 1.280322 1.068535
6.0156589 1.23668 1.175788
6.434741 1.330637 1.4220541
6.274776 1.305162 1.55067
6.0831761 1.272612 1.664869
6.4401488 1.3550889 1.935926
6.2528648 1.323266 2.0497789
6.6699181 1.419608 2.3687279
6.5971341 1.4121161 2.5232849
6.610898 1.423093 2.7096241
6.4218049 1.390182 2.806926
6.4628301 1.4069099 2.998178
6.603261 1.445515 3.2376621
6.5170832 1.434571 3.363832
6.900146 1.527284 3.734092
6.9508419 1.5469739 3.929167
6.925674 1.549804 4.0736518
7.278358 1.646474 4.5863619
6.884625 1.5658 4.4653702
7.5707779 1.731104 5.0377221
7.0956941 1.6398 4.9148731
6.7040558 1.582109 4.8197732
6.9853721 1.682754 4.9195719
7.2348328 1.7606241 4.9351692
7.9382372 1.941553 5.3011179
6.852231 1.684359 4.462698
7.8633642 1.932907 5.1212249
8.4073572 2.076983 5.322567
6.3856692 1.585398 3.914598
8.2581654 2.0502901 5.0624909
6.4078999 1.5988081 3.7908909
6.4892521 1.627113 3.6914749
6.6797609 1.683117 3.6397231
6.5875459 1.6680191 3.4254999
6.4530058 1.641917 3.18928
6.296876 1.609969 2.9461579
6.2810531 1.613696 2.770391
6.4488101 1.6647691 2.66871
6.1777768 1.602446 2.3870139
6.1162338 1.594064 2.195478
5.954422 1.559268 1.974043
5.961905 1.5686181 1.813449
6.033689 1.594998 1.671856
6.0412102 1.604484 1.512339
6.043735 1.6126601 1.3537329
6.02213 1.614388 1.193651
6.3676682 1.714936 1.101994
6.231935 1.686134 0.92543399
6.2179241 1.690094 0.77530998
6.1732192 1.6856329 0.62841898
5.5836329 1.531603 0.445517
5.9436069 1.637769 0.34911099
5.596499 1.549108 0.21723101
5.5426631 1.5411381 0.110878
5.3242168 1.487052 0.01325
5.9401259 1.666504 -0.081040002
5.48809 1.546562 -0.15693299
5.4108329 1.531566 -0.22710399
5.1919708 1.4761209 -0.280224
5.242044 1.4969389 -0.33702999
5.6623149 1.631166 -0.453419
5.7207131 1.676785 -0.51970601
5.170784 1.541687 -0.37877801
5.7744918 1.736288 -0.31304201
5.4637108 1.649753 -0.23049399
5.4976578 1.666962 -0.158116
5.6876798 1.731794 -0.078097999
5.3466568 1.6347359 0.013401
5.5970602 1.718406 0.112844
5.8824959 1.813508 0.230277
5.4716549 1.693801 0.324348
5.5632238 1.729229 0.44827899
5.8654089 1.830619 0.60339999
5.9506679 1.864805 0.75034201
5.9166188 1.8616821 0.88910902
5.8461699 1.846969 1.024528
6.1751208 1.9587719 1.240284
6.044961 1.9252141 1.372982
6.0545921 1.936017 1.537972
6.2382059 2.0033031 1.755177
5.998868 1.934127 1.854087
5.9067712 1.912016 1.9911439
5.7837992 1.87963 2.112463
6.1653981 2.0115571 2.4255481
6.0267639 1.974079 2.5411329
6.0941072 2.003973 2.740535
5.9149489 1.9526711 2.823539
6.1527538 2.039109 3.1046131
6.5877461 2.191762 3.4997721
8.734726 2.928623 5.0833268
9.11555 3.0798819 5.7246389
7.883357 2.673758 5.116262
7.4069471 2.5217669 4.948575
7.318687 2.501214 5.0170422
5.7322268 1.9739029 4.0914388
5.6098309 1.9609571 4.1581802
5.6005402 1.9869469 4.068759
5.6207628 2.0088351 3.9562011
7.3377442 2.6320839 5.0567689
7.966855 2.8786559 5.2063241
9.1416464 3.3271539 5.584034
6.6335592 2.4230571 3.8967991
6.5465212 2.3998809 3.684104
8.6285057 3.174494 4.634553
5.8614788 2.164211 2.9927311
5.5701032 2.063978 2.692663
5.5836101 2.0763669 2.544894
5.9711418 2.22837 2.5537789
5.6540308 2.1175079 2.2581
5.9500842 2.2362731 2.207947
5.8072948 2.1903031 1.9905339
5.9441981 2.2498231 1.869608
5.7087669 2.168303 1.635888
5.765389 2.1974709 1.49282
5.7310562 2.1920061 1.3279279
5.6364522 2.1633351 1.155856
5.6973848 2.194313 1.020242
5.2223239 2.0183101 0.80255401
5.3484988 2.0742221 0.69025302
5.386694 2.096231 0.56762999
5.9208159 2.312001 0.48909399
5.290287 2.0728769 0.32174799
5.3307772 2.0958829 0.214277
5.2994518 2.090682 0.109799
5.2310448 2.070715 0.013485
5.4800401 2.176641 -0.077454001
5.1666851 2.059134 -0.153081
5.368001 2.14659 -0.23348001
5.6101222 2.250968 -0.31381899
5.3525138 2.1548331 -0.356713
5.3243589 2.1578751 -0.44206399
5.5844612 2.293555 -0.52630699
5.4826088 2.2815399 -0.41687301
5.084547 2.129761 -0.28618601
4.8342171 2.0315039 -0.21177
5.3359661 2.2496469 -0.159381
5.3284612 2.2537811 -0.075995997
5.3244438 2.259371 0.013864
5.2371278 2.229507 0.109703
5.219903 2.2293341 0.21233299
4.9868531 2.1366501 0.30721799
5.3064871 2.2809031 0.44444299
5.5188599 2.379781 0.59020603
5.540297 2.3966551 0.72632998
5.7652841 2.50194 0.90088701
5.568933 2.4244161 1.014968
5.6218381 2.455214 1.174472
6.482305 2.8310039 1.354234
5.8512001 2.563484 1.3825001
5.6663141 2.4903269 1.497523
6.4164252 2.819998 1.695767
6.5219798 2.8753469 1.909399
5.631022 2.490361 1.811192
5.5645528 2.4687009 1.95236
5.6908059 2.5326231 2.16365
5.9826531 2.6708291 2.4504199
5.8057508 2.599952 2.548944
5.621973 2.52549 2.6328931
6.2689061 2.8336239 3.295115
8.4081249 3.8005781 4.419549
8.2449322 3.738344 4.5634332
7.8415151 3.5664091 4.55164
5.7396369 2.62656 3.623126
5.5961652 2.5687749 3.6635439
5.5586748 2.559382 3.7611411
5.526721 2.552449 3.8501389
5.556272 2.573936 3.9721651
6.718926 3.1315 5.0026979
6.5417881 3.0860169 5.0611348
6.6263309 3.1636069 5.0274768
7.0793929 3.4001291 5.2053242
5.4888191 2.6440439 3.9520299
7.2105942 3.473449 5.1917329
5.48599 2.6505311 3.8533461
5.4971008 2.663785 3.754334
5.5566831 2.7006259 3.6758161
5.6551738 2.756613 3.6111779
7.4828019 3.6582601 4.5958648
8.2230444 4.0438509 4.6192489
8.1014862 3.9957571 4.326674
5.7154999 2.835484 2.725606
5.759304 2.86555 2.5775831
5.8665981 2.9274349 2.452172
6.0230942 3.014276 2.339525
5.7164922 2.869137 2.051306
7.1156158 3.5713651 2.5533681
6.0772619 3.059046 2.0013981
5.5186968 2.7859311 1.6560709
5.5688791 2.81938 1.510222
5.347383 2.715045 1.297892
5.256628 2.6766551 1.129343
4.7416978 2.4213901 0.88970399
5.5612731 2.8480561 0.89563602
5.0075669 2.571841 0.677351
4.5945182 2.366447 0.50752401
4.6135449 2.3830271 0.39956099
4.6897001 2.4292719 0.299077
4.6361241 2.408349 0.195436
4.7403331 2.4694829 0.103016
4.9528222 2.5874929 0.013394
4.8466592 2.539196 -0.071872003
4.7360978 2.4882929 -0.147248
4.6904778 2.471276 -0.21411
4.8105021 2.541651 -0.282453
4.986527 2.6420729 -0.34887701
6.0589738 3.2103009 -0.42390901
5.2180452 2.7802739 -0.45495301
5.2270432 2.8163259 -0.51762199
4.8932171 2.665859 -0.39117301
4.6472139 2.5458519 -0.27509099
5.9504662 3.259804 -0.35223699
4.7027702 2.583389 -0.216693
4.8594222 2.67679 -0.152696
5.0065231 2.765409 -0.075129002
4.941617 2.7370491 0.01354
4.7522311 2.639374 0.10477
4.5537829 2.536078 0.194988
4.5650411 2.5492949 0.29607999
4.842999 2.711906 0.427104
4.5315328 2.54441 0.51035899
5.1008811 2.8718851 0.70434898
4.6134291 2.6045079 0.75941801
5.2178421 2.953721 1.001947
5.5289478 3.1383121 1.2171561
5.3717918 3.057368 1.337658
5.6499782 3.2243869 1.573952
5.77565 3.3049209 1.782606
5.2822738 3.0307479 1.791438
5.1792798 2.9796619 1.916324
5.7997899 3.3456089 2.3257439
5.7289748 3.313628 2.475292
11.110923 6.4437828 5.1466122
9.9815845 5.804316 4.9326482
8.4850712 4.947278 4.4522662
5.7320132 3.351022 3.1802089
5.6290779 3.299618 3.2891099
5.5744138 3.2762749 3.4164159
8.7354088 5.1614389 5.8239832
7.7955852 4.8287492 5.7995291
8.336441 5.1906009 5.842752
5.5218968 3.464906 3.4444461
5.5394959 3.48493 3.2990129
5.629663 3.550782 3.1879849
5.0789061 3.253089 1.934342
5.6717272 3.642087 1.9827729
6.7695541 4.3581748 2.156774
5.2860451 3.4117911 1.522216
5.2893682 3.4226401 1.363463
4.8671651 3.1574731 1.110727
4.6683002 3.0361681 0.93058002
4.5796108 2.986057 0.78368199
4.4900832 2.9351239 0.64545399
4.5689859 2.994278 0.53645301
4.5272841 2.9744661 0.416823
4.5866361 3.0210991 0.31100601
4.608108 3.042917 0.206576
4.4735441 2.9615321 0.103401
4.5067482 2.9910431 0.012965
4.3438931 2.890228 -0.068535998
4.3567262 2.9060769 -0.14413901
4.5973048 3.0742681 -0.223351
5.0035582 3.3543451 -0.312731
5.0448961 3.390563 -0.37577999
4.597981 3.105721 -0.42695001
5.3110199 3.5873449 -0.49316001
4.8422012 3.303545 -0.51102102
4.558043 3.1408031 -0.38858199
4.2758341 2.961014 -0.27000999
4.2689171 2.963562 -0.20987301
4.4133821 3.071449 -0.147991
4.9990811 3.4876921 -0.080068
6.2463908 4.3578992 -0.100046
4.438211 3.1040571 0.012981
4.2209411 2.9594121 0.099354997
4.564436 3.208154 0.208707
4.5614958 3.214005 0.315981
4.2901859 3.030309 0.40416399
4.3542919 3.0831709 0.52394301
4.6180291 3.277972 0.68141198
4.4633632 3.1759951 0.78524297
5.1358032 3.66347 1.054195
4.7312088 3.383158 1.113548
10.308465 7.3894229 2.744905
4.8115921 3.4575579 1.4335589
9.6105871 6.9228449 3.172929
5.6679139 4.1229172 2.621372
5.5479531 4.0455251 2.751282
5.501976 4.0217891 2.9114251
5.5159221 4.0418148 3.0997419
7.419579 5.4765549 4.8725858
5.5106802 4.0873652 3.9382451
5.0447469 3.769089 3.9827001
4.981195 3.7306359 4.0369258
4.9189029 3.701838 4.1546512
4.8451371 3.6817081 4.257935
4.7396479 3.6363959 4.0902271
4.7945929 3.6962781 4.0125518
4.7961931 3.7063949 3.9318941
4.819314 3.7332051 3.855484
4.8698459 3.781414 3.7894161
4.9167709 3.8270061 3.707006
4.9656029 3.87428 3.6151609
4.9987841 3.909524 3.501611
5.0301352 3.9434609 3.3771739
5.0790482 3.991348 3.2562511
5.176127 4.077364 3.156018
5.229629 4.129355 3.020473
5.282557 4.1811242 2.8780329
5.3688078 4.2595372 2.7460749
5.3206449 4.2313981 2.542552
5.3906779 4.2973309 2.39465
5.4922061 4.3887029 2.2546959
5.5978112 4.4837461 2.1097651
5.7093301 4.5839739 1.96141
4.700376 3.791872 1.306987
4.7036991 3.803587 1.158113
4.434155 3.5941441 0.95381898
4.5181789 3.670948 0.83447999
4.5304718 3.689687 0.703035
4.4352441 3.620702 0.56225401
4.075789 3.3351531 0.405238
3.990185 3.272855 0.292236
4.1034489 3.3737321 0.198726
3.8632181 3.183754 0.096483998
4.4083819 3.6416349 0.013705
5.7436938 4.744698 0.017857
4.0510511 3.354373 -0.069087997
4.0728879 3.3804419 -0.14568
4.2200422 3.510859 -0.221697
5.0196538 4.1760941 -0.263704
4.120923 3.4364979 -0.27856499
4.074028 3.4054279 -0.32826799
4.1870828 3.5164721 -0.42073601
4.32376 3.6656511 -0.49417299
4.0054631 3.4279029 -0.37009501
4.1450539 3.56408 -0.28380099
4.9537711 4.2594461 -0.33917201
4.066669 3.5049 -0.216814
5.099041 4.39466 -0.271855
3.9229159 3.388948 -0.142681
3.981348 3.447516 -0.069179997
3.9912691 3.464222 0.012668
4.118515 3.583066 0.105213
3.835079 3.3443091 0.19035199
3.9006591 3.4094751 0.293367
4.0729179 3.5684021 0.41666999
3.9977019 3.5107141 0.52247697
3.9870789 3.5095899 0.63912302
4.2583928 3.757205 0.81404698
4.1737189 3.6911211 0.93107402
3.9533989 3.504463 1.011445
5.514473 4.8882661 1.410833
5.4505119 4.8428931 1.577945
5.3914781 4.80165 1.746797
5.3129892 4.7427201 1.907846
5.2784362 4.7228961 2.0835199
5.268507 4.72505 2.26966
6.1769061 5.5656719 3.109704
8.4126158 7.5801482 4.2352509
6.030498 5.446466 3.256012
8.8987951 8.0745659 5.4468422
8.6950197 7.9081111 5.6295142
5.5865898 5.104744 3.9985099
4.9387469 4.5233221 3.6953399
4.8427749 4.4457712 3.7734671
4.8012099 4.4179072 3.8818741
4.793375 4.4209838 4.0077648
4.7624502 4.4027019 4.1018968
4.764245 4.4146428 4.2132492
4.7455578 4.4178472 4.3756132
4.7254372 4.4402761 4.5371342
4.6930752 4.4510889 4.4286318
4.7069159 4.4850321 4.309226
4.7449908 4.5318332 4.2562408
4.7790599 4.5749898 4.1842132
6.148562 5.899724 5.2372179
5.9005179 5.6748881 4.87075
6.1009841 5.8813362 4.8641882
6.1875601 5.9786849 4.7475629
8.3436661 8.0807552 6.1372151
8.9395151 8.7183876 5.6602898
7.9212818 7.7613268 4.443635
5.9933982 5.9134369 2.7002611
6.0170569 5.9644289 2.269594
5.797955 5.760601 1.977493
6.1905899 6.1650019 1.890784
5.150176 5.1408248 1.393157
6.1803498 6.1691289 1.671826
4.32371 4.325891 1.022055
4.0071521 4.0184908 0.81348002
3.8281729 3.84794 0.65310001
3.624624 3.651808 0.50527602
4.0837932 4.1239829 0.44659099
3.701391 3.7465169 0.29822901
3.9809711 4.0388718 0.212146
3.9313481 3.9978111 0.108065
3.7131231 3.7846739 0.012708
3.791652 3.8736999 -0.071202002
3.73785 3.8276229 -0.147248
3.80987 3.910444 -0.220486
3.8074851 3.9170821 -0.28359401
3.751461 3.8684311 -0.33314201
3.698401 3.831475 -0.40976501
3.943269 4.1233201 -0.49738601
3.5224321 3.717684 -0.359521
3.5683999 3.783766 -0.27000999
3.82129 4.0613532 -0.225207
3.9537001 4.2118659 -0.158996
3.671771 3.920651 -0.070559002
3.851856 4.1225219 0.013523
3.7256911 3.996794 0.105309
3.5510459 3.8183169 0.19506299
3.96648 4.2749581 0.330228
3.550452 3.8355069 0.40216899
3.535403 3.8281529 0.51172698
3.6227751 3.9319069 0.64330399
3.8646691 4.204237 0.81858802
4.9010081 5.331634 1.038098
5.0418839 5.4976821 1.246542
3.828151 4.1839638 1.085719
4.9406619 5.399878 1.401243
4.8826489 5.3489432 1.567369
4.804904 5.2760601 1.726573
4.7497969 5.2286248 1.89232
4.6817451 5.1657372 2.0507841
4.6410079 5.1327538 2.2192709
4.6025238 5.1020741 2.386775
4.5589252 5.0655408 2.5488579
5.521069 6.163312 3.5348811
5.4999571 6.154089 3.7413239
4.6725879 5.2528028 3.543885
6.044311 6.8107471 4.8113861
5.7907238 6.540287 4.8200302
5.842155 6.613812 5.0653071
4.4950218 5.1006689 4.044982
3.3461039 3.814749 3.2092509
3.3453131 3.822793 3.295172
5.83604 6.7634511 6.250742
4.1213331 4.8213091 4.3427591
3.3376541 3.941411 3.266444
3.354933 3.9711571 3.195111
3.988627 4.7435188 3.5574141
3.9800489 4.7444911 3.4170661
4.0056839 4.7863121 3.297755
4.0227442 4.8180528 3.163974
4.0746112 4.8916941 3.04932
4.0934181 4.9258771 2.9032209
4.1542182 5.0108671 2.7806051
4.1702809 5.0421309 2.621845
4.2336168 5.1308122 2.4879041
4.2961888 5.2189779 2.3480561
4.37538 5.3277588 2.211025
4.4888439 5.4788609 2.0835199
4.6067858 5.6361532 1.950024
4.5877361 5.6261501 1.756439
3.529227 4.3383131 1.210322
3.4696591 4.2752209 1.054129
3.45207 4.2636442 0.91673499
4.3011222 5.3123069 1.14221
3.4017129 4.2114248 0.77601999
3.416312 4.2395611 0.65513098
3.7232189 4.6314082 0.58355999
3.408452 4.2499442 0.41920099
3.3731861 4.2159929 0.30574799
3.5140901 4.4025602 0.21072599
4.1715789 5.2387471 0.129069
3.5647731 4.4873781 0.013737
3.375438 4.259172 -0.071386002
3.3943031 4.2932091 -0.15063199
3.4218769 4.3384171 -0.223149
4.1922641 5.3151488 -0.273388
3.474932 4.4162049 -0.291733
3.3593869 4.2795782 -0.33635101
3.5055499 4.4871659 -0.438151
3.5756669 4.6209712 -0.50937098
3.3604839 4.384768 -0.38781199
3.244406 4.2537212 -0.27773499
3.4989381 4.598485 -0.23335899
3.3633721 4.4309721 -0.153108
3.778127 4.989397 -0.082208999
3.442945 4.5577278 0.013691
3.323297 4.409977 0.106427
3.351305 4.457891 0.20863301
3.6498151 4.8667068 0.344475
3.569957 4.7717571 0.45855901
3.2191429 4.3132629 0.52853698
3.4003539 4.5671029 0.68511599
3.2922721 4.432672 0.79148602
3.119709 4.2105279 0.87569398
4.4035368 5.9576831 1.418354
4.4966969 6.1133542 1.836159
4.3755898 5.9630671 1.981334
4.109983 5.62849 2.2351511
4.0551491 5.5669651 2.3923531
7.4974499 10.317769 4.770175
3.905057 5.4003839 2.846997
5.9446092 8.2209244 4.3339419
3.7767229 5.2357082 2.9263411
6.9264898 9.6258459 5.6800551
3.670002 5.1127748 3.1725259
3.6923161 5.156496 3.351012
3.5013061 4.9017792 3.3238249
3.3926101 4.761292 3.3557971
3.302999 4.6469588 3.3920381
3.267071 4.6077399 3.471581
3.080497 4.3553181 3.373883
4.4401708 6.2776752 4.8630519
3.084285 4.3714519 3.470407
2.919642 4.1585798 3.429111
2.8948929 4.1643748 3.5487571
2.891124 4.2004828 3.4913819
3.0609629 4.4694562 3.5904689
2.895786 4.2388291 3.3300011
3.4608409 5.0659518 3.979784
3.4786041 5.1046772 3.9067979
3.286026 4.8341532 3.592536
3.5285089 5.2038689 3.740752
3.498903 5.1731362 3.584794
3.258847 4.8303118 3.2151251
3.557065 5.2723351 3.509341
3.3785241 5.0202689 3.1973131
5.1072779 7.5890861 4.833343
3.4928291 5.203177 3.1590221
5.2140679 7.8063998 4.255332
6.8955879 10.349987 5.3129282
3.959178 5.9877038 2.4934151
4.1166658 6.2733212 2.010057
3.020273 4.6377211 1.059582
3.220546 4.9578319 0.98793697
3.5418069 5.4662852 0.93366402
3.4797211 5.3841791 0.77136803
3.3464229 5.1911478 0.60652697
3.157829 4.9111099 0.449276
3.2140479 5.0113492 0.33712599
3.196039 4.9960322 0.221866
3.047194 4.775589 0.109182
3.205961 5.0373058 0.014312
4.1079888 6.4546018 0.018339001
3.109273 4.8979402 -0.076206997
3.3502581 5.291152 -0.17236701
3.1601779 5.0038061 -0.23900799
3.4007299 5.3985772 -0.33123901
3.628305 5.7747321 -0.421626
3.4287779 5.4854221 -0.49776301
3.267796 5.2823768 -0.54150498
3.4949181 5.7086649 -0.46988401
3.2813649 5.387938 -0.32750601
3.408601 5.6115208 -0.265156
2.885078 4.762115 -0.153246
2.9232991 4.837894 -0.074248999
3.1754899 5.2690749 0.014746
3.0523701 5.0781369 0.114192
2.9955771 4.9967909 0.217941
3.1044071 5.1919932 0.34255299
3.1130769 5.2202721 0.46768901
3.1017849 5.2151008 0.59587401
3.2889271 5.5443978 0.77566803
3.4218929 5.7838731 0.96332002
5.0690041 8.5906706 1.666835
3.627445 6.1639471 1.369277
3.258924 5.5969419 1.905166
5.8965511 10.153977 3.7657671
3.3022909 5.7633972 3.010977
5.5172219 9.6550531 5.3262668
3.8523321 6.7597232 3.9219949
3.7292891 6.561511 3.9877651
3.517899 6.2063618 3.936414
2.916275 5.1589122 3.4015961
2.758595 4.9065471 3.459538
2.740442 4.8875289 3.54386
2.996124 5.3874459 4.1602449
2.9304881 5.3275471 4.2544951
2.938055 5.400548 4.2094321
2.525368 4.6677709 3.517544
2.6516919 4.928566 3.5395839
3.018873 5.6266909 3.92451
2.9060791 5.4315858 3.6650779
3.7456999 7.0401421 4.4002042
3.3229821 6.29845 3.4108839
3.174135 6.0332799 3.090246
4.5967422 8.7867956 3.973495
6.0865469 11.667551 4.9218588
3.832983 7.389411 2.6697221
4.0324111 7.7960048 2.5818939
3.7915051 7.3511782 2.2157719
3.7749619 7.3400049 1.9970109
3.8587949 7.5244679 1.830078
3.199944 6.2576432 1.345584
3.879616 7.6085482 1.4271851
3.1714139 6.2375302 1.00305
2.8346579 5.5912762 0.75428402
2.818316 5.5750771 0.61346602
2.8466611 5.6474199 0.48663899
2.951093 5.8715668 0.37212199
2.832761 5.652473 0.23652001
2.698482 5.4001951 0.116351
2.8652899 5.7506952 0.0154
2.7507131 5.536828 -0.081211001
2.6866789 5.4237471 -0.16659001
2.8986821 5.8688469 -0.26434901
2.872685 5.8332539 -0.33756399
2.8453779 5.7947879 -0.399104
3.036279 6.220026 -0.53259403
2.9996459 6.218101 -0.60186601
2.962662 6.2150321 -0.483329
2.938241 6.2008448 -0.35622901
2.8237619 5.977169 -0.26697201
2.7409551 5.8193679 -0.177044
2.5169549 5.359941 -0.077783003
2.5414691 5.428514 0.014367
2.5837481 5.5355649 0.117738
2.7598169 5.930737 0.244707
2.6449871 5.7012639 0.355896
2.6887901 5.8133712 0.49285299
2.7846079 6.0389252 0.65304798
2.7494071 5.9808311 0.79203397
2.744596 5.988698 0.94430602
3.490603 7.639883 1.403616
3.345314 7.34443 1.54509
4.5047951 9.8899994 2.080616
4.1954322 9.2986565 2.7327771
4.8743081 10.836806 3.4953909
4.8669019 10.854013 3.814935
4.5014272 10.070206 3.8315051
3.976445 8.9514666 3.9247701
3.3821361 7.661448 3.7962339
4.130342 9.3858223 4.9115701
3.356945 7.6524091 4.2123299
3.1546171 7.2139139 4.160151
4.9060349 11.290329 7.066041
3.528234 8.5504074 6.130703
3.671689 8.9274054 6.2616429
4.1878672 10.35278 6.1621208
4.5938182 11.394318 6.4913301
4.6897378 11.671297 6.3405509
2.974467 7.4524369 3.6372831
3.69017 9.3083 4.0121779
3.710521 9.3914089 3.776695
2.7358561 6.9481082 2.593821
3.6052389 9.1560326 3.4180689
4.0805802 10.39859 3.5825329
3.9528019 10.142129 2.9159801
3.5911541 9.2458839 2.399847
3.5735741 9.2323313 2.142494
2.4021881 6.2275281 1.277891
2.2819541 5.9363222 1.062766
2.501406 6.5298071 1.002341
2.4911411 6.5484672 0.68803602
2.4390111 6.4338722 0.52944899
2.3318009 6.1726799 0.37364799
2.3344829 6.2015238 0.24788401
2.3351469 6.225204 0.128144
2.3073449 6.1728449 0.015795
2.5812969 6.930244 -0.097143002
2.8493619 7.677187 -0.225384
2.473572 6.6884432 -0.28799599
2.304971 6.2548361 -0.34606701
2.2971039 6.2558689 -0.41200101
2.334846 6.4045238 -0.52453899
2.4396031 6.7896471 -0.62896299
2.2914071 6.4714079 -0.481929
2.355077 6.7006121 -0.36872301
2.3033111 6.577702 -0.281459
2.246963 6.440721 -0.187747
2.20731 6.3507609 -0.088316999
2.225976 6.4284968 0.016306
2.1809349 6.322154 0.128895
2.355015 6.8525491 0.27106199
2.137331 6.242682 0.37364799
2.298759 6.739706 0.547939
2.53069 7.4479599 0.77247697
3.394711 10.067465 1.522951
3.5548091 10.623572 2.1447361
2.3170619 6.9513712 1.585771
2.359601 7.1064501 1.811702
2.820991 8.5288258 2.4064789
3.210407 9.7440853 3.0179009
2.3742111 7.2343812 2.4419
3.2219169 9.8559971 3.6018181
3.316391 10.18501 4.0061479
2.5646889 8.034626 4.2514911
2.5706439 8.0856676 4.4829659
3.0601621 9.6642799 5.5934958
3.075161 9.7509623 5.8687868
2.2644629 7.482183 5.4699011
2.248723 7.5565839 5.3980832
2.7697189 9.4273491 6.3737502
2.8914061 9.9698277 6.176127
2.2638431 7.8399391 4.6839781
2.3035829 8.0124922 4.6002131
3.108345 10.859125 5.9681001
2.43244 8.5353127 4.473856
2.617584 9.225585 4.5932031
1.9599251 6.9383502 3.268188
2.7230761 9.6829939 4.2970142
2.7924089 9.9739418 4.1501698
2.743818 9.8443842 3.8222351
2.8145621 10.143774 3.656615
2.045716 7.4061842 2.4641941
2.660013 9.6301498 3.204154
2.580653 9.385272 2.8632519
2.3412969 8.5536661 2.3756859
2.6351261 9.6712084 2.425245
2.6275229 9.687624 2.1723189
2.570713 9.5219584 1.888256
2.4243419 9.0213976 1.56102
2.372443 8.8693352 1.316069
2.327023 8.7812023 0.89210099
2.035805 7.7184372 0.61422497
1.971773 7.5110602 0.43973899
1.8337179 7.0183282 0.27136099
1.859459 7.1508212 0.14240301
1.80715 6.9829278 0.017289
1.83331 7.1180649 -0.096551999
1.848577 7.2120371 -0.204915
1.8485399 7.2468538 -0.302039
1.839396 7.2461152 -0.38811401
2.1367071 8.4173412 -0.45084599
1.768151 7.4343362 -0.39671999
1.752633 7.4072738 -0.30740499
1.7398781 7.430357 -0.100243
1.748842 7.5876188 0.29128599
1.797143 7.8387442 0.45539901
1.85079 8.1160393 0.64054
2.0598741 9.0815248 0.914482
2.0223761 8.9644222 1.105742
2.271445 10.123248 1.4871939
2.113009 9.4685726 1.6211801
2.2474711 10.238778 2.536242
1.98803 9.1068659 2.497045
2.056982 9.4754934 2.852246
2.0942609 9.7015972 3.1830831
1.566 7.2954879 2.5918519
2.0883579 9.8403349 4.0307751
2.141495 10.148709 4.4309759
2.6318331 12.544515 5.8101568
1.979972 9.6605892 5.4413152
1.877038 9.2677593 5.6259561
1.633545 8.1139259 5.0869389
1.475535 8.104516 5.2099552
1.4826061 8.1974087 5.1199269
1.6588989 9.2333241 5.5814719
1.816415 10.458624 5.0843601
2.023351 11.730877 5.39606
1.757766 10.262281 4.4478688
1.86401 11.036468 4.1862078
1.651704 9.8491421 3.4689281
1.653142 9.9283533 3.2279749
1.521986 9.2735777 2.517487
1.802999 11.314376 1.914561
1.538101 9.7984734 1.193428
1.363705 8.7537975 0.87001401
1.329845 8.6020823 0.66977102
1.228526 8.008337 0.458792
1.240029 8.1463985 0.30825701
1.277775 8.4604635 0.16491
1.1599669 9.5504017 0.544783
1.023229 9.132699 2.223474
1.084115 9.8825006 2.9244909
1.095727 10.319895 3.881438
1.079561 10.281448 4.1423588
0.99528003 9.5858955 4.1170869
1.1589561 11.420537 5.4981928
1.000191 10.210033 5.6606488
0.85274798 8.810298 5.080739
0.62063301 8.4560528 5.0445948
0.58476102 8.6555014 4.155179
0.67530298 10.736959 4.023664
0.16534901 12.839319 1.545005
0.130833 12.395423 2.071471
0.013446 10.503402 3.9283791
-0.045051999 13.401935 6.419167
-0.37037101 10.673434 5.6429491
-0.45962 11.029593 4.128757
-0.476475 6.5178199 -0.569731
-1.051842 12.758868 -0.352355
-1.187548 10.517466 6.0753822
-1.162503 6.6572862 -0.52001202
-1.079507 6.0167408 -0.53290701
-1.706742 5.9953699 -0.47965699
-1.59173 5.4943848 -0.498689
-1.206699 -3.6226151 2.1068611
-1.101287 -3.318933 2.007206
-1.0920579 -3.3038881 2.0702989
-1.026597 -3.117918 2.0174961
-1.040121 -3.1713099 2.110815
-1.051511 -3.2185969 2.196419
-0.99144 -3.0586269 2.1699059
-1.004881 -3.149627 2.3132851
-1.062813 -3.385119 2.4292791
-0.97329599 -3.125246 2.1695299
-0.98468602 -3.1747229 2.156147
-0.91444403 -2.960326 1.959546
-0.92736602 -3.0145121 1.93843
-1.027871 -3.3549891 2.087683
-0.94531602 -3.0982909 1.8593529
-0.97312099 -3.2026801 1.846945
-0.96256799 -3.181145 1.756093
-0.99651003 -3.3071029 1.7411079
-0.83260798 -2.786433 1.318257
-0.86992699 -2.923641 1.30309
-0.80719697 -2.724319 1.138526
-0.97934997 -3.3194029 1.294396
-0.88985401 -3.0289619 1.096591
-0.89775902 -3.068964 1.0255001
-1.740649 -5.975945 1.830946
-0.77730697 -2.680162 0.74756098
-0.86046898 -2.979759 0.75040799
-0.75107598 -2.6122439 0.58823901
-0.87687302 -3.0630939 0.60998797
-0.77105701 -2.705256 0.47007
-0.70747 -2.493073 0.371479
-0.82762402 -2.9293749 0.36627099
-0.81785899 -2.9076359 0.29661801
-0.76573098 -2.7344141 0.2185
-0.86789799 -3.113106 0.183008
-0.75177097 -2.7086439 0.105157
-0.82544398 -2.9874859 0.059735999
-0.98896098 -3.595458 0.0089379996
-0.72197598 -2.6367061 -0.035909999
-0.74921203 -2.748642 -0.078410998
-1.563904 -5.7637281 -0.24118701
-0.73980302 -2.7390289 -0.147292
-0.763951 -2.8414769 -0.181905
-0.73067701 -2.7429571 -0.21842401
-0.74990398 -2.8683469 -0.25846401
-0.780011 -3.040827 -0.220376
-0.71261501 -2.804997 -0.15024801
-0.67007798 -2.650378 -0.110404
-0.68804097 -2.7347059 -0.077613004
-0.67342299 -2.6897399 -0.036421999
-0.67109901 -2.693651 0.0066539999
-0.88553202 -3.5543389 0.0087799998
-0.76361603 -3.0801671 0.061161999
-0.650769 -2.638016 0.101643
-0.66237301 -2.6984429 0.15734001
-0.97630399 -3.9773669 0.231912
-0.73406398 -3.0055089 0.23806401
-0.67989397 -2.7977231 0.28274
-0.84212101 -3.4827909 0.43113899
-0.68741798 -2.857435 0.42128399
-0.732171 -3.0589831 0.52561402
-0.71942198 -3.0211201 0.59456903
-0.94648802 -3.974654 0.78222901
-0.81270301 -3.4304321 0.76295602
-1.3237849 -5.6166072 1.396168
-1.793364 -7.6089559 1.891423
-0.92482102 -3.9441841 1.0852441
-0.85863799 -3.6810391 1.1118881
-1.176813 -5.0450792 1.5239069
-0.66121 -2.849534 0.93815899
-0.62802899 -2.720798 0.969935
-0.67493099 -2.9394701 1.1279989
-0.87720102 -3.820399 1.466049
-0.68330002 -2.991771 1.229652
-0.66902798 -2.9449339 1.290125
-0.79455698 -3.516274 1.634094
-0.67794299 -3.0164161 1.4808151
-0.77804703 -3.4805901 1.797825
-0.74414599 -3.3470769 1.811686
-0.716811 -3.241811 1.831969
-0.78120798 -3.552495 2.087852
-0.66060799 -3.020714 1.839697
-0.72711098 -3.343292 2.1028459
-0.72998703 -3.375273 2.1840439
-0.77085102 -3.5842619 2.3781841
-0.74257499 -3.491986 2.409328
-0.65894997 -3.2458439 2.2677031
-0.75318003 -3.754463 2.5380239
-0.674303 -3.3815141 2.23669
-0.65695399 -3.314456 2.137006
-0.60156298 -3.0534949 1.912773
-0.68797898 -3.51352 2.1301219
-0.613823 -3.154103 1.844419
-0.59155899 -3.0585511 1.71892
-0.74717999 -3.863162 2.1711149
-0.597983 -3.1110229 1.673871
-0.54735601 -2.865499 1.470579
-0.51920998 -2.7352769 1.333511
-0.56909603 -3.017087 1.391746
-0.734034 -3.8915141 1.795109
-0.52330399 -2.792032 1.213519
-0.70372403 -3.7546461 1.631907
-0.59057498 -3.1711609 1.292511
-0.54432398 -2.9416709 1.118891
-0.57987601 -3.1541741 1.113981
-0.753672 -4.126296 1.3452441
-0.51008898 -2.8110509 0.84040701
-0.701415 -3.865432 1.15563
-1.050456 -5.8272972 1.586206
-0.50249898 -2.806109 0.68973601
-0.492457 -2.768445 0.60854501
-0.53249699 -3.0137351 0.58591998
-0.541659 -3.08638 0.52363598
-0.51046097 -2.9284589 0.426108
-0.59005302 -3.4083519 0.416206
-0.55396098 -3.2219989 0.321051
-0.53884101 -3.155865 0.24635001
-0.754143 -4.4168348 0.34478199
-0.964746 -5.6502862 0.44106701
-0.47449699 -2.798511 0.160733
-0.459746 -2.7306311 0.103587
-0.497215 -2.974165 0.058118001
-0.974976 -5.8319659 0.113961
-0.477988 -2.87959 0.0069960002
-0.49608701 -3.0101321 -0.040073
-0.880144 -5.3404932 -0.071097001
-0.492625 -3.0108089 -0.083968997
-0.88307703 -5.397162 -0.15052199
-0.45209 -2.7832229 -0.113875
-0.51127601 -3.170718 -0.166734
-0.515845 -3.2227459 -0.201774
-0.67596197 -4.2230778 -0.264404
-0.49373901 -3.130939 -0.24389499
-0.48911199 -3.1975391 -0.28200001
-0.46604601 -3.1438229 -0.223107
-0.66045099 -4.4552288 -0.316174
-0.45266101 -3.1029329 -0.16279399
-0.45003301 -3.1100459 -0.126909
-0.43172601 -3.0080249 -0.083639003
-0.86075503 -5.997251 -0.16675501
-0.577178 -4.0547729 -0.053799
-0.86492199 -6.07622 -0.080619998
-0.54263198 -3.8438771 0.0093050003
-0.86804402 -6.149014 0.014885
-0.417914 -2.9853301 0.058098
-0.54238802 -3.8744929 0.075401999
-0.745592 -5.326067 0.103652
-0.42387301 -3.053565 0.115325
-0.40445 -2.938545 0.167969
-0.759893 -5.5210228 0.31558499
-0.40833101 -2.992341 0.23238701
-0.38611799 -2.854146 0.28283799
-0.39273101 -2.9284711 0.35552001
-0.50925702 -3.797369 0.461005
-0.39614299 -2.980056 0.430933
-0.42453301 -3.2220891 0.54308498
-0.36842301 -2.8213711 0.54474002
-0.37956199 -2.933075 0.64006197
-0.74181402 -5.732388 1.250934
-0.726053 -5.6619339 1.381117
-0.538293 -4.2363648 1.143983
-0.74856901 -5.8912392 1.5908639
-0.42503399 -3.3761799 1.000981
-0.61198002 -4.9069009 1.585892
-0.604029 -4.8890982 1.711167
-0.38705 -3.162833 1.191756
-0.45747599 -3.774508 1.523489
-0.43892199 -3.6567571 1.573372
-0.46278799 -3.8935659 1.777356
-0.458547 -3.8963101 1.879097
-0.39468101 -3.3873069 1.719052
-0.35905999 -3.112849 1.655651
-0.34773001 -3.0455389 1.691383
-0.396375 -3.507508 2.026123
-0.39992899 -3.5759959 2.1408601
-0.39884001 -3.6039131 2.228514
-0.399643 -3.6890969 2.407027
-0.32171801 -3.4968569 2.220926
-0.31653199 -3.484627 2.1504951
-0.26433501 -2.986515 1.72096
-0.26184899 -2.9978769 1.660463
-0.313768 -3.6407681 1.930815
-0.28532499 -3.402595 1.635462
-0.35752299 -4.2635789 2.0492949
-0.328049 -4.0237012 1.72462
-0.36415499 -4.5975852 1.724928
-1.807619 -23.161915 8.0698843
-0.408981 -5.3196311 1.711102
-0.38984799 -5.1485052 1.518827
-0.57629699 -7.6108341 2.245223
-0.417559 -5.6004381 1.504437
-0.22191 -3.023397 0.73347598
-0.42105299 -5.7366028 1.3917
-0.435332 -6.0264201 1.307622
-0.234451 -3.298619 0.63311702
-0.233891 -3.3453341 0.56039202
-0.23126601 -3.363596 0.48329201
-0.25129199 -3.7176411 0.448342
-0.23149399 -3.48452 0.34294301
-0.21886501 -3.352932 0.25854799
-0.20090701 -3.1335361 0.177806
-0.194391 -3.087723 0.115737
-0.249873 -4.0435338 0.078080997
-0.31783 -5.1432319 0.099316001
-0.24864 -4.1004572 0.009846
-0.20595001 -3.4625809 -0.045564
-0.234712 -4.0246348 -0.110959
-0.22922499 -4.01018 -0.16221701
-0.20476501 -3.6563389 -0.190117
-0.214965 -3.919615 -0.24268401
-0.28131899 -5.1294842 -0.31759301
-0.18284599 -3.4808969 -0.268215
-0.179252 -3.7424991 -0.32664001
-0.153384 -3.544951 -0.249088
-0.16824 -4.1080198 -0.213447
-0.14979701 -3.7639501 -0.15212899
-0.14856499 -3.8446741 -0.105896
-0.145175 -3.872946 -0.050909001
-0.13882799 -3.8214681 0.0091660004
-0.115726 -3.290354 0.063455001
-0.110443 -3.24685 0.121531
-0.177504 -5.2183299 0.195324
-0.110665 -3.367784 0.19080999
-0.125964 -3.973253 0.30588499
-0.166783 -5.260798 0.40500799
-0.11304 -3.700465 0.36356401
-0.103813 -3.5319879 0.42516601
-0.087307997 -3.0921481 0.44341999
-0.084505998 -3.1205699 0.52165902
-0.081860997 -3.157573 0.60472298
-0.089349002 -3.607357 0.78093499
-0.143317 -5.786231 1.2526259
-0.138405 -5.8612032 1.4185081
-0.127094 -5.6580229 1.516082
-0.171996 -7.6570172 2.051717
-0.111172 -5.2177019 1.535195
-0.163876 -7.6913152 2.2630019
-0.47076401 -23.363867 7.4945822
-0.44403499 -23.378325 8.122056
-0.364068 -23.450699 10.019294
-0.337176 -23.465126 10.637712
0.099496 -3.1211231 0.67580903
0.127123 -3.847976 0.73710001
0.26344401 -7.7046018 1.288241
0.12928499 -3.6573091 0.52458298
0.18635599 -5.2717872 0.756154
0.131778 -3.6095431 0.43460399
0.14076801 -3.737359 0.36727801
0.14226 -3.6643989 0.28217801
0.153797 -3.8467591 0.218004
0.151006 -3.5701439 0.068870001
0.16869999 -3.5082159 -0.18234
0.240162 -3.6036949 -0.047442
0.27140501 -4.0027981 0.0096159996
0.272477 -3.9508801 0.076327004
0.251174 -3.581692 0.134316
0.26118699 -3.6638179 0.20799699
0.283191 -3.8470349 0.378811
0.38847399 -5.277267 0.51964301
0.446637 -5.9731212 0.720716
0.42536199 -5.6014519 0.80524999
0.45552999 -5.9082971 0.99024498
0.42009601 -5.3677988 1.030812
2.356204 -26.555851 11.389168
1.05696 -9.4323912 6.4986029
0.68931502 -4.9161668 0.71160001
1.076377 -7.6766701 1.111174
0.69331998 -4.9035072 0.59587801
1.078205 -7.6256018 0.92666799
1.086656 -7.6218929 0.75605798
1.09464 -7.614984 0.59197599
1.101496 -7.6002932 0.43487701
0.79227799 -5.4225941 0.205006
0.80405402 -5.4590788 0.10635
1.115536 -7.5738668 0.147548
0.72797 -4.9032412 0.011881
1.123015 -7.5640669 0.018329
0.77870297 -5.2036028 -0.069114
1.1295789 -7.5482912 -0.100256
1.140653 -7.5625658 -0.2105
1.145577 -7.5362139 -0.30784899
1.149428 -7.5032468 -0.39407599
1.157297 -7.496716 -0.468954
1.252588 -7.5358081 -0.53627002
1.275723 -7.5668812 -0.398379
1.286142 -7.5753312 -0.31031099
1.302862 -7.620501 -0.21278299
1.314258 -7.634028 -0.101753
0.86390102 -4.9836631 0.012123
1.3345079 -7.6459708 0.149591
1.348523 -7.673965 0.29147199
1.35981 -7.6861348 0.442
1.372964 -7.70854 0.60248703
1.38054 -7.699585 0.76817697
1.394225 -7.7245679 0.94446802
1.256695 -6.2569842 3.521419
1.4902509 -7.3319821 4.4514751
1.2484781 -5.9656549 4.113255
1.784037 -8.14818 5.7110648
5.4517288 -23.590935 12.205314
5.53234 -23.566948 10.341432
5.6807542 -23.827499 8.5085859
5.6665759 -23.526917 7.1186218
1.9036109 -7.6695142 1.132742
1.9153121 -7.6786499 0.95223302
1.926122 -7.6841688 0.77794999
1.9341919 -7.6787372 0.60931498
1.940556 -7.6665468 0.447824
1.945998 -7.6508741 0.29532301
1.945701 -7.6128311 0.15144099
1.966544 -7.6574922 0.01895
1.9822201 -7.6816859 -0.104209
1.988266 -7.6684341 -0.21803799
2.0118711 -7.7227368 -0.32229599
2.0366621 -7.7810392 -0.41756201
2.0488291 -7.79072 -0.49801701
2.0741341 -7.8134942 -0.622051
2.1778159 -7.9084301 -0.575836
2.2498009 -7.9539151 0.019812999
2.2670591 -7.9796672 0.159881
2.278399 -7.984479 0.31061199
2.2976639 -8.0168781 0.472247
2.310993 -8.028306 0.64284199
2.3176439 -8.0165567 0.81948602
2.328275 -8.0185947 1.0046771
7.0626969 -23.709127 6.6271319
7.2323308 -24.074984 8.0619974
7.2699118 -24.099001 8.7435226
7.37993 -24.160391 10.792033
2.758522 -8.9200144 4.706574
2.969166 -9.5230856 5.5041199
2.7506709 -8.786562 5.2848449
2.2266321 -7.0553479 4.5470901
2.0499909 -6.4695878 4.2921858
2.3932431 -7.4628901 5.2891102
3.240536 -9.7926569 7.0624218
3.2225959 -9.6634693 6.7516732
2.536752 -7.577673 5.1835699
2.583986 -7.6892471 5.130312
2.215873 -6.5686641 4.2606721
2.4253571 -7.1623192 4.4990258
2.941915 -8.6220894 5.026803
2.989783 -8.7293692 4.8753891
3.691921 -10.698658 5.4208698
8.2385616 -23.696341 10.717391
8.3675661 -23.978043 10.176061
2.9690931 -8.1726627 1.04625
2.9934959 -8.2102652 0.85818797
3.0513589 -8.339016 0.68327397
3.0613561 -8.3364401 0.50288999
3.071337 -8.333849 0.332257
3.0770099 -8.3195648 0.17096099
3.084748 -8.3109627 0.021248
3.100023 -8.3226299 -0.116661
3.1069911 -8.3119249 -0.24423
3.118742 -8.3140612 -0.35861301
3.1210561 -8.2910872 -0.45991901
3.129946 -8.2856188 -0.54756498
3.147923 -8.2753153 -0.681279
3.1992769 -8.2946796 -0.77504301
3.232444 -8.2666473 -0.62310398
3.2599249 -8.2804213 -0.46199301
3.2715931 -8.2819738 -0.359622
3.2866421 -8.2920227 -0.245496
3.3027401 -8.304575 -0.117396
3.314091 -8.3051615 0.021433
3.33461 -8.328578 0.17290699
3.3510809 -8.341773 0.336294
3.365526 -8.3498287 0.50978702
3.3747389 -8.3448296 0.69263399
3.3874869 -8.348588 0.88477099
3.402503 -8.3578672 1.0857919
3.420723 -8.3748646 1.296772
3.4397581 -8.3937502 1.515859
3.4535739 -8.3997927 1.738767
3.46802 -8.4072609 1.968201
4.0505438 -9.7237902 3.0986111
3.6433439 -8.6334591 3.754791
10.434851 -24.41102 13.382408
10.323432 -24.073305 13.839918
4.3404112 -10.057121 6.2874522
3.787647 -8.7207842 5.8435659
3.833138 -8.6066189 6.592432
3.8972099 -8.6426506 6.4912591
3.9619491 -8.7322321 6.355556
3.986728 -8.7599077 6.2431402
4.020803 -8.8077507 6.1234469
4.0364618 -8.8150167 5.9587622
4.0748272 -8.8716841 5.8084941
4.0967999 -8.8923969 5.6198769
4.1323318 -8.9422588 5.4355168
4.1707659 -8.9980888 5.2402492
4.2028208 -9.039794 5.0252671
4.2374568 -9.0867901 4.8022799
4.218926 -9.0198069 4.513782
4.253077 -9.0654507 4.2777638
4.3111839 -9.1617374 4.0571828
4.3599882 -9.2377081 3.8204839
4.4043798 -9.3038359 3.575568
4.2570291 -8.9657469 3.1830831
4.3409939 -9.115365 2.9699261
4.3980789 -9.2077513 2.7335529
4.2724009 -8.9181023 2.3925569
3.9992731 -8.3232641 1.998449
4.0161848 -8.3337259 1.771109
4.0252781 -8.3279562 1.545692
4.0339179 -8.3212566 1.3255759
4.0547609 -8.3396368 1.115777
4.0640879 -8.3342991 0.91057301
4.0751219 -8.3324528 0.713732
4.0771012 -8.3120947 0.524261
4.4736872 -9.1206274 0.57525599
4.4723959 -9.0913877 0.37902299
4.4790301 -9.0783176 0.195106
4.489902 -9.0738955 0.024266001
4.49335 -9.0545053 -0.13277701
4.4744558 -8.9902706 -0.276393
4.1584792 -8.3312311 -0.37604499
4.1784148 -8.3470011 -0.48459801
4.277081 -8.5194397 -0.58933902
4.3102651 -8.5362444 -0.73582703
4.3769188 -8.5694313 -0.83887702
4.274507 -8.2741814 -0.65377599
4.6234751 -8.8991108 -0.52063
4.4570909 -8.5546646 -0.38956299
4.577714 -8.7614403 -0.272073
4.801487 -9.1124926 0.19851699
4.7964792 -9.0775194 0.384069
4.7848778 -9.0302677 0.57870501
4.8033609 -9.0398321 0.787691
4.8124161 -9.0316534 1.004982
4.8427019 -9.063221 1.236434
4.8859582 -9.1187563 1.482937
4.8919702 -9.1046677 1.72716
12.987638 -24.03828 5.913064
13.278707 -24.374712 8.1650381
2.838876 -5.084249 3.0767829
3.2483709 -5.8176279 3.5205951
2.788034 -4.8862858 3.7966361
5.484694 -9.0914326 4.5358682
5.202939 -8.6018696 4.0281711
5.242949 -8.6454039 3.781599
5.405807 -8.8906918 3.6142869
5.502749 -9.0265751 3.3904419
8.9892292 -14.405728 1.66751
6.2675891 -9.9668884 0.440442
5.5957952 -8.8303595 -0.137321
5.573297 -8.7723513 -0.28604999
5.5123029 -8.6541996 -0.41438001
5.4301629 -8.5035038 -0.52379298
5.7431712 -8.970727 -0.65851003
5.7460361 -8.9296112 -0.81707501
5.8395329 -8.9831743 -0.93406397
5.907506 -8.9962807 -0.75552601
5.6725349 -8.5949907 -0.53462797
5.7345681 -8.6671438 -0.419707
6.435421 -9.6776123 -0.15266301
9.7125101 -14.460014 0.98638803
8.2579298 -12.051685 3.5347481
5.7148538 -8.1367311 5.0122142
5.107955 -7.2369342 4.8876662
5.1421032 -7.267446 5.1101112
5.9850602 -8.376236 6.6779609
5.784071 -8.0554571 6.6926398
5.7979798 -7.9963689 6.9111891
5.0908489 -6.9194388 5.6937032
5.1274972 -6.9523778 5.6036968
4.9604969 -6.7096691 5.2773042
5.7741981 -7.7913899 5.9603329
6.484962 -8.5830708 4.5955811
9.1197586 -11.869059 3.6215229
7.342761 -9.3084793 0.028417001
7.2951012 -9.2041302 -0.32324699
6.826458 -8.5923996 -0.44319201
6.9254661 -8.6963348 -0.57714099
6.876852 -8.6147814 -0.68146402
6.9401078 -8.6528625 -0.853517
6.951736 -8.585557 -0.963072
6.9704108 -8.5275583 -0.77317297
7.0460958 -8.5795116 -0.57636398
7.680007 -9.2854214 -0.15828399
12.051763 -14.502501 0.36342701
7.1625848 -8.2821054 4.6776872
6.2775278 -7.1744022 5.2601471
5.334208 -5.832489 4.9988198
11.886733 -12.936854 10.452733
6.3970342 -6.946033 5.4202518
7.446147 -7.9919 4.9514122
13.876987 -14.485546 2.8754871
14.114549 -14.597658 1.149834
8.6410923 -8.793232 -0.64003003
8.5371494 -8.6673603 -0.75211501
8.891881 -8.985837 -0.97274101
8.7527504 -8.7637262 -1.079797
8.7928524 -8.7227783 -0.869461
9.7896967 -9.6222086 -0.37780499
14.375971 -13.967425 1.135022
8.2260208 -7.7731709 3.9312551
11.701914 -9.7011662 -0.418358
10.722435 -8.8473139 -0.72168601
10.606454 -8.7309523 -0.84930003
10.993368 -8.8377018 -0.990188
11.819479 -8.2802563 6.1650238
6.4853039 -3.769217 5.2486048
13.413218 -7.304769 3.695365
7.5719328 -3.4757171 5.2692862
8.7081223 -3.9850211 6.2121201
8.5691299 -3.8974049 6.353086
8.5292292 -3.8315771 6.5425539
7.3959608 -3.281321 5.539885
7.5468969 -3.3273449 5.46664
8.6817913 -3.8277071 6.2887082
8.7580137 -3.849189 6.2055898
8.8861179 -3.8932021 6.1357412
8.8052073 -3.845572 5.9053531
8.9007969 -3.875035 5.7757702
11.290946 -3.9479461 5.1098242
12.291716 -4.2818809 5.9001608
8.7409916 -3.033591 4.431644
8.6107302 -2.9772 4.5926909
11.718535 -4.03653 6.5487919
8.5995445 -2.9510059 5.0166569
8.3074503 -2.8400071 5.0394201
9.1040115 -3.1005189 5.7220831
8.6043653 -2.919225 5.5843759
8.6551647 -2.9252729 5.7781482
8.057497 -2.712851 5.5149908
7.7886872 -2.6022501 5.5419579
7.3846302 -2.4292071 5.4395161
7.7502551 -2.5096869 5.5777369
7.9779582 -2.5629799 5.5539289
8.5026083 -2.720654 5.790904
8.5066681 -2.7110829 5.646657
8.6407757 -2.742774 5.5718088
8.3523569 -2.6405661 5.2117939
8.2327127 -2.592243 4.9542928
10.905012 -3.41976 6.3060889
8.4894218 -2.651433 4.699265
