# .PCD v0.7 - Point Cloud Data file format
VERSION 0.7
FIELDS x y z
SIZE 4 4 4
TYPE F F F
COUNT 1 1 1
WIDTH 1555
HEIGHT 1
VIEWPOINT 0 0 0 1 0 0 0
POINTS 1555
DATA ascii
5.710587 -8.938529 -0.29193699
5.6983471 -8.8966246 -0.138779
8.9127331 -13.430843 4.7416091
5.4342651 -8.0465469 4.6506562
4.6578059 -6.7608099 5.3256068
4.7019081 -6.6256461 5.3848748
6.199491 -8.6506977 6.332077
5.4917331 -7.6256928 5.1852641
9.0780029 -12.574757 8.1946325
5.6194429 -7.764997 4.8317108
6.1604772 -8.4505768 4.4675112
8.5478373 -11.668519 5.409842
10.525843 -13.890111 0.65195298
6.8650718 -9.0157785 0.027161
6.9386411 -9.0905256 -0.15022001
6.4154301 -8.3247213 -0.64974803
6.4041781 -8.2704153 -0.80487603
6.5186992 -8.3381414 -0.92268699
6.571557 -8.3259172 -0.74460202
7.0766139 -8.9231815 -0.59124303
7.0745449 -8.8993759 -0.459131
7.13591 -8.9552498 -0.31515801
11.151545 -13.895234 0.34338701
11.229942 -13.926688 1.013073
11.295464 -13.974735 1.382659
11.016076 -13.468687 3.3312421
8.7534208 -10.57681 4.4031172
7.0081491 -8.4083452 4.385983
5.2071142 -6.0031319 5.560483
9.8653088 -11.084985 8.5176811
6.4287238 -7.1731682 4.8555679
9.142086 -10.082682 5.0903592
12.62853 -13.639428 2.66449
12.947844 -13.887213 1.460991
12.983502 -13.893139 1.076789
8.2930088 -8.8124552 0.029005
8.5035391 -9.0152397 -0.162789
8.5197353 -9.0114622 -0.34132299
8.4542751 -8.9215164 -0.49637601
8.3486862 -8.789691 -0.62935001
7.8861928 -8.2835188 -0.70707101
8.0404425 -8.4064837 -0.89509898
8.0836401 -8.3736334 -1.01466
8.0948391 -8.3078833 -0.81427902
9.3504982 -9.5522165 -0.69394898
8.6569157 -8.8028135 -0.33981001
12.850963 -12.917069 1.031786
12.813355 -12.849445 1.396315
13.422606 -13.398235 2.2819669
13.421951 -13.36656 2.7152879
7.262423 -7.0014868 5.085135
5.9322081 -5.6399221 5.176815
9.7530756 -8.8922529 7.575808
9.874054 -8.9815779 7.3650751
16.051571 -13.836378 0.050795
10.401005 -8.9027061 -0.55290997
9.7514629 -8.2686434 -0.98378801
9.8853207 -8.3035784 -1.1254801
10.002874 -8.3234634 -0.913508
11.068899 -9.1454983 -0.57986599
10.036988 -7.9085488 5.120204
10.021456 -7.839983 6.0943208
6.2473898 -4.7717729 5.3053331
10.242725 -7.4176512 5.0673871
12.210954 -8.2525263 -1.284849
16.349283 -9.3872299 7.0510449
11.710771 -6.6519251 3.6079071
15.729598 -8.6475649 0.043024
15.782133 -8.6526508 -0.236421
15.909952 -8.6748104 -0.73183298
15.880835 -8.6350803 -0.93845099
16.199598 -8.1858692 3.4749019
16.289785 -8.2077303 3.947613
16.277546 -8.1779308 4.4074411
15.969389 -8.0001144 4.7847528
9.5263453 -3.4727471 5.1112418
10.398018 -3.7768519 5.8452339
10.242644 -3.706959 6.0104232
10.004036 -3.6074879 6.1042552
6.8697519 -2.4682441 4.3430772
6.8058772 -2.4363871 4.4428902
6.8292041 -2.435807 4.5856371
6.5794911 -2.3381319 4.5294328
6.5599351 -2.31406 4.6944699
6.5389628 -2.272589 4.843852
6.5191689 -2.2318599 4.717885
6.7076349 -2.2790029 4.6953988
6.6974449 -2.266881 4.586575
6.7352118 -2.270962 4.4953032
6.8372598 -2.2965319 4.4329419
9.5133238 -3.183109 5.9685349
9.4603453 -3.1531889 5.7239208
9.1687508 -3.044173 5.3306818
9.4186096 -3.1150091 5.2416501
9.5066156 -3.1318729 5.0455232
10.910663 -3.5663941 5.2032561
10.767626 -3.505805 4.8375778
13.013731 -3.400739 3.6032491
12.991534 -3.3305571 5.0160928
12.606607 -3.216265 5.2131901
11.12906 -2.825551 4.905148
7.3434181 -1.855346 3.433331
7.3296871 -1.842816 3.619961
10.884596 -2.723156 5.6559019
9.3210907 -2.320498 5.0753369
9.3978624 -2.3280139 5.3422761
10.096514 -2.488647 5.9688482
8.5202112 -2.0896089 5.2194638
9.478447 -2.312959 5.9964619
9.3915195 -2.2802 6.1122231
7.809998 -1.8866071 5.2118678
7.6917052 -1.839144 5.3372178
7.5736461 -1.736692 5.3201199
7.8914428 -1.790279 5.3633289
7.8261299 -1.765913 5.2042489
9.5856686 -2.151252 6.2132468
8.3747988 -1.869282 5.2738709
9.5613403 -2.1341219 6.0210719
8.5197716 -1.891261 5.1923642
7.5305338 -1.662496 4.4266052
9.594367 -2.106431 5.4200578
7.1308212 -1.5568891 3.8564899
10.717395 -2.3399539 5.7961812
7.163434 -1.555289 3.6951289
7.4933681 -1.617817 3.671798
7.3039198 -1.5680439 3.386265
11.883864 -2.536845 5.191144
12.118506 -2.5722311 4.9639869
12.290471 -2.5938261 4.6980109
10.982695 -2.2911921 3.5981081
12.750337 -2.613636 3.1490791
14.42188 -2.938839 3.185292
11.967596 -1.8362761 2.929436
12.000615 -1.812976 3.5701759
11.320716 -1.6833971 3.9755521
7.8232288 -1.12624 3.5827861
7.4756718 -1.067346 3.6169369
7.3958602 -1.047201 3.7653489
7.4809432 -1.0504 3.991503
7.405827 -1.031085 4.1257949
5.4589362 -0.75357503 3.163141
6.8338051 -0.93528199 4.1037831
5.3894911 -0.73124599 3.3427711
5.3892102 -0.72484398 3.4390941
5.2648191 -0.70188999 3.4453731
6.5621052 -0.87484097 4.2943358
5.1425118 -0.67344898 3.500155
4.7521582 -0.59990698 3.3515401
5.1357551 -0.62413502 3.542227
5.033947 -0.59991002 3.360091
6.1297941 -0.73050499 4.0915551
4.8948789 -0.57758099 3.1972151
5.5092969 -0.64360303 3.5080471
5.4697242 -0.63254303 3.3841369
5.4798169 -0.627271 3.281595
7.0682211 -0.80079198 4.0831099
6.9973888 -0.78453797 3.8852041
7.8430719 -0.87014699 4.1694942
7.8333411 -0.85986 3.97241
7.8328161 -0.85061097 3.7737441
10.303747 -1.106855 4.697504
7.7638779 -0.81579399 3.128063
7.6094589 -0.79064697 2.8613341
7.737401 -0.79486001 2.7017739
8.115984 -0.824242 2.6162779
15.76981 -1.56458 4.2452359
11.841495 -0.53952199 3.4869249
10.462289 -0.46449801 3.3586819
10.341645 -0.447115 3.5955839
11.177265 -0.470245 4.1841059
11.144585 -0.45589399 4.4692988
10.636912 -0.42276001 4.5476532
9.4752483 -0.34353301 4.7794962
9.5846634 -0.33636099 5.0673962
9.4074039 -0.29731601 5.5998788
5.1769009 -0.151584 3.2755311
5.2757559 -0.148341 3.423605
5.2170129 -0.13457 3.521971
5.07551 -0.107326 3.552197
5.2388382 -0.086438999 3.5874231
5.1540699 -0.073064998 3.4164431
5.201056 -0.067693003 3.3740821
5.438201 -0.064466 3.4396291
6.7971172 -0.080574997 4.2991352
9.3516674 -0.056549001 4.9412599
9.5463858 -0.035549998 4.5724678
9.6871862 -0.02483 4.3911629
10.016293 -0.014031 4.2789421
10.934838 -0.002626 4.3815198
10.907095 0.010041 4.0793629
10.412685 0.021689 3.6169119
5.2257962 0.016951 1.675982
10.882808 0.047931999 3.201334
12.24174 0.623097 1.4748811
16.995937 0.90467203 2.844152
5.5623088 0.31551099 1.347959
4.9277139 0.28520301 1.32227
4.9991231 0.295158 1.47311
5.0642958 0.30491301 1.6271189
4.9453039 0.30351001 1.721011
5.1461148 0.32183099 1.928458
4.8579192 0.30947599 1.950483
9.2054043 0.58643502 3.6960239
4.924233 0.31944001 2.108043
4.7985468 0.316881 2.179893
9.9033651 0.65398598 4.498919
4.72334 0.31742799 2.2674429
9.532443 0.65173602 4.8164058
5.0558391 0.351565 2.67782
9.4630404 0.66908002 5.2345419
9.1418447 0.65703499 5.2609501
5.8643641 0.42833099 3.4983909
5.782218 0.435828 3.6673341
5.7710428 0.44173199 3.754483
6.6108928 0.50601602 4.3008661
5.8132482 0.45853901 3.9353659
5.2174158 0.43594101 3.6634181
5.5118818 0.486334 3.7885449
6.2567501 0.56670702 4.163928
5.7445021 0.52703398 3.741966
6.6133618 0.60674798 4.307941
5.8276072 0.54148 3.7015431
6.9671769 0.65553403 4.3009901
4.9320889 0.46983099 2.9477091
7.7946682 0.74251997 4.658556
4.930172 0.47542301 2.843044
4.8555322 0.47392201 2.6919119
4.9854312 0.492443 2.646987
4.9322581 0.49298099 2.4986801
4.7521472 0.48054999 2.287746
9.4782734 0.95846897 4.5629649
4.6535592 0.47603801 2.120441
4.6678071 0.48297799 2.0047231
4.8320999 0.505647 1.946764
4.9766488 0.52661401 1.871708
4.3732591 0.467906 1.527746
4.714592 0.50996101 1.520843
4.6882429 0.51261699 1.38732
5.187397 0.57329798 1.398087
5.0200381 0.5607 1.222147
4.8715739 0.54984403 1.0609879
9.9718399 1.148966 1.677384
10.123476 1.178346 1.460943
10.164168 1.195058 1.2314169
10.242113 1.228334 0.79375201
10.496489 1.34549 -0.42737401
10.608559 1.384912 -0.66140997
10.286865 1.36721 -0.79850799
10.48994 1.44383 -0.92312098
10.120779 1.440946 -0.717641
9.9853516 1.445339 -0.52379298
9.303791 1.357713 -0.37971699
9.2706642 1.36387 -0.25790399
10.952309 1.650287 0.21347
9.366744 1.433621 0.53658497
9.2253113 1.42295 0.71825802
10.150601 1.565671 0.790299
9.3443089 1.4524111 0.928653
9.7882109 1.533046 1.192113
7.6495051 1.216291 1.29434
7.3142142 1.171685 1.418166
4.7231312 0.76224297 1.035394
5.4462872 0.88543802 1.335025
8.0116148 1.3024991 1.963853
4.9749832 0.81469101 1.350475
4.69874 0.77505499 1.400866
4.3971009 0.730551 1.4295321
4.4003272 0.73633599 1.5497299
4.355741 0.734074 1.652063
4.5264139 0.76824898 1.839643
4.5766988 0.78224999 1.9835089
4.3910451 0.75576502 2.0197041
5.1486168 0.886154 2.368156
5.1016688 0.88418001 2.4799759
4.6534462 0.81206298 2.3811951
5.0899868 0.89433199 2.7306099
4.5996809 0.81369501 2.577414
4.6765089 0.83288598 2.7265539
4.904563 0.87938499 2.964582
4.8082581 0.86787897 3.002944
4.7846918 0.86936098 3.0756209
6.4003782 1.162926 4.1141911
6.3809228 1.1670541 4.2078071
5.3514552 0.991611 3.6730089
4.9712229 0.94506502 3.54073
5.3922062 1.051069 3.7614269
5.0897741 1.004397 3.4385409
5.1257758 1.017684 3.389864
5.1442628 1.027562 3.3177581
5.3297629 1.071059 3.3412001
5.0600209 1.022964 3.0714459
4.8077879 0.977781 2.8161609
4.8130589 0.98468 2.7107539
5.866425 1.200183 3.304018
4.8289218 0.99376702 2.6049409
4.5662398 0.94524199 2.3505859
4.6284142 0.96371597 2.2644191
4.5107632 0.94468302 2.0890639
4.7611332 1.002896 2.0785789
4.3797631 0.92787403 1.7938941
4.281714 0.912296 1.63735
4.394805 0.941733 1.561214
4.635675 0.99897701 1.520843
4.4338632 0.96087402 1.334548
4.4103279 0.961142 1.209191
4.6588292 1.020963 1.153949
4.5347052 0.99927998 1.004935
5.2615061 1.165853 1.031752
6.6135602 1.465444 1.296883
6.304842 1.404717 1.0794131
10.338467 2.3160069 1.518694
6.5775828 1.48153 0.81126797
6.6352611 1.502616 0.66809899
8.109869 1.846454 0.64000303
5.622345 1.28697 0.32661
5.9696851 1.373771 0.229156
5.6428828 1.305474 0.11163
5.468049 1.271715 0.013456
5.551795 1.297986 -0.074892998
5.9009252 1.386847 -0.16683701
5.5680618 1.315439 -0.231059
5.6986332 1.353272 -0.30407199
6.9636898 1.662241 -0.442606
6.0908699 1.468852 -0.48211199
6.6177292 1.6284781 -0.594136
5.474288 1.3740979 -0.39621499
5.7530608 1.458288 -0.30811599
5.1453781 1.3106101 -0.214433
5.0221419 1.285429 -0.142681
5.0250182 1.29239 -0.068154998
5.9798579 1.537967 -0.081106
5.1807799 1.338864 0.012826
5.1221461 1.3300641 0.101995
5.3335948 1.391582 0.206203
4.69556 1.2309361 0.27487901
4.8806219 1.285514 0.38835999
5.4358349 1.438502 0.55218798
6.4787459 1.7144901 0.65812999
5.3818588 1.430904 0.67006397
6.3176498 1.687573 0.93735301
5.0612512 1.358259 0.87569398
5.4935088 1.481099 1.089291
4.58672 1.242341 1.028414
4.7427392 1.290511 1.189224
4.887084 1.3358279 1.3572021
4.3989072 1.207885 1.341885
4.324441 1.192849 1.438693
4.7610459 1.319236 1.716089
4.575726 1.273612 1.776423
4.4930921 1.256246 1.869399
5.4362292 1.519942 2.261801
4.5604291 1.280787 2.0235801
4.9798679 1.40483 2.345449
4.6891699 1.328715 2.3343999
4.9916592 1.420694 2.616164
4.934907 1.410742 2.7119229
4.860817 1.395681 2.790467
4.6582618 1.343382 2.7828071
4.7307482 1.370249 2.9303241
5.5380549 1.6040829 3.4303861
5.5487819 1.61418 3.5516939
4.710876 1.376366 3.103951
4.987844 1.463587 3.3719051
4.7220278 1.397514 3.323385
5.5657158 1.675397 4.0670242
5.8700929 1.796824 4.203217
4.6593099 1.438063 3.23192
4.5228162 1.401692 3.0715029
5.341795 1.655507 3.627682
4.756372 1.480134 3.150454
5.7433162 1.787261 3.8041699
4.7693038 1.490247 3.0710139
4.7099972 1.477724 2.9369709
4.7216978 1.4874229 2.8415501
4.3926878 1.389398 2.5421469
4.4165549 1.402594 2.4484389
4.5277481 1.443707 2.3956001
4.5206151 1.447221 2.2734909
4.7421989 1.5242341 2.2579229
4.35918 1.4067219 1.956795
4.2395921 1.373571 1.7857111
4.3350348 1.410061 1.70496
4.2402029 1.384672 1.549402
4.3812408 1.4363641 1.4787
4.3285112 1.424648 1.340474
4.351974 1.437984 1.2278219
4.4594932 1.479259 1.1367821
5.1901569 1.7283241 1.183882
4.965785 1.6600291 1.002419
3.932925 1.319832 0.69323701
5.1176648 1.717414 0.90206599
5.194159 1.749801 0.78566802
4.838007 1.636091 0.61451399
4.5206571 1.534626 0.468822
4.2384338 1.444314 0.34455201
4.2424788 1.451203 0.25390401
5.486526 1.88387 0.217006
4.2639999 1.469648 0.086925998
4.1487198 1.43531 0.010522
4.0994749 1.4236079 -0.057004001
4.592176 1.600695 -0.13384899
4.1214638 1.441991 -0.176341
3.9979341 1.4039871 -0.219979
4.6115661 1.62551 -0.30228999
4.5710211 1.6231689 -0.37324601
4.3918548 1.582585 -0.40697601
4.612319 1.686295 -0.34474501
3.819761 1.406608 -0.211321
3.7985959 1.403828 -0.16354901
3.71333 1.3772219 -0.109005
3.723119 1.385782 -0.052182999
4.3719401 1.633065 0.011186
4.072464 1.526602 0.083823003
4.4754572 1.683601 0.178876
4.0594158 1.532478 0.24570701
4.4484162 1.685246 0.366034
4.6075568 1.751659 0.48406899
4.4702311 1.705398 0.575688
4.3929982 1.6817909 0.674281
3.952646 1.518477 0.70757699
4.3026128 1.658662 0.882828
4.6716771 1.807182 1.084044
4.1933661 1.627756 1.088338
4.2258582 1.6459661 1.214884
4.1147218 1.608181 1.299554
4.2693462 1.674337 1.470759
4.300179 1.692191 1.605183
4.1502962 1.638775 1.668878
4.0569081 1.607353 1.748516
4.1608052 1.654108 1.912796
4.1731968 1.664646 2.0366311
4.1036592 1.642439 2.117115
4.226069 1.697126 2.29567
4.4719868 1.801914 2.5474789
4.4304199 1.791153 2.636837
4.27316 1.733349 2.646903
4.4655361 1.817431 2.8684549
4.4074202 1.799744 2.925972
4.3748732 1.792381 2.990098
4.4407778 1.825413 3.114495
4.3014178 1.779812 3.1415801
4.372817 1.833196 3.3177149
4.3639259 1.853346 3.2461939
4.0576072 1.73439 2.9247489
4.6654038 1.994188 3.362854
4.280097 1.8353699 3.0208919
4.1030931 1.7651089 2.8249321
4.798717 2.0643599 3.3038609
4.2748208 1.8448761 2.861567
4.2555819 1.842435 2.7590351
4.2908759 1.863633 2.685235
4.050303 1.764745 2.437794
4.011096 1.7532049 2.3129599
3.97615 1.7434371 2.188539
3.904861 1.717585 2.0432479
4.1530771 1.832521 2.057687
3.846308 1.702505 1.796904
4.0128489 1.781795 1.759303
4.043561 1.801053 1.655566
3.97508 1.776091 1.512324
4.0370998 1.809426 1.418843
3.9549479 1.7781219 1.2755671
4.1878271 1.888677 1.2306679
4.27811 1.9353729 1.136077
4.3281751 1.964077 1.028626
4.317585 1.965326 0.90821302
3.7844839 1.7279691 0.69521499
3.5774269 1.638449 0.56402999
3.827085 1.758176 0.50675899
3.5783939 1.648959 0.38692299
3.4120359 1.577103 0.28923699
3.4175279 1.584466 0.213311
3.3236251 1.545619 0.13711999
4.4028072 2.047482 0.181642
3.774765 1.760756 0.080278002
3.6375439 1.701893 0.0096260002
3.9864781 1.870791 -0.057844002
5.104394 2.395411 -0.074065998
4.281601 2.015363 -0.130245
3.809355 1.79848 -0.17012601
3.2357211 1.53225 -0.185865
3.246547 1.541999 -0.22219799
3.4096041 1.6291569 -0.29077101
3.793788 1.834424 -0.36737299
3.5456369 1.734799 -0.27709901
3.247165 1.598123 -0.187887
3.5283689 1.7416101 -0.15890799
3.1686449 1.568627 -0.097312003
3.1202779 1.549201 -0.045761
3.5466249 1.766014 0.0094959997
3.321197 1.658584 0.071548998
3.3282869 1.666955 0.13925
3.5419359 1.7791049 0.22444899
3.8681149 1.948577 0.33327401
3.466094 1.751105 0.38135201
3.7666581 1.908444 0.50807297
4.0691571 2.0676579 0.65427399
3.9835889 2.029999 0.74713397
3.954813 2.021121 0.85029799
4.0740962 2.088057 0.99076301
4.0975089 2.106066 1.114677
3.85166 1.9853081 1.160803
3.7327659 1.929512 1.236058
3.9226091 2.0334251 1.417011
4.0482349 2.1045129 1.584839
3.9749789 2.072294 1.676585
3.8012969 1.98737 1.718761
3.8735261 2.0308609 1.868403
3.8099091 2.003149 1.951169
3.960202 2.088048 2.14433
4.5585408 2.4035261 2.468312
4.0907111 2.162931 2.332581
5.0387902 2.664221 2.873189
4.045589 2.1450861 2.4194751
4.759562 2.5236549 2.846468
3.9913521 2.1222751 2.494318
3.9435279 2.102721 2.5652609
3.8900919 2.080039 2.6245601
3.9230859 2.1035399 2.735899
3.8260889 2.0572529 2.747427
4.1574602 2.2416611 3.063884
4.4981689 2.438863 3.4531651
4.3754268 2.398684 3.491426
3.9865749 2.209651 3.1207759
3.74315 2.086108 2.8402219
4.5520668 2.5369289 3.45401
3.909301 2.1846571 2.9049759
4.4666209 2.4961081 3.3191171
4.164957 2.3338749 3.0194969
4.2410231 2.3829811 2.9898529
4.0251989 2.267863 2.7488091
4.3373532 2.4503729 2.859472
4.1686521 2.3614621 2.6436009
3.9424069 2.239347 2.395649
3.66629 2.0881481 2.1268711
3.7842729 2.1611669 2.0873089
3.8965809 2.231307 2.035392
4.2155442 2.4204659 2.0766151
3.8420961 2.2119751 1.776412
4.1840539 2.415318 1.8069
4.0093021 2.3206561 1.609121
3.768677 2.187222 1.3974659
3.7246721 2.1674671 1.267665
3.629236 2.1175809 1.1256109
3.79617 2.2208941 1.064116
3.722002 2.183306 0.933864
3.6377881 2.1395929 0.80799001
3.837615 2.263123 0.744497
3.21573 1.901418 0.53550899
3.642446 2.159447 0.50950599
3.489521 2.0742619 0.39864999
3.5663581 2.1255419 0.31946501
3.232744 1.931805 0.213255
4.0786271 2.443712 0.177867
3.5884981 2.1557231 0.080682002
3.24229 1.95287 0.0090720002
4.2779379 2.576653 0.01197
3.2200639 1.94458 -0.049412001
3.216006 1.947234 -0.103475
3.9582269 2.396636 -0.12735599
3.6897941 2.2399621 -0.17432299
3.1665721 1.927363 -0.19245
3.0807631 1.880046 -0.223123
3.0391841 1.864368 -0.274353
3.7658341 2.310127 -0.33994901
3.6206851 2.2443049 -0.37136799
3.1990719 2.003592 -0.26498401
3.213176 2.0228319 -0.197116
3.186337 2.0111041 -0.152169
3.4810369 2.2027631 -0.11338
3.37395 2.1404951 -0.052485999
3.293273 2.094677 0.0093550002
3.0440781 1.941151 0.069582999
3.1261401 1.998588 0.13880201
3.1932909 2.0467441 0.214781
3.788861 2.4346931 0.34654701
3.6292889 2.33811 0.42396301
3.7922299 2.4493151 0.54319501
3.4424109 2.2290499 0.58786798
3.017122 1.958638 0.60110199
3.6005759 2.3433471 0.822469
3.7800331 2.4664011 0.976803
3.5593901 2.32833 1.0290771
3.7043271 2.429229 1.186679
3.6209469 2.3805709 1.27472
3.6572869 2.4105611 1.4047951
3.631649 2.39972 1.511996
3.605932 2.3887489 1.617733
3.998529 2.655524 1.923331
3.711719 2.4712651 1.9049391
3.7240829 2.4857459 2.0296121
3.6345651 2.432112 2.0946529
3.8256891 2.5664451 2.322228
3.7417669 2.5164549 2.3825679
3.5753839 2.410603 2.3793371
4.1365561 2.7889571 2.752784
3.837724 2.5939679 2.6588509
4.3162718 2.9174249 2.9903979
3.662529 2.4817641 2.63223
3.4644549 2.353425 2.574101
3.4676299 2.361475 2.6533511
3.7526209 2.56195 2.9474239
3.809073 2.613488 3.1175261
3.679023 2.5495009 3.131964
3.62677 2.5383279 3.0309491
3.2473309 2.2840309 2.6313901
3.474191 2.4496329 2.7574961
3.4825261 2.4615719 2.6971819
3.5681219 2.5283051 2.687726
3.7686789 2.6769979 2.7503419
3.6623549 2.6078801 2.580693
3.8232231 2.72914 2.591907
3.516794 2.516573 2.28493
3.7011881 2.65504 2.2961199
3.8382959 2.760154 2.2644191
3.7244699 2.68487 2.0812199
4.1434188 2.994211 2.1838629
3.505337 2.53931 1.734383
3.4680641 2.5184579 1.60302
3.53139 2.570725 1.517246
3.3444631 2.440598 1.327837
3.4765849 2.5432091 1.267101
3.333117 2.444216 1.107239
3.3157699 2.4374239 0.99568403
3.6343291 2.678107 0.97701502
3.1465631 2.3243289 0.74894702
3.0565131 2.263304 0.63555002
3.4035001 2.52637 0.60759097
3.777117 2.810523 0.56648999
3.1526599 2.3515649 0.38623801
3.094264 2.313607 0.29729199
3.079771 2.308362 0.21794701
3.1677451 2.3800521 0.148222
2.9733291 2.239397 0.071741
3.203511 2.4185989 0.0096209999
3.1621611 2.393153 -0.052092001
3.1648221 2.4009631 -0.109336
3.2115531 2.4422989 -0.16294301
3.339642 2.5458369 -0.218009
3.16747 2.4204199 -0.246448
3.0952711 2.376662 -0.300284
3.0690169 2.379271 -0.338539
3.1209011 2.442806 -0.27821901
4.2245669 3.306673 -0.37660801
3.3722241 2.6521909 -0.222727
3.498045 2.757731 -0.179892
3.09167 2.4431901 -0.108455
3.1022699 2.4574339 -0.051986001
3.2359381 2.569442 0.009904
3.070425 2.4438491 0.075634003
3.057416 2.4393029 0.14631601
3.5142021 2.8104291 0.25480899
3.2533579 2.6080339 0.32084599
3.3839691 2.719202 0.42630899
3.3139789 2.6693029 0.51201499
3.183943 2.5706761 0.58659101
3.2224209 2.607934 0.692743
3.318692 2.692234 0.81814402
3.256927 2.648416 0.90848202
3.3088901 2.697063 1.03284
3.4476509 2.8167739 1.1926301
3.6457829 2.985714 1.386191
3.465843 2.845089 1.4380831
4.1576872 3.4130189 1.725149
6.0602579 4.9748268 2.5145831
3.5086031 2.887013 1.578277
4.202466 3.4661391 2.037405
3.9033239 3.227041 2.029335
3.853313 3.1932321 2.1379001
3.5107739 2.91625 2.0688341
3.362175 2.799427 2.0955169
3.3654549 2.808779 2.2096951
3.488445 2.9183011 2.4031241
3.67922 3.0851719 2.6493981
6.2447448 5.2364659 4.4968271
3.5572391 2.9899249 2.6673141
3.5510261 2.9917531 2.762614
5.5536132 4.6789398 4.3205791
3.308599 2.8006661 2.7415471
6.8487358 5.8110018 5.8262782
6.6618638 5.6790972 5.907805
6.491209 5.5858989 5.9921818
6.524539 5.6675372 5.9172711
6.5922732 5.7667909 5.681519
5.508873 4.8303518 4.6337438
6.6171288 5.8021059 5.5659442
3.4767151 3.0556481 2.844811
3.4673929 3.0545959 2.74932
3.5385339 3.1245699 2.7096281
3.554209 3.145771 2.618962
3.5583529 3.156812 2.513376
3.5500031 3.156785 2.3946991
3.4868419 3.1078751 2.237205
3.764199 3.362937 2.2880621
3.410953 3.0544829 1.956009
3.478842 3.12256 1.873118
3.4285991 3.084657 1.724928
3.241709 2.9233389 1.516261
3.099041 2.8012121 1.339747
3.1964519 2.8960099 1.2687939
3.136349 2.848201 1.134926
3.2273021 2.93764 1.055886
3.2266979 2.9439459 0.94528598
3.308646 3.0257671 0.858383
3.0479331 2.793848 0.69093001
2.9302959 2.6922841 0.57041502
2.6759131 2.464304 0.43770999
2.8300879 2.612365 0.37822399
3.08477 2.8540931 0.32337701
3.0636549 2.8411729 0.23660401
2.9064829 2.7016959 0.14844599
2.648803 2.467917 0.069775999
2.907335 2.7151051 0.0095349997
2.5747099 2.410073 -0.046324998
2.6790459 2.513586 -0.101109
2.573056 2.419765 -0.142646
2.597949 2.448863 -0.18534701
3.0086269 2.842586 -0.25588799
3.838593 3.6267469 -0.326478
3.1232679 2.9646521 -0.33135599
3.359359 3.2185559 -0.405586
2.584398 2.4992011 -0.252379
3.699476 3.5775189 -0.36127201
2.539911 2.4676239 -0.183843
3.2017491 3.110626 -0.231748
2.538393 2.4718831 -0.14308999
2.549504 2.4884751 -0.098054998
2.5880949 2.532023 -0.047559999
2.603934 2.553441 0.0087409997
2.989814 2.9386621 0.080798
2.789103 2.7477579 0.146465
3.1414499 3.1020751 0.25000301
3.3058059 3.2719691 0.35790199
2.5992839 2.5786591 0.359557
2.9040899 2.887742 0.492782
2.6389911 2.6302421 0.53408998
2.8085821 2.8057771 0.663405
3.0329299 3.036942 0.82171601
3.133281 3.1447279 0.96072698
3.0691121 3.0874839 1.053299
2.979249 3.0039871 1.133374
3.1916339 3.225616 1.33483
3.2130351 3.2548029 1.466789
3.181015 3.229856 1.574668
3.5179701 3.5802879 1.877313
3.282228 3.348145 1.878697
3.214987 3.287178 1.964259
3.463881 3.5581579 2.3784609
3.5304699 3.6434441 2.6806231
3.424953 3.5427811 2.718966
3.411984 3.5375741 2.8211401
3.6186581 3.7781091 3.308671
3.5309269 3.6950991 3.3153081
3.4138689 3.5892429 3.3429639
3.331578 3.535475 3.3991239
3.337961 3.5753739 3.349015
3.4044371 3.6636021 3.3147891
3.4570639 3.7289059 3.2984371
3.493767 3.7772789 3.2541511
3.594281 3.895021 3.257422
4.4831729 4.8696189 3.938118
3.3510039 3.6568689 2.7368419
2.963954 3.2572 2.10934
7.3233891 8.047945 5.2117929
3.0677791 3.379168 2.0688341
3.210768 3.5449419 2.043222
3.1720991 3.5104289 1.895807
7.0122442 7.778285 3.9168191
3.8577831 4.2892342 2.003854
7.0794449 7.8712049 3.6772871
3.606493 4.0192142 1.731868
3.2864449 3.671103 1.449405
2.420625 2.7102759 0.97346002
2.4318831 2.7292509 0.88445097
2.500694 2.8130431 0.81456703
2.4021299 2.7085021 0.69309998
2.3483641 2.654078 0.59220201
2.935292 3.3174131 0.74021101
2.3367109 2.6470921 0.50613701
2.5046489 2.8439929 0.45598701
2.668921 3.0376229 0.39708701
2.410058 2.749429 0.281335
2.4396911 2.7897689 0.20986301
2.8216579 3.2341139 0.160558
2.6480179 3.042222 0.077734001
2.4679379 2.841989 0.0090220002
2.451992 2.830255 -0.049189001
2.704222 3.128737 -0.11382
2.787499 3.2326641 -0.17238601
2.8441391 3.3061011 -0.226408
2.627439 3.061393 -0.24940901
2.5741999 3.013489 -0.30496401
2.591501 3.062439 -0.349742
2.451865 2.9248681 -0.26792499
2.5040851 3.001296 -0.202922
2.864368 3.4412301 -0.18082
2.482923 2.990016 -0.106969
2.482085 2.9960849 -0.051105998
3.0804391 3.718349 -0.063427001
2.4565151 2.9722359 0.0092420001
2.5041299 3.037029 0.075865
2.8541889 3.46978 0.168072
2.549911 3.1072209 0.227615
4.678638 5.7012019 0.417633
2.2895851 2.7966189 0.27811199
2.401103 2.9397891 0.372751
2.4797709 3.043309 0.47235399
2.51319 3.0916531 0.57112402
2.388751 2.9455509 0.63373703
2.9615159 3.6605 0.90144402
2.526644 3.1304231 0.87062001
2.765656 3.4346991 1.066938
3.6763661 4.5657201 1.418273
2.9267001 3.643275 1.251887
2.865943 3.5761349 1.348093
3.0813479 3.85409 1.582532
3.7199759 4.652873 1.910521
3.041147 3.8128729 1.694105
4.5628619 5.7343822 2.740828
7.0530558 8.8851128 4.545548
2.8471279 3.5952411 1.959152
2.858073 3.617682 2.08989
7.6320672 9.68361 5.9055471
3.4992321 4.4504619 2.853833
3.349422 4.2701192 2.867491
3.2930031 4.2082548 2.948446
3.2650399 4.1825132 3.045656
3.2321191 4.1502781 3.129735
3.274097 4.214262 3.279937
6.44275 8.3126993 6.6515522
5.01826 6.4903302 5.3217978
5.0296941 6.695899 5.5506148
6.2659831 8.3619318 6.7780948
5.9847651 8.0059938 6.321754
3.6022921 4.8305888 3.7035429
3.2038901 4.3067632 3.1936491
3.2339251 4.3576908 3.1148529
3.222682 4.3531041 2.988544
3.2476931 4.397553 2.888514
3.253648 4.416348 2.765157
3.3189001 4.5158858 2.6842999
2.7211659 3.7115951 2.086174
3.4018619 4.6400452 2.608027
3.459708 4.7304659 2.5036449
2.9958229 4.126287 1.771214
2.4984109 3.4495931 1.366011
3.3334479 4.6025419 1.822569
2.650723 3.668849 1.331443
2.586688 3.589 1.1851259
2.3620031 3.285284 0.97898698
2.8919361 4.0223622 1.19863
2.385004 3.325413 0.885638
2.347657 3.2813859 0.77245098
2.3176789 3.2474451 0.66670102
2.5168779 3.5352249 0.62206399
2.1908669 3.0848911 0.45527101
2.255224 3.1833301 0.383111
2.4634211 3.4857781 0.32844099
3.907753 5.52953 0.52100998
2.3027699 3.2665031 0.22631501
2.3062241 3.279479 0.149979
2.2794781 3.2494659 0.076500997
2.2503209 3.2158351 0.0094079999
2.417526 3.4633319 -0.05548
3.1930349 4.5743198 -0.073278002
2.4185059 3.4733291 -0.116489
3.0931051 4.4421539 -0.148981
2.4162691 3.4787221 -0.17105401
2.3745489 3.42714 -0.216454
2.912591 4.2036848 -0.26550001
2.307945 3.3392961 -0.25095201
2.3706689 3.4471309 -0.32192001
2.4715321 3.6297979 -0.38283199
2.4740779 3.670063 -0.31071201
2.3776131 3.544704 -0.221587
2.5497811 3.8109379 -0.185178
2.2285049 3.339134 -0.110491
3.0148079 4.5173092 -0.14947701
2.1626589 3.2486441 -0.051263999
2.222683 3.347225 0.0096310005
2.3028581 3.4767261 0.080374002
3.3949361 5.125483 0.11849
2.1940789 3.320864 0.148895
2.2959311 3.483808 0.236265
2.2038951 3.352628 0.30872399
2.3476501 3.580359 0.420445
2.3395331 3.5770271 0.51428503
2.1326251 3.268965 0.55948901
2.166904 3.329947 0.663899
2.2453511 3.459276 0.78956199
2.725455 4.20965 1.085313
2.7191961 4.2106872 1.2127399
3.3218801 5.1439462 1.481532
2.5726759 3.9947169 1.272846
2.4634161 3.8348351 1.3407561
3.1809621 4.964529 1.890976
3.125463 4.8903971 2.0159941
3.0983951 4.8604679 2.1558089
3.032701 4.7696362 2.2647769
2.9886019 4.7123518 2.3838251
2.949693 4.6629591 2.501097
2.917393 4.623785 2.6186399
2.880837 4.577611 2.7264459
2.84955 4.539577 2.831986
2.8216851 4.5068111 2.9339521
2.7921259 4.4711289 3.025743
2.7456861 4.4081588 3.089853
2.7550499 4.4346552 3.208725
2.7377551 4.4182482 3.287291
2.6896181 4.3518538 3.318573
2.677793 4.3552961 3.4503679
2.706105 4.447525 3.6427791
2.6894801 4.4667888 3.56991
2.652437 4.428515 3.4214151
2.6614809 4.455338 3.3664629
2.6707649 4.4826889 3.3001189
2.68525 4.5189381 3.2307169
2.6990311 4.5541592 3.1496761
2.747586 4.6483798 3.0994201
2.7785771 4.7133079 3.01898
2.794548 4.7530031 2.913274
2.917944 4.9761052 2.9078491
2.898011 4.9552851 2.7495289
2.951915 5.088047 2.3570199
3.6115191 6.2249689 2.8836949
2.959466 5.1147299 2.210108
3.019825 5.2330689 2.0986819
2.5435181 4.4195161 1.635365
3.0417719 5.2852631 1.955719
2.3505969 4.0952921 1.3890131
2.3134761 4.041491 1.247488
2.3135209 4.0524721 1.129022
2.0020361 3.5163341 0.875696
1.9980381 3.5188169 0.77470797
2.4931819 4.3908348 0.96669197
2.2293711 3.936862 0.75603402
2.292213 4.058815 0.66817999
1.884573 3.346086 0.46208
2.0791619 3.701623 0.416926
2.055311 3.6691279 0.32360801
1.948644 3.488209 0.22625799
2.116081 3.7982819 0.162652
2.420121 4.3559208 0.096040003
1.9676861 3.5512979 0.0097310003
2.0267501 3.667933 -0.055047002
2.0156231 3.6578319 -0.114948
2.048033 3.726876 -0.17174
2.194762 4.004889 -0.23708799
1.961995 3.5900431 -0.25292599
2.1196859 3.9000731 -0.34156001
1.891322 3.5187659 -0.34826601
1.844208 3.4696591 -0.27583799
2.010385 3.8035951 -0.223349
1.968365 3.734581 -0.170489
2.03232 3.866797 -0.120231
1.940225 3.7020149 -0.054901998
1.987038 3.802062 0.010283
1.752609 3.3630149 0.073090002
1.802181 3.467952 0.14620399
1.974763 3.810858 0.243049
1.817546 3.5174639 0.304658
1.943218 3.771404 0.41663301
1.848461 3.597749 0.486689
1.984571 3.873735 0.623909
1.996736 3.9086559 0.73345399
2.0007329 3.927726 0.84390497
2.1196599 4.173182 1.012973
2.2181489 4.3796711 1.187813
2.865896 5.658628 1.5346791
2.870429 5.6837931 1.705754
1.83982 3.6535971 1.2033221
2.881407 5.7220268 1.884565
1.800572 3.5860269 1.286914
3.132863 6.2940049 2.817116
3.0032091 6.0511231 2.88589
3.1377561 6.3779202 3.583046
3.165715 6.4536519 3.798094
3.1589651 6.4779091 4.1368752
3.1408191 6.459744 4.2735381
3.6113031 7.427392 4.9137001
4.8790312 10.124275 7.290194
3.1965539 6.6725998 4.9931889
2.6361461 5.5690432 4.3112521
3.2561359 6.9622512 5.262496
3.3379791 7.1806698 5.2484159
2.94805 6.4196868 4.2029772
2.842304 6.208406 3.919328
3.424989 7.4811568 4.7228079
2.841419 6.2255812 3.7760201
2.822149 6.2024078 3.600481
3.3476169 7.3572612 4.2708702
2.808264 6.1909709 3.426851
3.505811 7.7287521 4.278049
4.7387671 10.479186 5.5085611
2.4385681 5.426126 2.5413589
2.4236529 5.4097242 2.3752451
2.4189501 5.4160652 2.2185149
2.4332631 5.4651618 2.0780101
2.4707611 5.5667648 1.953276
1.662536 3.757545 1.208684
2.506032 5.6639528 1.821916
2.5240149 5.7225642 1.6754791
1.932547 4.3953719 1.161709
1.936619 4.4185438 1.044067
1.6794519 3.843945 0.803101
1.808902 4.1533651 0.75702298
1.872479 4.3130088 0.673998
1.681007 3.8843319 0.50926697
1.714013 3.9732471 0.42493999
1.699563 3.9523561 0.331049
1.638258 3.822027 0.23547301
1.6184109 3.7878599 0.154091
1.589372 3.731894 0.078176998
1.670125 3.934165 0.010244
1.86064 4.3971248 -0.062716998
1.6106319 3.818661 -0.114068
1.593107 3.789386 -0.16601001
1.604074 3.8279049 -0.215469
2.0799699 4.9635658 -0.279394
1.55795 3.7299919 -0.24990299
1.6271549 3.921252 -0.32667601
1.719331 4.198379 -0.39551201
1.609754 3.9834621 -0.301608
1.533826 3.821101 -0.21375801
1.5688 3.9213901 -0.17057
1.5560451 3.9026351 -0.115636
1.664214 4.1880708 -0.059197001
1.541297 3.891902 0.010033
1.511531 3.8297391 0.079352997
1.539598 3.914149 0.157344
1.617113 4.125268 0.25090799
1.637714 4.1921539 0.34631699
1.6587189 4.2605052 0.44898301
2.2609701 5.8074188 0.61199999
1.929587 4.9733109 0.64187002
1.644626 4.2535071 0.65370703
1.541234 3.9999011 0.71631199
1.6202379 4.2195282 0.86534101
1.67522 4.3779149 1.014454
2.255008 5.9341521 1.700578
2.418967 6.3879352 2.0093
2.268229 6.0109582 2.060468
2.2635009 6.0195732 2.2338691
2.110873 5.6335111 2.2500429
2.0562761 5.5072761 2.3555319
2.0160229 5.418654 2.4698601
1.981305 5.3443098 2.583668
1.953582 5.2883821 2.7002831
1.941748 5.275176 2.8335769
1.929955 5.261972 2.9613919
1.884066 5.1553841 3.0286429
1.871604 5.139782 3.139744
1.862736 5.1339798 3.249382
1.848228 5.112494 3.3412001
1.830745 5.0825758 3.4166441
1.809454 5.0418391 3.4747601
1.789557 5.023046 3.598609
1.733896 4.939281 3.6628439
1.711418 4.9486728 3.5851631
1.709397 4.9802518 3.4899211
1.710068 5.0011039 3.428503
1.710327 5.0208912 3.35464
1.713818 5.050364 3.277843
1.721773 5.093226 3.1987619
1.740738 5.169096 3.1307831
1.744043 5.1988802 3.025744
1.770231 5.2973289 2.9511139
1.7889529 5.374125 2.8551841
1.827494 5.5112429 2.7810631
1.879651 5.6906371 2.716609
1.7588151 5.3877568 2.1197281
2.0035419 6.161695 2.250603
2.1133649 6.5251899 2.1997261
1.8711931 5.800426 1.7928489
1.935464 6.0236068 1.694886
1.333449 4.1665988 1.058473
1.5247999 4.783628 1.0865819
1.39354 4.389462 0.88169998
1.796237 5.6579032 1.136488
1.286384 4.0683041 0.71301597
1.330886 4.2261028 0.63511902
1.3819309 4.4060588 0.555619
1.61245 5.1620069 0.53107798
1.283336 4.1252179 0.33243001
1.370978 4.425065 0.262328
1.377385 4.464067 0.17476401
1.5091619 4.9114099 0.099027
1.414781 4.623363 0.011589
1.281629 4.2056751 -0.057753
1.242694 4.0949731 -0.117782
1.23422 4.084105 -0.172305
1.308542 4.348259 -0.23574001
1.313356 4.38271 -0.28285301
1.2455879 4.1919298 -0.33649701
1.2281491 4.2046909 -0.38187599
1.52953 5.2364998 -0.47558701
1.2369111 4.3089499 -0.31470299
1.160481 4.0783992 -0.220135
1.25985 4.4472251 -0.186671
1.209106 4.2870698 -0.122597
1.269888 4.522696 -0.061705999
1.2695889 4.5418801 0.011304
1.251212 4.4962869 0.089951001
1.847334 6.6384778 0.132807
1.36674 4.9336071 0.19151101
1.237955 4.4889679 0.26368499
1.199926 4.3708868 0.34877199
1.203403 4.4035692 0.44829801
1.159989 4.264164 0.531726
1.431548 5.2624249 0.65620601
1.110454 4.1008849 0.60900998
1.1207139 4.1578979 0.71960902
1.452616 5.3892689 0.93272197
1.216036 4.5324779 0.898435
1.1693079 4.3786392 0.98082203
1.209705 4.551096 1.139369
1.201215 4.5401888 1.2580971
1.157984 4.3974271 1.337652
2.66996 10.13913 3.084219
1.680491 6.4118919 2.1258211
2.7681651 10.612112 3.809521
1.446038 5.570035 2.1523061
2.3022339 8.9535036 3.9493401
2.8152621 11.055111 5.464067
1.409533 5.616775 3.195317
2.4793639 9.8798847 5.6205502
1.3407919 5.3692422 3.1765821
1.320137 5.3127909 3.2570519
1.276826 5.164093 3.269465
1.3668931 5.5560389 3.6186919
1.246519 5.0922589 3.400748
1.260896 5.2032628 3.613153
1.188382 5.0055141 3.599781
1.12775 4.8502531 3.4094639
1.192335 5.1825709 3.5247259
1.1973979 5.2888331 3.3328221
1.209404 5.3708048 3.2754591
1.7153161 7.7432652 4.1905169
2.318274 10.523038 5.431736
2.188972 9.9912987 4.8990421
1.43768 6.5987468 3.0613461
1.930738 8.8618097 4.1112452
1.215839 5.7078962 2.0271511
1.547449 7.264679 2.58004
1.579403 7.4571581 2.444649
1.734483 8.1893663 2.6846859
1.611365 7.6518722 2.3002529
1.7051229 8.1440315 2.2289691
0.98064101 4.7385688 1.0472389
1.007026 4.8947229 0.95672601
0.937994 4.5861511 0.78224099
1.013347 4.9840398 0.72905302
1.04695 5.180141 0.63589698
1.077729 5.3644919 0.53733301
0.91376901 4.575861 0.35905299
1.085784 5.4372578 0.42664301
0.90540099 4.561563 0.26334599
0.95352602 4.8333969 0.184296
0.99687201 5.0842299 0.099855997
0.97145098 4.9852161 0.012174
0.95607799 4.9368401 -0.066054001
0.96064001 4.9914751 -0.139902
0.97882998 5.117991 -0.210438
1.05721 5.5628042 -0.29396299
0.87309098 4.6233001 -0.29087499
0.888502 4.7655501 -0.373016
0.95553899 5.260643 -0.46612
0.79318702 4.4851952 -0.319745
0.80028403 4.5874472 -0.241754
0.81090301 4.6804008 -0.191836
0.90125197 5.238018 -0.146285
0.85685903 5.0148849 -0.066827998
0.84759599 4.9955902 0.012145
0.97916698 5.8120012 0.113595
0.85914803 5.135994 0.194801
0.85307199 5.1362991 0.294837
0.867208 5.2592249 0.41014799
0.86015701 5.2544489 0.52286798
0.82749498 5.0919909 0.62072599
0.86768401 5.3787732 0.78098601
0.81748497 5.1052718 0.86399198
0.80936801 5.0924339 0.98718798
0.77242303 4.8966899 1.072834
0.76955402 4.9155679 1.203804
1.63316 10.517666 2.851289
1.126609 7.4258142 2.6089151
1.017626 6.7603269 2.556915
1.4734859 9.8665314 3.9972999
1.438306 9.7080212 4.1925149
0.92466599 6.3426499 3.070055
0.95945901 6.7456961 3.759594
0.97113901 6.9433641 4.1712761
0.69201899 5.1659732 3.5174961
0.63641798 5.1109662 3.5264089
0.87821603 7.4769058 4.479085
0.70234102 6.101747 3.389046
0.85273498 7.5627952 3.8364699
0.894099 8.1854277 3.5175951
0.99166 9.2778988 3.4897909
0.80763799 7.6401439 2.668633
1.1178631 10.574832 3.6936929
1.081075 10.458797 3.092967
0.97443599 9.5353756 2.567687
0.65090603 6.518919 1.417824
0.64301503 6.516427 1.253635
1.011927 10.25504 1.972872
0.56425601 5.7869329 0.97162002
0.58233702 6.04494 0.87052101
0.57092202 5.9994268 0.72513598
0.51539397 5.4833388 0.540851
0.49366501 5.3183479 0.410992
0.484503 5.2863388 0.300603
0.54355103 6.0072398 0.225642
0.478149 5.3536921 0.103594
0.48669001 5.5215759 0.013286
0.51732802 5.94803 -0.078426003
0.51890302 6.0474801 -0.16705699
0.50256598 5.9379129 -0.24066199
0.559295 6.700644 -0.34907401
0.54612899 6.6358528 -0.41163
0.52549398 6.5715351 -0.50727701
0.501454 6.6598172 -0.58223802
0.43532699 6.1634402 -0.43375
0.42945099 6.2878642 -0.32719499
0.42097801 6.270762 -0.25381699
0.41151801 6.2380738 -0.172065
0.36911699 5.8002501 0.013931
0.39865899 6.381372 0.12323
0.34519401 5.6304832 0.211025
0.341656 5.6806178 0.32225701
0.349224 5.9211769 0.456411
0.3396 5.873889 0.57779402
0.33564499 5.9246969 0.71402597
0.40915301 7.2222428 0.87040198
0.36946499 6.6585908 0.95594198
0.33320999 6.133779 1.0265059
0.33984101 6.3927059 1.2256171
0.35155401 6.7611332 1.465205
0.430875 8.4761734 2.0534511
0.50331199 9.9011641 2.3986709
0.36684901 7.3842082 1.980558
0.42495599 8.7591543 2.5796361
0.47023201 9.9310789 3.18858
0.34682301 7.509398 2.611212
0.45061699 10.009032 3.7472689
0.338617 7.7212262 3.0968189
0.43130001 10.102739 4.3197989
0.357941 8.8682299 4.2510781
0.301404 8.174778 4.5137358
0.148625 10.062182 6.3645148
0.091577001 8.1163664 4.6590872
0.097588003 12.520737 6.3117428
0.045740001 6.8965631 3.3033221
0.022483001 7.1484532 2.8643529
0.031122001 9.8951445 3.964941
0.014462 7.2916789 2.7271659
0.0080859996 9.8610382 3.425287
-0.0033440001 9.7822304 3.137274
-0.011753 7.8168092 2.299407
-0.018808 7.0523129 1.889215
-0.038468 10.047033 2.4308889
-0.03131 6.2736821 1.357752
-0.03971 6.452683 1.235395
-0.046555001 6.3635888 1.0634249
-0.054352999 6.4112339 0.91904902
-0.066371001 6.8840241 0.82835102
-0.067245997 6.2246919 0.61131603
-0.078373998 6.5501671 0.50405401
-0.088202998 6.1720519 0.230913
-0.100067 6.4750242 0.12481
-0.112627 6.7780452 0.016248001
-0.118999 6.6933651 -0.087935999
-0.121126 6.3944311 -0.176026
-0.128318 6.3825059 -0.25781199
-0.151034 7.1018281 -0.36877501
-0.23497801 6.4570251 -0.335439
-0.25415799 6.7677088 -0.273509
-0.26840001 6.932179 -0.190938
-0.28296101 7.0947471 -0.093268
-0.272854 6.6473832 0.015946001
-0.34770799 8.237133 0.158898
-0.28092101 6.4763761 0.24250101
-0.28969499 6.5041218 0.368673
-0.31065401 6.7967911 0.52354199
-0.303565 6.4767008 0.63672602
-0.52204698 9.9065952 2.1469359
-0.56797498 10.545014 2.5550549
-0.55332899 10.057627 2.6983609
-0.401191 6.9959469 2.2473669
-0.58007598 9.9139881 3.449569
-0.4867 8.1557474 3.055757
-0.654333 10.357864 4.7045221
-0.44371799 6.7737818 3.4218991
-0.75353098 10.919986 6.2829719
-0.6688 9.3749285 5.7765431
-0.71249002 8.124135 5.4053159
-0.85934502 9.302021 5.5579519
-0.63385898 6.6097741 3.5084479
-0.98637599 9.5826464 3.602941
-0.72862899 6.9987569 2.444196
-1.016157 9.5453625 2.8237431
-1.075135 9.9890633 2.691375
-1.0515471 9.664463 2.352109
-1.005542 8.7678719 1.0619
-0.93418902 8.0630169 0.79710501
-0.97241199 8.3085613 0.643686
-0.91811001 7.7663922 0.442848
-0.96231598 8.0600786 0.30365899
-0.98451 8.1653347 0.15851299
-1.002992 8.2381439 0.019892
-1.381999 11.030702 -0.448962
-0.78802902 5.8487668 -0.51449502
-1.30979 8.864089 0.172695
-1.2823 8.6089373 0.32560301
-1.2272381 8.1741447 0.46806401
-1.38052 9.1228628 0.70997298
-1.4349051 9.4084282 0.93461502
-1.894599 12.138681 2.0530109
-1.620997 9.9317226 3.2273641
-1.8084019 10.920416 4.139967
-1.720045 10.312469 4.1892238
-1.5477951 8.7764959 5.3022962
-1.6813231 8.4918575 5.3204732
-2.990149 13.025148 0.032032002
-1.639166 6.954803 -0.441742
-1.397886 5.8700109 -0.464313
-1.294077 5.3242092 -0.477671
-1.587533 6.4018669 -0.46302101
-2.1462469 -7.657506 2.1303811
-2.1411381 -7.6733489 2.343431
-1.737205 -7.6389308 2.5124459
-1.723119 -7.6176472 2.297431
-1.715059 -7.6229491 2.0931189
-1.703511 -7.6126442 1.8874249
-1.174616 -5.2776971 1.170133
-1.702471 -7.6494179 1.695974
-1.192495 -5.3873858 1.056385
-1.082944 -4.9193649 0.84174103
-1.333164 -6.0560112 1.03623
-1.122009 -5.1249909 0.75204003
-1.39167 -6.3920732 0.78713697
-1.650614 -7.5814309 0.93359703
-1.428877 -6.599607 0.66311401
-1.186537 -5.5110512 0.43377799
-1.181343 -5.5179181 0.319543
-1.124639 -5.2828388 0.202053
-1.637767 -7.7370911 0.15242399
-1.084167 -5.1511278 0.012617
-1.6307811 -7.74822 0.018978
-1.153296 -5.5111341 -0.073960997
-1.628051 -7.7797909 -0.104406
-1.612679 -7.7510118 -0.21790101
-1.599996 -7.7348099 -0.31898701
-1.590222 -7.7325449 -0.40983701
-1.435359 -7.5524611 -0.39910501
-1.42369 -7.5384879 -0.309827
-1.416343 -7.5473461 -0.211353
-1.409129 -7.5570831 -0.100978
-1.401251 -7.5632682 0.018437
-1.391168 -7.5576 0.14810701
-0.99324501 -5.4310622 0.20653901
-1.378857 -7.5395918 0.28672501
-1.376772 -7.5776048 0.43612099
-1.36404 -7.5571842 0.59090197
-1.356153 -7.563417 0.754592
-1.3489079 -7.5733228 0.92559302
-1.079208 -6.0999489 0.88797402
-1.344095 -7.597156 1.105924
-3.3167529 -18.874067 3.2023079
-3.990998 -23.342291 6.3437891
-0.75573599 -5.6751962 3.4063549
-2.9947989 -23.312084 11.84791
-2.9625821 -23.273836 11.23743
-2.913846 -23.32093 10.040115
-2.832952 -23.330194 8.1633987
-2.797878 -23.265732 7.5153489
-0.873384 -7.7130752 1.297142
-0.86649698 -7.73207 1.115289
-0.85694802 -7.72755 0.93550903
-0.84745002 -7.7232709 0.76299697
-0.83588803 -7.6998658 0.59596598
-0.826294 -7.6943622 0.43821201
-0.814349 -7.6664782 0.288407
-0.80339402 -7.6474881 0.148204
-0.794402 -7.6468248 0.018426999
-0.782444 -7.617259 -0.100584
-0.77310997 -7.612947 -0.21061
-0.76149398 -7.58566 -0.30789
-0.75105602 -7.5695872 -0.394905
-0.73809099 -7.5274601 -0.46759599
-0.64432198 -7.4567952 -0.52541602
-0.626203 -7.4476562 -0.38801
-0.618016 -7.4533248 -0.302039
-0.609842 -7.4592781 -0.205988
-0.60211802 -7.4711289 -0.098456003
-0.59322703 -7.4684548 0.017957
-0.58651602 -7.4936862 0.14487
-0.57710803 -7.4845328 0.28081799
-0.56840998 -7.4844222 0.42503899
-0.56034201 -7.492866 0.57816702
-0.55250102 -7.5044932 0.73895502
-0.54347402 -7.5000958 0.90480697
-0.53637999 -7.5228119 1.081092
-1.319778 -18.816221 3.1520381
-1.530403 -23.363382 6.2721119
-1.503556 -23.366632 6.8877778
-1.477493 -23.382919 7.5141268
-1.452471 -23.415941 8.1492901
-1.373939 -23.463909 10.040901
-1.3449939 -23.432623 10.639363
-1.3224109 -23.513765 11.280195
-0.31281301 -6.3453131 3.9046121
-0.47689399 -26.332886 9.8503752
-0.26329699 -26.246964 5.0252571
-0.16702101 -18.812393 3.1437969
-0.059941001 -7.7594519 1.112309
-0.050937999 -7.7529101 0.93287998
-0.041790001 -7.714776 0.75762099
-0.032912001 -7.719111 0.59397101
-0.023931 -7.6976309 0.43589401
-0.015037 -7.6886072 0.287622
-0.0061389999 -7.6645741 0.14772201
0.002691 -7.6409779 0.018315
0.011515 -7.6493311 -0.100479
0.020297 -7.630084 -0.210005
0.029064 -7.6217322 -0.307809
0.037749 -7.6006699 -0.39459401
0.046500001 -7.596355 -0.469632
0.063600004 -7.546423 -0.58069801
0.132507 -7.5033622 -0.52681601
0.14973199 -7.498405 -0.38935801
0.15918 -7.5361748 -0.30441901
0.167365 -7.5132899 -0.20684101
0.176585 -7.5362811 -0.099021003
0.18575799 -7.5556951 0.018115999
0.194087 -7.540102 0.145371
0.203134 -7.5529842 0.28264999
0.211821 -7.5519271 0.42781001
0.221146 -7.5723772 0.582923
0.229938 -7.57406 0.74413401
0.238978 -7.583509 0.91293001
0.24757899 -7.5784521 1.08691
0.265452 -5.1852651 2.864867
0.367394 -6.8653421 4.0904889
0.45206201 -6.58882 4.5218482
0.41060001 -5.2697682 2.9165599
0.69451201 -8.7824259 4.6548839
0.75814301 -7.8508568 1.130613
0.76459998 -7.8230281 0.94578201
0.77099001 -7.7952852 0.769252
0.77985799 -7.7929239 0.60263997
0.78713202 -7.7747369 0.442509
0.794397 -7.7569752 0.291697
0.80152601 -7.7381549 0.149938
0.80916297 -7.7247128 0.018617
0.81887001 -7.7310829 -0.102121
0.82630301 -7.7159429 -0.213581
0.83550602 -7.7175779 -0.313499
0.84333003 -7.7065539 -0.402475
0.85177499 -7.7012458 -0.47901201
0.86431301 -7.6525798 -0.59258997
0.89234197 -7.5857248 -0.665874
0.93242103 -7.622283 -0.53907102
0.95247501 -7.6394849 -0.39967501
0.96593702 -7.6751499 -0.31240901
0.97687501 -7.690268 -0.213361
0.98657602 -7.6953468 -0.101911
0.99838102 -7.716661 0.018650001
1.0076489 -7.7180538 0.150015
1.018793 -7.7337279 0.29180899
1.028783 -7.7404218 0.44216999
1.0366091 -7.7307529 0.60018498
1.045887 -7.7320518 0.766222
1.0579489 -7.7537122 0.94160098
1.7307611 -11.228553 5.7270222
0.99090201 -6.3796949 3.4112771
1.346987 -8.5421085 4.9637518
1.257953 -7.9179978 4.770021
1.61738 -9.5394726 6.7701559
0.95731002 -5.418252 3.646821
1.504545 -8.1841507 4.591517
1.41418 -7.6429839 4.106894
4.371274 -23.323399 11.365726
4.425467 -23.314955 10.137935
4.4522982 -23.309422 9.50879
1.875741 -9.7590551 3.7167921
4.5034971 -23.285442 8.2382116
4.5607829 -23.293079 6.9820352
4.5824232 -23.26099 6.3510342
1.6235909 -8.1916962 2.0205281
1.632401 -8.1865826 1.806599
1.641986 -8.1853104 1.598304
1.647504 -8.1639395 1.391749
1.658965 -8.1720762 1.195317
1.667832 -8.1673212 1.003005
1.672858 -8.1439714 0.81645602
1.6805249 -8.1336527 0.63908303
1.688756 -8.1260796 0.46998599
1.69844 -8.1255836 0.31053799
1.705417 -8.112134 0.15976501
1.716127 -8.1165342 0.019885
1.72639 -8.118762 -0.10903
1.731921 -8.0987482 -0.227943
1.741979 -8.10005 -0.33460301
1.749343 -8.0888548 -0.42964199
1.757067 -8.0793619 -0.51116002
1.770862 -8.0532217 -0.63447899
1.813097 -8.0674067 -0.72084898
1.8456531 -8.0385418 -0.578987
1.868098 -8.0509796 -0.42907101
1.884515 -8.0793657 -0.33504701
1.8910151 -8.0651379 -0.227998
1.905938 -8.0867157 -0.109135
1.924421 -8.1231337 0.020009
1.929518 -8.1028852 0.16053601
1.940665 -8.1081562 0.311883
1.955038 -8.1267567 0.47332099
1.964121 -8.1232138 0.64307201
1.972909 -8.1185284 0.820463
1.98391 -8.1229258 1.006111
2.000576 -8.1502771 1.202979
2.01197 -8.1560202 1.4037811
2.0286889 -8.1831627 1.614099
2.040731 -8.1911907 1.826905
5.8781729 -23.36442 6.454021
5.9857812 -23.676386 7.1838112
2.4002111 -9.4478321 3.1262801
6.0586329 -23.733255 8.5082579
6.0920091 -23.749369 9.1700716
2.2109489 -8.577981 3.5494771
2.40803 -9.1668978 4.7776952
6.2981958 -23.532175 14.493625
1.490319 -5.5172081 3.6144159
2.3419299 -8.669899 5.6797972
2.1374829 -7.6658492 5.5685101
2.1966071 -7.7392912 5.5082479
2.2568159 -7.8819308 5.4340439
2.288301 -7.9571099 5.3707771
2.313792 -8.0108585 5.2735629
2.3540931 -8.1151276 5.193234
2.3927741 -8.212966 5.089591
2.4394131 -8.3371334 4.9861541
2.4768801 -8.428957 4.8475671
2.52209 -8.5462589 4.7081418
2.5779769 -8.6985188 4.5733352
2.622385 -8.8109465 4.4031339
2.6622319 -8.9071417 4.214047
2.6547129 -8.7344275 3.1709909
2.705688 -8.865283 2.9726689
2.759316 -9.0036907 2.7701249
2.7938721 -9.078907 2.544657
2.79457 -9.0439587 2.290261
2.801837 -9.0304403 2.046252
2.8029931 -8.9973392 1.804204
2.807354 -8.9747763 1.571404
