# .PCD v0.7 - Point Cloud Data file format
VERSION 0.7
FIELDS x y z
SIZE 4 4 4
TYPE F F F
COUNT 1 1 1
WIDTH 1560
HEIGHT 1
VIEWPOINT 0 0 0 1 0 0 0
POINTS 1560
DATA ascii
1.050503 -8.0587959 0.019478999
1.05951 -8.05511 0.15658601
1.070773 -8.0685663 0.30448201
1.0840321 -8.0966673 0.46258
1.092732 -8.0904055 0.62818801
1.102069 -8.0890007 0.80169898
1.113637 -8.103838 0.984249
1.123753 -8.1078272 1.173324
1.135062 -8.1203613 1.370157
1.146615 -8.1343889 1.572731
1.15865 -8.1514606 1.7818511
1.168771 -8.1549683 1.9932491
1.315941 -8.5474691 4.14222
1.1522861 -7.3710818 3.941982
1.502051 -9.3254185 5.8053422
1.684239 -9.1681175 5.3505569
1.90842 -10.189218 5.2255759
1.609008 -8.4821672 3.913486
1.61379 -8.4539013 3.6767011
4.5426531 -23.50161 8.9525299
4.5588179 -23.153658 6.941679
1.610219 -8.079402 1.9932491
1.61879 -8.0736856 1.782063
1.626405 -8.0632153 1.5748
1.636186 -8.0635853 1.3749371
1.64432 -8.0558558 1.178574
1.653595 -8.0536909 0.98926699
1.657423 -8.025218 0.80472797
1.668972 -8.0342236 0.63141102
1.678093 -8.0314169 0.46461499
1.6833529 -8.0103092 0.30620101
1.6934969 -8.0124683 0.157838
1.704736 -8.0197945 0.019652
1.712194 -8.009326 -0.107585
1.717393 -7.9883828 -0.224889
1.72841 -7.994628 -0.33032599
1.737156 -7.9903331 -0.42450899
1.744148 -7.9779811 -0.504866
1.7614011 -7.968523 -0.627958
1.80467 -7.9886308 -0.71398801
1.911581 -8.2833691 -0.59677398
1.8875329 -8.0936241 -0.431456
3.3402979 -13.816175 0.80490601
3.3689499 -13.864377 1.097872
3.3822761 -13.849397 1.400016
3.3998859 -13.851982 1.716194
2.248575 -8.9814634 2.003737
2.259243 -8.9799852 2.240406
2.2602639 -8.9405584 2.4703929
2.2574699 -8.8862867 2.6970329
2.244308 -8.7918396 2.910064
2.307838 -8.997324 3.226444
2.3126221 -8.972887 3.46562
2.3096659 -8.9187126 3.691561
2.306911 -8.8658571 3.91359
2.351404 -8.9941959 4.214047
2.4177511 -9.2044487 4.5582132
2.4433229 -9.258256 4.8267589
2.4726751 -9.3257952 5.0977621
2.503227 -9.3971224 5.3659492
2.524173 -9.4319296 5.604445
2.541265 -9.4519949 5.8233218
1.658805 -6.1133952 4.006218
2.5852571 -9.5277615 6.2437139
2.745646 -9.6325388 6.8579102
2.751667 -9.5696707 6.5997448
6.7966361 -23.332211 14.936176
7.0642018 -23.539774 11.140573
6.9970779 -23.218494 10.359503
7.1238651 -23.540733 9.855072
2.7258091 -8.7158489 1.7483571
2.721169 -8.6658583 1.517837
2.7270429 -8.6495886 1.300035
2.7377341 -8.6485929 1.091526
2.7612269 -8.687911 0.89522898
2.7809329 -8.7150183 0.70391202
2.6639049 -8.1525631 -0.236059
2.7285271 -8.3177691 -0.35352799
2.771667 -8.4164343 -0.46002299
2.8171229 -8.5212688 -0.55484599
2.8546441 -8.5682812 -0.69493502
2.9164081 -8.6205196 -0.79336798
2.9115491 -8.4768639 -0.629197
2.894233 -8.3634539 -0.45945299
3.4341741 -9.6698542 0.58108002
4.9130011 -13.78331 1.125952
4.9489908 -13.833724 1.4428231
4.9658771 -13.83052 1.76816
3.1882241 -8.6587543 2.7142479
3.1764691 -8.596118 2.9390759
3.2020569 -8.6346388 3.1988821
3.1933291 -8.5806513 3.424283
3.149924 -8.4341278 3.607501
3.149586 -8.4035616 3.8338411
3.1546979 -8.3876715 4.0621152
3.1614771 -8.3762465 4.288228
3.1663561 -8.3598967 4.5062661
2.931761 -7.713572 4.3600998
3.1774099 -8.3598824 4.7254272
2.8917739 -7.5819159 4.4775019
2.857002 -7.4648099 4.5878992
2.8241839 -7.3535428 4.6866779
3.1030021 -7.9964862 5.5639701
2.711087 -6.753788 4.9828458
2.7854199 -6.8927779 4.927434
2.8146889 -6.9420838 4.8592219
3.3037779 -8.1213799 5.5450978
3.3082769 -8.1055326 5.3806891
3.3469541 -8.1732674 5.2547441
3.3291919 -8.103159 5.0284681
3.625025 -8.7942247 5.2485518
3.6405289 -8.8029308 5.0332918
3.5974219 -8.5859442 3.9768391
9.7461987 -23.185926 10.077867
9.8885212 -23.448563 9.51793
9.954237 -23.377439 7.4741998
6.0173631 -13.820096 1.813675
4.1134801 -9.3880587 0.788688
4.1634712 -9.4426384 0.386051
3.913667 -8.84832 0.186473
3.66906 -8.1926079 -0.36252701
3.639339 -8.1011162 -0.46105999
3.7114589 -8.2361259 -0.558487
3.75666 -8.2852211 -0.69999897
3.7361181 -8.1395283 -0.78077501
3.706459 -7.9773412 -0.61750197
3.8335111 -8.2010689 -0.46997699
11.346251 -23.146746 6.9055591
11.52406 -23.236555 9.7007923
5.212872 -10.480447 4.6902351
4.1674671 -8.3061724 4.4510832
11.79667 -23.376757 13.835247
4.481926 -8.7801857 6.058773
3.7055359 -7.2178822 5.2630239
4.38799 -8.4987278 6.454896
4.4881549 -8.5948076 6.7844892
4.4377308 -8.403162 6.5065122
3.757066 -7.0745382 5.3091869
4.6624112 -8.6819839 5.863205
4.3727918 -8.0529423 4.6192489
7.79952 -13.749875 1.552381
7.7884722 -13.69344 1.212186
5.1846051 -9.0421314 0.20088699
5.0272632 -8.7208729 -0.13222501
4.8313432 -8.3363161 -0.389119
4.7215109 -8.1251106 -0.48786399
4.749373 -8.1512947 -0.58323002
4.672544 -7.976923 -0.71135402
4.8861952 -8.2537432 -0.83618498
4.8674068 -8.1358109 -0.66554099
4.9668241 -8.258502 -0.50030702
5.377861 -8.9185562 -0.42059401
5.3083 -8.7801991 -0.28239101
5.2676778 -8.6902428 -0.133486
4.910522 -7.6151881 4.9997482
5.6384449 -8.7218409 5.961381
5.0482082 -7.425458 5.3421779
5.8304911 -8.5547924 5.9424639
4.94976 -7.2444639 4.8412871
5.1840582 -7.5497398 4.6165481
9.8175097 -13.710666 1.297576
9.8030376 -13.656956 0.95195699
9.82129 -13.648974 0.62903798
6.0074568 -8.2274628 -0.52887303
6.0006509 -8.1981544 -0.62808901
5.9979882 -8.1548023 -0.77894402
6.025363 -8.1129274 -0.88099903
6.073956 -8.0996389 -0.71070898
6.6560221 -8.8330803 -0.57418603
6.5939102 -8.7295904 -0.44182
6.5990558 -8.7153902 -0.300879
6.8457689 -8.997797 0.027099
10.412175 -13.652437 0.330919
10.442053 -13.658766 0.64316797
10.477597 -13.6724 0.97542
10.544883 -13.727187 1.331947
6.5368309 -8.2299843 4.4899039
5.809319 -7.244945 4.9066892
5.648356 -6.9612999 5.669641
6.1866188 -7.4294028 6.6195021
4.477901 -5.3521938 4.625236
9.2591076 -10.963432 8.5378733
6.0228 -7.0980258 5.1364698
9.0526743 -10.594056 6.6744652
6.0543108 -7.0520539 3.9705541
8.5541077 -9.9405327 5.254848
11.928769 -13.573688 3.019686
12.084178 -13.622881 1.401225
12.095126 -13.57182 0.68006498
12.121052 -13.569243 0.35067099
7.749773 -8.6555281 0.027846999
7.9354439 -8.8423023 -0.156064
7.8015561 -8.6527424 -0.47051001
7.3198481 -8.0807953 -0.67405897
7.5348659 -8.2795982 -0.86141902
7.562079 -8.2326231 -0.974536
7.5477948 -8.1411343 -0.77933502
8.7267094 -9.3691378 -0.66470802
8.0765457 -8.6310015 -0.32533801
12.751729 -13.564074 0.044622999
12.847608 -13.602838 0.69995302
12.862034 -13.586604 1.059433
12.478485 -13.12049 1.778143
11.947317 -12.532939 2.083421
11.950131 -12.50686 2.4796021
10.69649 -11.038375 4.5214891
10.234902 -10.464581 5.865211
10.020806 -10.221984 6.1151319
9.6186895 -9.7664328 6.5656071
9.2000103 -9.2981691 6.9113169
9.1010466 -9.1556311 7.4100342
6.634223 -6.6431608 5.7702599
11.376942 -11.365928 10.170824
9.1739225 -8.8110952 7.5679159
9.7181654 -9.2476358 6.7623248
11.609104 -10.793644 3.8352871
14.845596 -13.485639 0.38655099
9.5718899 -8.6144638 -0.52006298
10.443939 -9.377429 -0.72868502
9.1821241 -8.2252645 -0.76211202
9.017395 -8.0401545 -0.92962402
9.1507835 -8.0832968 -1.064425
9.2663908 -8.1093216 -0.86441898
10.402516 -9.0188456 -0.37893301
10.905442 -9.1280565 4.1834068
9.3872423 -7.710393 6.1235881
9.5576611 -7.3090229 5.1400738
11.982931 -8.73104 -0.40806901
11.139766 -8.0182877 -1.056136
11.137497 -7.9385061 -1.192354
10.783761 -7.2427888 4.1661339
14.540686 -9.025486 9.8234596
11.015904 -6.6271591 3.4438519
15.081896 -8.6964951 -0.90381801
14.971022 -8.6094351 -1.067672
15.009279 -8.4014616 -1.2074831
15.072493 -8.3910065 -0.89557499
15.090214 -8.377985 -0.69704902
15.139731 -8.3825436 -0.4763
15.095227 -8.3350372 -0.226505
15.217299 -8.3564558 0.3346
9.4414902 -3.6488919 6.2210941
6.1227779 -2.333699 4.4220428
6.0674291 -2.280405 4.5354142
6.120851 -2.268126 4.4693079
9.0336542 -3.323662 6.3798642
9.1395359 -3.350589 6.3144312
9.1523008 -3.343235 6.162467
9.3859282 -3.4162271 6.138886
8.5888624 -3.1148419 5.4357481
8.6297102 -3.1183369 5.2669239
8.9125977 -3.2088621 5.2268119
12.674893 -3.6533251 3.5336421
12.53348 -3.58108 4.1804872
10.35343 -2.8933511 4.8729692
10.183346 -2.833075 5.0627608
6.7425418 -1.867399 3.5267799
6.7984571 -1.8743989 3.72615
10.343439 -2.851784 5.6691108
6.653348 -1.82608 3.8069401
6.570797 -1.7952321 3.909869
9.6535769 -2.625447 5.9521732
8.8271208 -2.389689 5.6205049
8.6908903 -2.341995 5.692625
8.4539356 -2.2676139 5.6777091
8.4659653 -2.2498059 5.9117198
8.6640053 -2.2594309 6.2650752
7.7004328 -1.970032 5.4421492
7.7011008 -1.951171 5.265543
8.9516773 -2.2569759 5.988451
8.6918011 -2.180737 5.6675029
9.5525379 -2.396692 6.2287478
8.5030518 -2.1228881 5.3864479
6.2278018 -1.547175 3.81796
9.783329 -2.430476 5.9976792
10.011485 -2.474834 5.9195638
6.687799 -1.644982 3.8001759
6.4471698 -1.5778691 3.5070469
6.5669389 -1.5991 3.4070449
10.546665 -2.5681951 5.4717979
10.382451 -2.5154569 5.1167579
11.172404 -2.6931341 5.2094479
12.289944 -2.9172959 4.7242842
12.423158 -2.933682 4.4339409
12.09113 -2.825685 3.65258
12.200153 -2.1724291 3.3196471
10.361038 -1.807763 3.6533339
10.222749 -1.771422 3.8803871
12.653623 -2.1775169 5.144752
12.435735 -2.1251769 5.389535
7.0933199 -1.186802 3.6253591
6.8861332 -1.14393 3.688309
6.7417731 -1.111905 3.7702229
6.4781852 -1.060717 3.7679911
6.9023151 -1.1219341 4.1605392
6.811028 -1.098991 4.2402511
6.347363 -1.016625 4.0655499
6.5090618 -1.034773 4.2752881
6.1132288 -0.95731401 4.1759081
4.612463 -0.70037901 3.2643981
6.0146708 -0.91329801 4.2567878
6.0441899 -0.88910699 4.182879
6.0690899 -0.87838501 4.0644841
6.3179789 -0.90692699 4.1403251
6.5732732 -0.93579602 4.1991801
6.561429 -0.926337 4.0726929
6.5125852 -0.91174001 3.9125531
6.7727022 -0.94014901 3.924804
6.8601151 -0.94416499 3.82095
11.299377 -1.475075 4.5660052
11.193958 -1.434898 3.920099
11.035732 -1.388608 3.2718849
16.657452 -1.236928 3.6148911
7.1853499 -0.46657401 3.07603
7.2579579 -0.46282899 3.296675
9.9566269 -0.63492 4.5224519
10.090378 -0.63167399 4.842453
9.7301245 -0.59778398 4.9140849
9.9271002 -0.59832001 5.2547312
7.2448969 -0.40288699 4.4596462
8.8086977 -0.47959399 5.5793071
6.5069041 -0.34668699 4.2268538
4.8154588 -0.24535801 3.254019
4.7372789 -0.219312 3.3182881
4.7881832 -0.199387 3.2812209
8.6970663 -0.341923 5.7688379
6.5290012 -0.24909601 4.2382822
8.6986284 -0.33187199 5.6466889
8.874836 -0.32827899 5.616724
8.7592812 -0.31380999 5.386972
7.0398569 -0.219477 3.721478
9.8466091 -0.306981 5.2052112
9.6441154 -0.28944799 4.8636699
9.8571091 -0.28438899 4.723228
10.383639 -0.28751799 4.7086511
10.405312 -0.27601501 4.4466901
9.6349678 -0.24439 3.861912
9.6201572 -0.232841 3.599088
10.130407 -0.233409 3.5197871
11.07668 -0.25521201 3.848568
12.410764 0.42031699 3.6528621
4.6256809 0.167417 1.607808
9.883853 0.35772601 3.4354589
4.4468451 0.166113 1.664324
4.389245 0.169071 1.760047
9.0546303 0.35930401 3.8711619
9.7018976 0.39626801 4.401484
9.4530239 0.40810099 4.7695928
8.8974781 0.394465 4.7058058
8.4089088 0.38259801 4.644659
8.5282354 0.39794701 4.9005289
8.5841446 0.41055599 5.113111
8.3838634 0.449772 5.6661448
8.6936378 0.54743499 5.9641619
8.3442621 0.54489797 5.5423279
8.2375164 0.55713499 5.221714
8.0634232 0.55477601 4.967555
8.4641209 0.59221703 5.0481749
8.3896923 0.59679598 4.827847
8.3887062 0.60652602 4.6407952
9.498807 0.708974 4.8015518
4.3796139 0.331999 2.103724
4.217258 0.324615 1.917315
4.1815562 0.32675701 1.791797
4.5536408 0.36115 1.830345
4.1704588 0.335632 1.564836
4.3975658 0.36419299 1.4151779
7.9495931 0.65836102 2.558254
4.7914138 0.40241 1.414412
4.3483849 0.37029299 1.169083
16.186371 1.435187 3.111052
11.7827 1.086113 1.423751
13.580605 1.714691 0.51206702
11.955711 1.551865 1.18393
9.7537336 1.27756 1.183632
9.2423372 1.221505 1.33636
9.2986183 1.2399271 1.567613
9.4935093 1.277131 1.833913
11.069395 1.515318 2.7032089
4.1346121 0.57084501 1.118107
4.3490028 0.60558999 1.291652
4.1707749 0.58571398 1.350741
4.2275658 0.59869403 1.483121
3.9258809 0.560619 1.483214
4.3531761 0.62680101 1.762278
3.7412651 0.543127 1.615014
4.2175889 0.61727601 1.932178
4.0614109 0.59924102 1.966356
4.0002241 0.59495801 2.038645
3.7808881 0.56682199 2.0200441
3.778044 0.57088602 2.10831
4.2158122 0.64204198 2.4477749
7.0049181 1.066806 4.0671802
3.848002 0.59060401 2.3162391
4.0943651 0.63328201 2.54635
5.1013279 0.78903002 3.172596
3.92485 0.61172801 2.512238
4.1315298 0.64886099 2.7128711
3.9274571 0.62615699 2.6839931
4.1210032 0.67666203 2.9221351
4.959434 0.814331 3.5166521
4.0329819 0.68146002 2.8004501
3.9722469 0.68069202 2.6711681
4.9359379 0.84583199 3.3192091
3.8699369 0.66778499 2.5474319
4.1750612 0.72542799 2.6800771
3.923295 0.68638098 2.4479101
3.9559131 0.69682097 2.389868
4.9461608 0.87124997 2.988102
3.972604 0.70451599 2.3158531
3.8984959 0.69604802 2.1851251
3.9760449 0.71465701 2.134501
4.033206 0.72977197 2.066103
5.561255 1.006258 2.848882
3.974159 0.72385299 1.934822
3.9839029 0.73040599 1.835982
3.599241 0.66420799 1.56355
4.0740471 0.75672001 1.660365
4.0657411 0.76006001 1.54697
4.3205242 0.81288803 1.52709
7.1686902 1.348758 2.5337739
4.4431791 0.84130597 1.450298
7.7374368 1.465067 2.5255771
4.5395298 0.86500901 1.359382
6.8617859 1.324042 1.690828
6.7900658 1.31838 1.496933
9.1331472 1.795346 1.555416
9.1338959 1.8065079 1.334657
8.686038 1.738907 0.86991602
8.8996172 1.803177 0.51419699
9.8120232 2.0117829 0.19304401
8.3208513 1.7161109 0.020364
8.3788624 1.738217 -0.112405
8.2276058 1.716815 -0.231327
8.1349888 1.707345 -0.335693
8.5859776 1.812405 -0.45556399
8.2187786 1.744874 -0.51942801
8.216855 1.76441 -0.64667797
8.0503731 1.807061 -0.57919699
8.1992435 1.860495 -0.43648499
6.3563781 1.4500901 -0.2633
6.3272591 1.451175 -0.17866801
5.9795752 1.37875 -0.080606997
6.1138792 1.417194 0.015043
6.2620382 1.459208 0.123924
5.902967 1.382762 0.22679999
8.6103373 2.0275049 0.500911
8.7409201 2.06898 0.691176
9.2200346 2.193691 0.93070602
5.891181 1.408895 0.72883898
5.7978892 1.393711 0.85477102
7.0693049 1.699337 1.042213
5.7294121 1.384286 0.98497099
7.3161211 1.767652 1.257749
5.8907032 1.430495 1.160557
6.5320749 1.5862449 1.286917
6.709177 1.637513 1.494606
4.5272799 1.110546 1.127846
3.6895549 0.90955198 1.017966
4.031167 0.99873197 1.221666
4.2329178 1.053939 1.398993
3.739758 0.93576097 1.339074
3.782397 0.951096 1.458692
3.7006631 0.93511897 1.52944
3.6392419 0.92409301 1.604014
3.7065799 0.94577301 1.734006
3.643893 0.93428999 1.801773
3.7459869 0.96510202 1.9499691
3.7567699 0.97253197 2.05041
3.507225 0.91228199 1.999609
3.7457271 0.97896302 2.2222631
3.826911 1.004934 2.3540759
3.7497771 0.98933297 2.3835051
3.7236199 0.98705697 2.436337
3.9837451 1.060968 2.674232
3.730247 1.0027339 2.606796
3.697608 1.012405 2.682493
3.920023 1.092898 2.7863259
3.61799 1.017756 2.4910641
3.860707 1.09087 2.602397
3.701798 1.050611 2.4336641
3.8647029 1.101701 2.469902
3.8756881 1.1096981 2.39856
3.912447 1.125138 2.336762
3.928272 1.134634 2.2561431
3.8619721 1.120342 2.1246901
3.482415 1.014624 1.828434
3.60431 1.054679 1.798749
3.6159599 1.062646 1.708408
3.706121 1.093824 1.650763
3.8589661 1.143806 1.612756
3.6051919 1.07314 1.406846
3.698082 1.105471 1.3407151
3.936275 1.181653 1.318064
3.898217 1.175163 1.197678
3.726686 1.128179 1.043066
4.4980969 1.3674099 1.137488
5.2516408 1.603147 1.188324
5.558145 1.703777 1.1129839
8.8347673 2.7194049 1.544703
4.6624932 1.441076 0.69953901
5.7283411 1.770507 0.85945302
4.1788168 1.296905 0.52647001
4.0789809 1.271113 0.41956499
5.0004401 1.564633 0.40316701
4.5053148 1.41546 0.267416
4.7955389 1.51276 0.188109
4.35112 1.37813 0.087966003
4.8277512 1.535261 0.012143
4.7312622 1.510626 -0.065238997
5.047009 1.617906 -0.145872
4.9316449 1.587239 -0.20922799
4.7057681 1.520571 -0.25673801
4.5456572 1.474672 -0.295441
5.9201422 1.935775 -0.479274
4.6581769 1.547129 -0.42790699
5.9014301 1.960052 -0.54211301
4.7705479 1.60909 -0.35342899
6.0806289 2.050976 -0.45048699
4.8562541 1.650573 -0.26627699
4.6819658 1.597399 -0.19978499
4.446672 1.522886 -0.129365
4.524683 1.555481 -0.062849
4.4920568 1.550097 0.01139
4.4535308 1.542598 0.090838
4.094553 1.423582 0.162166
4.4455309 1.5513951 0.26662499
4.3803239 1.534353 0.35713401
3.657855 1.2860529 0.38076499
4.3039498 1.518827 0.54916799
5.8812041 2.0831161 0.89435899
4.5482049 1.616913 0.80663401
4.5151191 1.611056 0.91780299
4.1967912 1.502974 0.964746
4.4535069 1.600745 1.145013
6.5069308 2.3388169 1.672956
3.8562219 1.391072 1.098182
3.9266429 1.421628 1.228438
3.88151 1.410393 1.324477
3.8409469 1.400703 1.420121
3.8235121 1.399375 1.522799
3.548075 1.303246 1.514563
3.8293011 1.41159 1.743477
4.0156631 1.485585 1.940848
4.065134 1.5092601 2.076942
3.825701 1.425421 2.058001
3.81371 1.425997 2.151319
3.9331391 1.475866 2.317982
4.11097 1.548041 2.5214529
4.3266468 1.6350009 2.7518761
4.182941 1.586247 2.7495129
4.1050849 1.562175 2.777894
3.8082321 1.454278 2.6443009
5.2323022 1.998099 3.6331241
4.0014148 1.538704 2.893208
3.903132 1.521763 2.9313071
3.8759489 1.5319411 2.853555
3.732172 1.485148 2.662328
3.6019681 1.438181 2.5158679
3.8858249 1.5567501 2.6474719
3.786401 1.522028 2.508126
3.8264589 1.543292 2.4548049
3.9666829 1.605203 2.456238
3.4907589 1.417334 2.07884
3.5185089 1.4333611 2.007431
3.460073 1.414247 1.88425
3.8434529 1.576156 1.989682
3.7616539 1.547714 1.8438261
3.6466031 1.505335 1.685334
3.6071091 1.493935 1.5644031
3.550559 1.4753439 1.438024
3.8006201 1.584433 1.430293
3.6017849 1.506451 1.2521
4.018868 1.68638 1.282057
4.151319 1.747636 1.2066031
4.0390258 1.705884 1.060824
4.2917261 1.818485 1.008743
4.3332238 1.842012 0.90144402
4.291368 1.830104 0.77960402
3.793246 1.62288 0.59141499
3.4222319 1.468855 0.44810301
3.4149921 1.470445 0.36512801
3.9678631 1.7139651 0.33258399
3.719306 1.61173 0.229537
3.4944229 1.519099 0.14253999
3.4843681 1.519545 0.073264003
3.948647 1.727477 0.010331
4.1211929 1.808666 -0.059117999
4.1837559 1.841925 -0.125816
3.5107319 1.5504889 -0.154994
4.0256858 1.783502 -0.228586
3.8599141 1.7154289 -0.26113299
4.2733111 1.911044 -0.360203
3.510308 1.589437 -0.335933
3.8947501 1.7853529 -0.30076799
3.7480121 1.728636 -0.214276
3.317241 1.5346299 -0.14760999
4.0708289 1.883257 -0.181142
3.3105559 1.5362051 -0.100449
4.0530901 1.886493 -0.058724001
3.239357 1.5123219 0.0085690003
3.4217179 1.6023051 0.07282
3.4714661 1.630517 0.143475
4.26652 2.0039461 0.17633399
3.4366391 1.61903 0.21512
3.5761571 1.68984 0.304351
3.9435129 1.869029 0.42855701
3.8297181 1.8205431 0.51022297
3.720593 1.773973 0.59084803
3.9276171 1.87828 0.72751999
4.8111968 2.3008289 0.89118701
3.900017 1.870646 0.82810998
3.25262 1.564775 0.78114599
3.275676 1.580551 0.87998301
3.3075049 1.600603 0.98432702
3.7879951 1.8385561 1.238598
3.6241691 1.764248 1.292717
3.3360319 1.628776 1.289528
3.273093 1.602754 1.363057
3.3044529 1.622874 1.475136
3.392226 1.670871 1.615407
3.5064361 1.732187 1.772814
3.5040791 1.736092 1.873049
3.469013 1.723737 1.95267
3.416245 1.702464 2.0167739
3.33794 1.668287 2.0590329
3.4727149 1.740688 2.2297311
3.5143819 1.766687 2.340271
3.2689061 1.648042 2.2499821
3.2537479 1.645139 2.3059139
3.643985 1.84777 2.6502869
3.6005061 1.836243 2.7276261
3.4318321 1.770359 2.7019861
3.5867331 1.8714091 2.769943
3.566484 1.871398 2.6695099
3.600086 1.894362 2.638859
3.288882 1.735484 2.3518829
3.3358879 1.7652479 2.319623
3.2969129 1.749525 2.220624
3.4009089 1.809774 2.2113111
3.360172 1.79311 2.101547
3.1634779 1.692868 1.895777
3.3046861 1.773376 1.890552
3.256206 1.752232 1.771103
3.1845241 1.718428 1.640287
3.426007 1.853881 1.66412
3.1191101 1.6924959 1.421948
3.262109 1.774995 1.38898
3.3683259 1.837868 1.33284
3.3899059 1.8547519 1.239274
3.699914 2.029954 1.24142
3.1880701 1.753955 0.97475302
3.099489 1.709911 0.85646701
3.597121 1.9898911 0.88965601
3.570334 1.980496 0.78166503
3.50385 1.948939 0.66999799
3.1009841 1.72957 0.50897503
3.1506889 1.762096 0.434365
3.137073 1.7592649 0.353205
3.7118051 2.0872409 0.327674
3.1699729 1.787408 0.206075
3.5535059 2.009105 0.15270799
3.177254 1.801253 0.070391998
3.0748971 1.747944 0.0084779998
2.943172 1.677588 -0.044500001
3.0679381 1.753431 -0.097257003
3.153857 1.8073961 -0.14680199
8.3467102 4.7832899 -0.38851401
3.1093869 1.786709 -0.186176
3.412575 1.966206 -0.243486
2.907495 1.684199 -0.25854799
2.9152751 1.706844 -0.29450601
2.6235809 1.552469 -0.214004
2.6271751 1.562847 -0.15869799
3.355849 1.996318 -0.20271499
3.4737329 2.071908 -0.16334701
2.895463 1.731559 -0.092854999
3.201304 1.9195139 -0.049031001
3.113637 1.871865 0.0087080002
3.0834889 1.858624 0.069389999
3.0335641 1.833334 0.132596
3.5538371 2.1533971 0.235304
2.6407299 1.6043119 0.237757
3.47155 2.1090569 0.31255999
2.6883931 1.637544 0.30912799
2.8122649 1.7174751 0.39649501
3.105809 1.901704 0.52202898
3.0554581 1.875754 0.59912503
3.0956011 1.9053479 0.695921
3.040041 1.876027 0.77310902
3.426856 2.120229 0.974989
3.304723 2.0499251 1.041772
3.4077201 2.1193011 1.180464
3.1827979 1.984558 1.202932
3.127897 1.955376 1.281325
3.025341 1.896156 1.3353831
3.1014071 1.94886 1.467698
3.1729569 1.998966 1.6020499
3.1780009 2.0073061 1.703867
3.271081 2.071425 1.8544739
3.1368239 1.991516 1.872997
3.396024 2.161618 2.1270261
3.0216839 1.928288 1.977869
3.091717 1.978038 2.1067691
3.0989399 1.987744 2.1904571
3.286936 2.113724 2.4018309
3.342092 2.154686 2.5149109
3.191056 2.0625701 2.4647119
3.054935 1.9846669 2.458555
3.163312 2.076057 2.647522
3.0637901 2.0311821 2.5168459
3.0534749 2.03458 2.4319501
3.3541639 2.2405651 2.6165459
3.051214 2.0433271 2.322484
3.0966971 2.0790081 2.2923951
3.154104 2.122869 2.2620399
3.1151309 2.1019011 2.1570489
3.0169239 2.0407491 2.0097549
3.0441949 2.0643549 1.943428
3.142204 2.136158 1.915309
3.2351849 2.20487 1.875209
3.064518 2.0937741 1.682398
3.128864 2.14308 1.620121
3.320312 2.279882 1.6138721
3.0112281 2.072803 1.3672611
2.9505479 2.0360961 1.245231
3.3853559 2.3419571 1.320202
3.415833 2.3689129 1.2227941
3.154166 2.192883 1.029093
3.1210029 2.17521 0.92043102
3.0773699 2.150116 0.812451
2.938693 2.058316 0.68689501
2.803443 1.968443 0.57242399
2.8039751 1.973684 0.49152201
2.756505 1.945071 0.40593299
2.569083 1.817294 0.30903
2.530236 1.79423 0.23867799
2.5112209 1.78514 0.17447101
2.4837389 1.769951 0.114092
2.3397679 1.671463 0.05542
2.3528869 1.684967 0.006937
2.4457681 1.755784 -0.039547998
2.8056879 2.0191159 -0.095138997
2.56145 1.8478709 -0.127554
2.7408259 1.982121 -0.17560001
2.944659 2.134752 -0.224851
2.801234 2.0407219 -0.26668099
3.404031 2.4798639 -0.32406801
2.737226 2.0136421 -0.29624301
3.6512401 2.6860371 -0.39516401
2.7827101 2.0671079 -0.24334501
2.9154351 2.176239 -0.18887199
3.180856 2.3801241 -0.16044199
3.258642 2.4442389 -0.112114
3.919167 2.9396851 -0.13484
6.5660639 4.9250669 -0.225907
2.5302739 1.902509 -0.041584
3.173631 2.3862491 -0.052157
3.9584479 2.976351 -0.065054998
2.4651861 1.858057 0.0073990002
2.622117 1.981126 0.063340001
3.648787 2.7568209 0.088140003
2.3906369 1.8106 0.112185
2.3187881 1.760426 0.16486
2.445318 1.8609771 0.236453
2.502737 1.909271 0.30912799
3.0608151 2.3406439 0.463633
2.8313661 2.1704061 0.51138699
4.8236928 3.6976399 0.87123102
2.6896279 2.066721 0.56682003
2.560729 1.97241 0.61882597
3.0859399 2.3826809 0.84375602
3.0906751 2.3920741 0.94559401
2.8909891 2.242847 0.980187
3.020905 2.3492589 1.125716
2.9957509 2.33529 1.218202
3.001924 2.3457091 1.323324
4.0120082 3.142498 1.906038
5.8650079 4.5939031 2.7863679
3.280355 2.575572 1.671152
3.1217971 2.4569421 1.69712
3.0204289 2.3828449 1.743914
2.949228 2.3322401 1.800909
2.9383609 2.329195 1.890102
3.2224059 2.5604501 2.1746769
3.0072711 2.395216 2.1213541
2.865612 2.2878289 2.1047781
2.9308579 2.345504 2.233407
3.6092229 2.8883851 2.7503419
2.8336639 2.2731221 2.232703
2.818316 2.266191 2.2872059
2.8302791 2.2812321 2.358048
2.7956369 2.2640359 2.427788
3.0117819 2.4623389 2.7220509
2.9324009 2.420249 2.6032829
3.1240661 2.590663 2.6899509
2.7910049 2.319942 2.354238
2.9556789 2.46263 2.43313
2.824858 2.359199 2.2620261
2.9456151 2.4658599 2.2855611
3.1385031 2.633534 2.351696
2.941561 2.4741111 2.1208711
3.0061171 2.5343709 2.0775061
3.3174541 2.8034539 2.1894391
3.290195 2.7869711 2.0652781
2.8056519 2.3821361 1.6683609
3.073693 2.61587 1.724227
2.8813291 2.4579301 1.517538
2.709403 2.3167069 1.333281
2.8338301 2.428808 1.296418
2.73892 2.352982 1.15804
2.8904281 2.4889779 1.1220469
3.2992971 2.8477449 1.1675299
4.6813169 4.0406179 1.656589
2.629247 2.2747309 0.84118098
2.660444 2.307127 0.76210898
2.67523 2.325402 0.67862099
2.7351651 2.3830791 0.60621202
2.880187 2.5153201 0.54813701
2.435385 2.131861 0.389447
2.4895949 2.1844239 0.32525301
2.3411691 2.059006 0.239905
2.474498 2.1813719 0.18679599
2.670392 2.3595741 0.133306
2.806735 2.485863 0.072261997
2.7699599 2.4590361 0.0088780001
2.469569 2.197494 -0.043423001
2.3909459 2.1325171 -0.088178001
2.4194579 2.1629951 -0.131065
3.095834 2.7676749 -0.167705
2.6663029 2.3892491 -0.185865
3.0934479 2.7784989 -0.257061
2.554508 2.305166 -0.264763
2.7515521 2.506268 -0.324469
2.56581 2.3589809 -0.24467599
2.2990789 2.1236269 -0.16248301
2.3271599 2.1545761 -0.128079
2.4370461 2.2615719 -0.091507003
2.6459861 2.461199 -0.047467999
2.549727 2.377188 0.0083560003
2.7188921 2.5408199 0.071722001
2.337486 2.189481 0.119811
2.215651 2.080194 0.172096
2.5580449 2.4072559 0.27028701
2.5034759 2.361388 0.33795899
3.1520081 2.9800329 0.52192998
2.8884051 2.7371781 0.57041502
2.5308731 2.4039471 0.58330202
2.554404 2.4319451 0.675237
2.408325 2.2982111 0.72043997
2.4014521 2.296983 0.80402499
2.8016281 2.68593 1.0397021
2.780808 2.6721711 1.134464
7.8976331 7.5890989 3.221935
2.57669 2.4817941 1.147351
2.7530899 2.6578641 1.329231
3.3540361 3.2455549 1.7455961
2.723264 2.64132 1.520142
2.711983 2.6364951 1.6158
2.7397311 2.669663 1.734006
3.3966141 3.309746 2.149754
3.199563 3.1249931 2.14217
3.0322299 2.9684441 2.139025
3.0639541 3.006474 2.2681119
2.932025 2.8837171 2.269187
2.7533801 2.714309 2.2192769
2.7447801 2.7121291 2.2957871
2.95578 2.927408 2.5568221
2.765079 2.7449031 2.4641321
2.8593609 2.8451021 2.6165459
2.886569 2.8855419 2.754477
2.6894691 2.7136109 2.6733201
2.6864841 2.7358971 2.6253159
2.793083 2.8577061 2.6485169
2.6392031 2.706543 2.4521959
2.892472 2.973171 2.6234181
5.268095 5.415072 4.7780638
2.708724 2.7907791 2.390312
2.650202 2.7368331 2.2666421
2.667695 2.7613039 2.2038441
2.745204 2.84815 2.1827099
2.9711001 3.0896871 2.2648411
2.9624059 3.087821 2.1570301
2.83934 2.9664299 1.9667881
2.6921899 2.8192379 1.7670341
2.689538 2.8230219 1.665692
2.595783 2.7309549 1.509727
2.6456621 2.7899079 1.438024
2.4994421 2.6418591 1.263278
2.3157771 2.4534271 1.081998
2.373647 2.520592 1.018478
4.0909071 4.344162 1.7553149
2.3029959 2.4512689 0.90100598
2.3603351 2.518151 0.83506697
2.4940519 2.667006 0.79024202
2.5962861 2.7828059 0.72863901
2.5536399 2.7434731 0.62632
2.3110991 2.488688 0.486839
2.3670559 2.5548949 0.41907299
2.25085 2.4351299 0.32564399
2.2852981 2.478163 0.25939199
2.2652221 2.4621291 0.18945301
2.323868 2.531764 0.12855899
2.243789 2.450232 0.064033002
2.383672 2.6090591 0.008471
2.676147 2.9360249 -0.052182999
2.4614501 2.7067921 -0.100697
2.3753271 2.6181829 -0.142767
2.374378 2.6232491 -0.183688
2.3914011 2.6482379 -0.22059301
2.2761171 2.5323651 -0.26200101
2.582427 2.9001501 -0.338539
2.262183 2.564388 -0.240054
2.416868 2.7526 -0.19016799
2.3668909 2.7020011 -0.14506701
2.158236 2.4695809 -0.090268999
2.178993 2.4991889 -0.043554001
2.271435 2.6113279 0.0082959998
2.369555 2.7305329 0.069678999
2.3717101 2.7394331 0.13554899
2.268501 2.6263771 0.19652
2.898931 3.356262 0.25113401
2.319664 2.6919301 0.27343199
2.3356199 2.7168159 0.35183701
2.2202511 2.588691 0.410353
2.805208 3.2707191 0.518466
2.479003 2.8971889 0.54657698
2.3149691 2.7118499 0.595828
2.3415489 2.7494431 0.69140798
2.3858039 2.808013 0.79743302
2.498173 2.9471929 0.93477601
3.007864 3.5484951 1.125494
2.6702061 3.157505 1.107757
2.6539221 3.145648 1.21066
2.472374 2.937381 1.231333
2.387315 2.8430171 1.289528
2.4781029 2.9581001 1.443278
2.5144329 3.008563 1.571098
2.53759 3.0434439 1.692799
2.688601 3.232178 1.905755
2.8198431 3.39798 2.1149559
3.285785 3.959451 2.4644239
2.668453 3.2231569 2.1093161
2.9183021 3.5332839 2.4213431
5.6333418 6.8204718 4.6740379
2.9080861 3.5292621 2.5233049
2.8137529 3.4228661 2.5433569
2.7738719 3.3823581 2.6025741
2.7394841 3.348346 2.658927
2.76828 3.391567 2.7688069
2.7074881 3.3249691 2.781441
2.663239 3.2861791 2.854609
2.63639 3.284128 2.9467871
2.6324229 3.310565 2.895926
2.7100141 3.4326241 2.8369501
2.71297 3.444582 2.7730839
2.7265401 3.4701021 2.7123361
2.7818141 3.5489211 2.6828489
2.7294531 3.490459 2.5433569
2.483748 3.183867 2.228122
2.5647149 3.295537 2.206445
2.4938099 3.2121241 2.0498991
2.960078 3.8218451 2.315393
2.450242 3.1711769 1.816577
2.4224899 3.142803 1.695156
2.5270419 3.286325 1.661109
2.3801081 3.1026881 1.462545
2.3646519 3.0899701 1.3515429
2.7822039 3.644356 1.470454
2.3808379 3.1261311 1.155912
2.3526199 3.0965409 1.041772
2.311986 3.050401 0.92607498
2.1733561 2.874419 0.77987701
2.3852839 3.162343 0.75834799
1.9350671 2.5716619 0.53781098
1.9259779 2.5657749 0.45987901
2.167376 2.8943651 0.43508101
2.0786569 2.7826149 0.341086
2.3604701 3.167527 0.303967
2.0490429 2.7563021 0.19448499
2.0375681 2.7475209 0.12796099
2.074069 2.803545 0.067212999
2.0225 2.7404859 0.0081639998
1.853752 2.5179451 -0.041072
1.795846 2.4452381 -0.083501004
1.80994 2.470434 -0.12368
1.867396 2.555073 -0.164298
2.4678619 3.3766639 -0.21712799
2.549576 3.496995 -0.26754999
2.421695 3.3378429 -0.317316
2.010632 2.7985339 -0.300412
2.494117 3.505728 -0.302028
2.470268 3.4893379 -0.22194999
2.4559979 3.4777341 -0.171942
1.739745 2.4695871 -0.083143003
1.769002 2.5173261 -0.040415
1.7128429 2.443435 0.007152
1.816831 2.5981979 0.061104
1.875771 2.689126 0.122652
1.961059 2.818362 0.194428
2.0080111 2.893007 0.27097699
2.045141 2.953815 0.35281399
2.054332 2.9744599 0.434962
1.995906 2.8970611 0.50429201
2.056885 2.993001 0.60687101
1.916463 2.795619 0.64891201
2.020843 2.955241 0.77480102
2.2061391 3.2342651 0.94724
2.285512 3.358923 1.088349
2.331243 3.4346969 1.221101
2.327044 3.4371009 1.331196
2.5831461 3.8249259 1.603214
2.3297491 3.4583631 1.559581
2.27127 3.3800261 1.631726
2.321476 3.463418 1.78119
2.5812831 3.860707 2.105165
5.3412662 7.988688 4.35607
2.3834479 3.573797 2.057503
2.221724 3.339695 2.0219901
5.6077561 8.4721909 5.6060572
5.5536041 8.4115763 5.7856512
2.5151179 3.8287511 2.8154891
6.3611631 9.7081032 7.3405471
2.7130649 4.1510668 3.2168059
2.5915 3.98524 3.208149
2.5091441 3.8981011 3.2437589
2.545397 3.9950709 3.2433701
2.580255 4.0706172 3.1943519
2.6231949 4.1490021 3.184154
2.6688509 4.2320819 3.164351
5.3450508 8.519618 5.9838738
5.4471402 8.7047672 5.8941751
2.0824449 3.3364561 2.1701491
2.113497 3.394973 2.1130109
2.2233291 3.5806701 2.12462
2.22805 3.597584 2.0268321
2.622658 4.2568078 2.135936
2.6535239 4.318121 2.030823
2.699337 4.4041262 1.9319611
2.285135 3.738075 1.52184
1.9030499 3.1211879 1.172393
2.1404481 3.5197279 1.2117881
1.6841511 2.7766631 0.869955
1.57216 2.5988221 0.734887
2.1547401 3.561842 1.007207
1.614749 2.6762309 0.67644399
1.766902 2.936115 0.656057
2.446012 4.0646129 0.90821302
1.87705 3.1273611 0.60950798
1.653417 2.7620261 0.46144
1.602203 2.683547 0.37606701
1.694055 2.844887 0.325156
1.9907 3.3518989 0.29997799
2.0078061 3.3896689 0.223092
1.829813 3.0973661 0.134578
1.837808 3.1191721 0.069775999
1.774232 3.0192771 0.0083940001
1.896976 3.2367511 -0.049281001
1.845746 3.157747 -0.100669
1.9389009 3.325973 -0.155478
1.819567 3.1296129 -0.187939
1.8799959 3.2422149 -0.2317
1.955691 3.3908739 -0.30120501
1.721561 3.017231 -0.30284399
1.7622629 3.1221659 -0.251679
1.780424 3.17153 -0.18882
2.2810149 4.063251 -0.24191
1.704469 3.044502 -0.140911
1.973106 3.5339561 -0.111399
1.88542 3.3861451 -0.050909001
1.7622221 3.173547 0.0087010004
1.685557 3.043813 0.067059003
1.726087 3.1255579 0.133568
1.707901 3.1011281 0.200478
1.715434 3.1233921 0.27419999
1.616858 2.952024 0.330531
1.597208 2.9241979 0.400915
1.832913 3.3650219 0.54927301
1.572441 2.894819 0.550502
1.732272 3.1979079 0.69629699
1.543608 2.8575439 0.70288402
1.888991 3.50665 0.96370101
1.7544399 3.265867 0.99312502
1.762266 3.2895899 1.097778
1.984078 3.7140059 1.350436
2.806515 5.25353 1.910216
2.0883391 3.920114 1.54284
2.7287869 5.1223259 2.0159941
2.1847811 4.1126451 1.741743
2.656275 5.0001888 2.117626
2.646739 4.9962459 2.265521
2.5858231 4.8949819 2.3649681
2.5274141 4.7978902 2.458159
1.9536099 3.7190919 2.012145
2.5235879 4.8041592 2.599201
1.9142621 3.6544819 2.079607
2.406086 4.5934138 2.6139131
2.3852949 4.5666089 2.7222011
2.3733921 4.5567198 2.834914
2.370101 4.5633221 2.9515679
2.359499 4.5558472 3.052527
2.3498509 4.5501428 3.1474619
2.3510129 4.565383 3.247736
2.3518591 4.5800972 3.339797
2.294322 4.4936891 3.405057
2.353163 4.6622949 3.6542449
2.216068 4.4418378 3.39873
2.208966 4.4534702 3.2948999
2.2147641 4.4782109 3.240751
2.2102089 4.4820852 3.16061
2.208823 4.4924312 3.0767739
2.222856 4.534256 3.0044639
2.2527931 4.608849 2.9445989
2.2520039 4.6208401 2.8363631
2.215791 4.559968 2.6787541
1.801867 3.7191269 2.0832081
2.2488289 4.6416759 2.5999589
2.281549 4.7231741 2.5123739
2.2965751 4.768405 2.399121
2.3096011 4.809742 2.279326
2.2916241 4.7865348 2.1264131
2.3676281 4.9600592 2.0556209
1.74431 3.6651919 1.4099489
2.4108579 5.0657611 1.948729
1.834865 3.867029 1.3727289
1.802229 3.809659 1.239727
1.626781 3.449151 1.021589
1.950241 4.134963 1.224717
1.591107 3.3836889 0.90467501
1.635024 3.4875901 0.83360302
1.47261 3.150677 0.66583502
1.498089 3.2149119 0.59269601
1.444695 3.1097519 0.49152201
1.513815 3.268471 0.43340901
1.698871 3.6792181 0.397966
1.541384 3.348357 0.283636
1.554978 3.3882489 0.211106
1.53706 3.3594871 0.13820399
1.59452 3.4958079 0.074054003
2.2679269 4.9721789 0.105328
1.572952 3.4591529 0.0091080004
1.482934 3.27126 -0.047178999
1.610019 3.562609 -0.107602
1.480413 3.2859769 -0.14555199
1.562554 3.4790781 -0.197997
1.675099 3.741293 -0.25342
1.500108 3.371417 -0.283943
1.4759769 3.359117 -0.319866
1.819423 4.1407518 -0.39429599
1.640174 3.7803841 -0.28928301
1.541086 3.574719 -0.20209301
1.53144 3.5637169 -0.156648
1.605509 3.748065 -0.112224
1.971954 4.6035309 -0.137839
1.992306 4.6660209 -0.066644996
1.3600791 3.1955979 0.0083240001
1.412735 3.3300519 0.069718003
1.613646 3.8159461 0.15498801
1.545719 3.6671741 0.225353
1.517748 3.6125381 0.301512
1.432724 3.4212799 0.36424899
1.564168 3.747365 0.48859999
1.444898 3.4729719 0.53919798
1.556208 3.7527959 0.67889798
1.421875 3.44013 0.71265602
1.336133 3.2433569 0.759148
1.611464 3.9246311 1.02649
2.32215 5.674037 1.642357
1.667851 4.0888271 1.29899
2.2610011 5.5429678 1.760959
1.705253 4.1944551 1.452131
1.753872 4.3284392 1.622246
2.1657341 5.3448868 2.0031979
2.167192 5.366374 2.164567
2.6325259 6.56249 3.020638
2.54248 6.380878 3.2899311
2.531039 6.3953009 3.6341169
3.410104 8.6458311 5.1282568
2.4503529 6.2337089 3.844655
2.7012579 7.015183 5.0731821
2.7651639 7.385026 5.3992128
2.634552 7.0862789 5.0108562
2.8801351 7.8867049 4.8193841
2.7675309 7.6057858 4.4659071
4.040298 11.266197 5.4253731
2.27736 6.3736248 2.8913901
1.4695489 4.1584768 1.532011
1.44993 4.1181698 1.400214
1.442946 4.1135688 1.28234
1.352437 3.869941 1.098182
1.310317 3.7634349 0.96417201
1.499 4.3215108 0.98991698
2.0226901 5.8312702 1.335754
1.381963 3.9991059 0.810058
1.171572 3.4030721 0.60143203
1.203948 3.5103459 0.53196198
1.205377 3.5278699 0.44858101
1.152524 3.3860221 0.35124999
1.481863 4.3535919 0.451621
1.232042 3.6334591 0.295221
1.283155 3.798713 0.22705001
1.34332 3.9921031 0.15756799
1.797467 5.3417468 0.210838
1.199551 3.5786049 0.072742999
1.179463 3.532275 0.0089260004
1.237751 3.72121 -0.051514
1.132457 3.417912 -0.099101
1.1477261 3.47751 -0.147892
1.223238 3.7208099 -0.203337
1.364838 4.1678462 -0.27112901
1.13038 3.479162 -0.281488
1.091731 3.4140999 -0.312484
1.127593 3.5835371 -0.26372299
1.103552 3.535799 -0.192294
1.275016 4.1019068 -0.173475
1.184491 3.82634 -0.110243
1.196884 3.8823431 -0.053366002
1.130842 3.6833031 0.0092350002
1.1821899 3.8665609 0.077927001
1.35436 4.4481301 0.173941
1.353774 4.4647989 0.26419401
1.092281 3.617523 0.29077101
1.227349 4.0819712 0.41858801
1.162454 3.882477 0.487645
2.0295961 6.7786412 0.85140699
1.128755 3.785934 0.56629997
1.382166 4.6358962 0.69343698
1.160741 3.909785 0.68153501
1.286085 4.350493 0.86853701
1.365306 4.638298 1.046393
1.240026 4.230813 1.066703
1.323419 4.5362792 1.26586
1.706756 5.8502421 1.632524
1.673653 5.7616401 1.76491
1.635523 5.6549039 1.887922
1.611003 5.5944462 2.022229
1.592467 5.5543151 2.1610639
1.578956 5.5314488 2.3049469
1.55863 5.4843531 2.4356811
1.546077 5.464294 2.574173
1.546914 5.4916101 2.732682
2.2477119 8.0510445 4.4166269
2.18678 7.8680902 4.5060058
1.727512 6.2720699 3.870625
2.2712259 8.2836761 5.2791071
1.491873 5.542007 3.8732729
1.554935 6.1144781 3.9901831
1.483568 5.86236 3.716634
1.481267 5.8819671 3.608834
1.4886 5.9401908 3.515099
1.332926 5.3453221 3.0397539
1.326565 5.34624 2.910471
1.3204269 5.3480911 2.776861
1.314011 5.348772 2.6380789
1.3185591 5.3943052 2.5171981
1.327368 5.4578362 2.399539
1.353765 5.5946469 2.3064351
1.373243 5.7041001 2.194344
1.4119509 5.8949852 2.105572
0.89769399 3.7672291 1.242022
0.889606 3.752598 1.134464
1.467186 6.1889858 1.871019
1.057835 4.485456 1.23455
1.02344 4.3622689 1.084105
0.873887 3.7443621 0.83212298
1.0743639 4.6276422 0.90952897
0.83182901 3.6019371 0.61774898
0.83484399 3.6342289 0.53451598
0.81120598 3.5502341 0.438187
0.87805003 3.86342 0.38907301
0.80571097 3.564266 0.28118101
0.86375302 3.84179 0.22297899
0.91785699 4.1046882 0.157344
0.87426901 3.93121 0.077618003
0.92234099 4.170207 0.010237
1.235907 5.5879402 0.013717
0.89615798 4.0742459 -0.054797001
0.86360598 3.9481211 -0.111234
0.83464903 3.8370709 -0.158585
0.81497502 3.767674 -0.200123
0.79502898 3.6962471 -0.23373599
0.83125299 3.908776 -0.30749601
0.81504101 3.922014 -0.34922099
0.76691997 3.778466 -0.27065599
0.76369703 3.8079441 -0.201626
0.83644903 4.1959529 -0.17278901
0.76121998 3.8418291 -0.107795
0.807015 4.0979319 -0.054862998
0.83459502 4.2640791 0.010414
0.792642 4.074852 0.080008
0.74881399 3.8735249 0.147587
0.74703699 3.8885491 0.224223
0.69121999 3.6207149 0.283636
0.84564 4.4576731 0.44556201
0.69188201 3.670418 0.449417
0.85923702 4.5875192 0.66903102
0.81132299 4.3596601 0.74103498
0.76589602 4.142283 0.80648601
0.786506 4.2815819 0.942114
0.81210297 4.449986 1.094453
1.1295739 6.2301741 1.696179
1.135618 6.3051152 1.884565
1.039423 5.8096542 1.892809
1.050573 5.9114709 2.085557
1.226475 6.9953718 2.8457561
1.8836091 10.891735 5.0104508
0.99045098 5.7669959 2.8026619
0.92540902 5.4641509 2.9282229
0.90431201 5.3774638 3.0088351
0.88730597 5.3139801 3.0924511
0.87088001 5.2531161 3.1680839
0.86117899 5.232162 3.258992
0.84774899 5.1880679 3.324707
0.83501202 5.147635 3.3827889
0.81322002 5.0878558 3.4772191
0.779257 5.0247722 3.55793
0.76104599 5.0621948 3.504941
0.75987101 5.1353488 3.4407511
0.76052499 5.1812139 3.396939
0.76119798 5.2279491 3.3412769
0.76254499 5.2801561 3.2788899
0.763035 5.327167 3.2018299
0.77600503 5.4628 3.167124
0.78385103 5.5643878 3.1006269
1.472118 10.538633 5.6223941
0.70773 5.1537051 2.4916389
0.79921299 5.9739332 2.4150431
0.75598001 5.701026 2.1509049
0.86248499 6.5626221 2.299166
1.253909 9.5409489 3.3426001
1.434738 11.015642 3.5626831
0.74072099 5.7919431 1.564211
0.80907798 6.3852358 1.557255
0.71155798 5.6682601 1.236339
0.50032902 4.023375 0.77621198
0.53068697 4.308248 0.72537702
0.52375501 4.2929621 0.61993599
0.53985602 4.4680419 0.54152203
0.51774901 4.3271718 0.42796999
0.52647001 4.4436941 0.344322
0.51957601 4.4294858 0.252547
0.51732802 4.454926 0.16777299
0.50842702 4.4230471 0.085808001
0.47784501 4.199892 0.010132
0.451682 4.011302 -0.053024001
0.45365 4.0712519 -0.112747
0.49472699 4.4871292 -0.182313
0.47345799 4.340374 -0.226667
0.52159202 4.8336568 -0.30056199
0.60018998 5.5620298 -0.345853
0.57119602 5.410851 -0.41866401
0.50334698 4.989655 -0.437199
0.40796599 4.2409382 -0.29908699
0.407253 4.3390608 -0.226253
0.37892401 4.08813 -0.16580801
0.388381 4.2436509 -0.117287
0.41784999 4.6247611 -0.060997002
0.40932801 4.5897698 0.011045
0.38455701 4.3692951 0.084536001
0.428496 4.9339638 0.185268
0.418648 4.8862419 0.277706
0.38118699 4.51054 0.34831199
0.37849101 4.5413342 0.44751701
0.369656 4.498282 0.54307503
0.41642401 5.1404452 0.73926902
0.33119699 4.148098 0.69537997
0.35906401 4.563755 0.87643498
0.35755801 4.61305 1.001339
0.34567299 4.527801 1.098686
0.34689501 4.6196489 1.241019
0.33502999 4.532094 1.336805
0.32123199 4.4152341 1.419759
0.54980499 7.5568981 2.4299901
0.53617799 7.6137719 2.8546779
0.47920099 7.0379701 3.013567
0.465424 7.4759202 4.1330419
0.31798801 5.4116468 3.331775
0.307616 5.3409901 3.3835039
0.39807501 7.0544238 4.5833092
0.27055201 5.000895 3.379884
0.239972 4.85359 3.4002709
0.21559 5.0774951 3.3683779
0.217428 5.2649641 3.4181631
0.26429501 6.5852289 4.1681781
0.26302901 6.9569941 4.1421309
0.240492 6.5626469 3.769484
0.24173 6.8128028 3.7615271
0.230087 6.7042308 3.544421
0.221204 6.9139199 3.3132579
0.302185 9.8009644 4.4448342
0.290005 9.774744 4.177587
0.274483 9.6285858 3.8596799
0.157408 5.7562718 2.153708
0.27725801 10.589504 3.679584
0.249357 10.451107 3.0751879
0.100991 4.6895709 1.134901
0.095443003 4.684556 1.0140311
0.089345001 4.6506619 0.89053798
0.087808996 4.8647408 0.81306201
0.086636998 5.1298261 0.73543799
0.083132997 5.2862129 0.636136
0.072238997 4.9596138 0.48709801
0.062461998 4.6598048 0.358592
0.062109001 5.0734911 0.28731701
0.060401 5.4508519 0.203922
0.050076999 5.0488138 0.097312003
0.043777999 4.9987941 0.011982
0.040054001 5.2723932 -0.069257997
0.03115 4.8410659 -0.13324399
0.024824001 4.7070971 -0.190101
0.029931 5.6752949 -0.229202
0.018849 4.5827899 -0.237918
0.017088 5.7909188 -0.35800901
0.002995 4.7589312 -0.36618701
-0.024878001 6.193459 -0.53994203
-0.040711001 4.7002559 -0.32996899
-0.048641998 5.6159682 -0.39425501
-0.051819 4.7173619 -0.24491701
-0.056937002 4.6878328 -0.18933401
-0.069972999 5.258543 -0.14474399
-0.077062003 5.325983 -0.069968
-0.088017002 5.6312962 0.013499
-0.100192 6.4101992 0.015366
-0.086554997 5.1543159 0.099354997
-0.102267 6.0900102 0.117391
-0.092848003 5.1715488 0.19349299
-0.102502 5.3624282 0.30371299
-0.117886 5.8136158 0.44743499
-0.121887 5.685339 0.55844301
-0.131926 5.8373942 0.70255703
-0.117486 4.9440541 0.70890403
-0.141533 5.678473 0.94920403
-0.178718 6.5586739 1.419939
-0.14182299 4.9918938 1.208272
-0.26693299 9.0295391 2.419934
-0.27245799 8.8679218 2.609832
-0.31626299 9.9181194 3.182472
-0.34160501 10.336217 3.592303
-0.32671699 9.5499496 3.5738649
-0.28232101 7.980782 3.1998479
-0.27271399 7.233861 3.281399
-0.268641 5.3197269 3.5946929
-0.60665399 7.9664211 3.2013359
-0.69697702 8.6233349 2.544925
-0.801368 9.7734385 2.6269431
-0.55871397 6.7182932 1.631097
-0.52030802 6.1697612 1.3399841
-0.52947801 6.1925278 1.189891
-0.51458102 5.937108 0.99584901
-0.491824 5.598989 0.80567598
-0.55712599 6.2589302 0.75607598
-0.53293401 5.9094758 0.58267999
-0.52691299 5.7678609 0.44567001
-0.53065902 5.7352748 0.32615799
-0.59485197 6.3487329 0.238539
-0.47968999 5.056354 0.097889997
-0.61540902 6.3306088 -0.083549
-0.72096097 7.4163971 -0.097878002
-0.62033403 6.3051581 -0.174376
-0.67380297 6.7679968 -0.27467999
-0.67418998 6.6930709 -0.34922999
-0.73653001 7.2276988 -0.44914699
-0.69659102 6.6819291 -0.51694298
-0.64922601 5.959003 -0.52257198
-0.84811699 7.4624772 -0.527237
-0.77332801 6.5994282 -0.26834401
-0.76993102 6.5051141 -0.180291
-0.82542902 6.905241 -0.091351002
-0.82476401 6.8323798 0.016495001
-0.85263503 6.9949179 0.135813
-0.69235098 5.6255908 0.212034
-0.72324002 5.8208442 0.33215001
-0.80161202 6.390883 0.49561501
-0.78741002 6.2191958 0.61561602
-0.88296801 6.9095678 0.83814698
-0.85137302 6.6012912 0.95409697
-0.84499902 6.4924579 1.094082
-0.82911402 6.3131461 1.219036
-0.85612601 6.460649 1.410421
-1.376097 10.292794 2.512491
-0.97125101 7.2015772 1.94666
-1.06889 7.8566852 2.3324251
-1.029361 7.5008578 2.428158
-1.0509011 7.59238 2.6623991
-1.3546669 9.7040272 3.6645961
-1.590281 11.295926 4.5708399
-1.461288 10.20796 4.6743841
-1.01849 7.0562758 3.414772
-1.257231 8.5695705 4.5763998
-1.466663 9.6836214 6.0195012
-1.2684489 7.8797712 5.5845618
-1.322341 7.978219 5.5370612
-1.666624 9.6386137 5.8197432
-1.3778729 7.404048 2.4153309
-1.779566 9.5012341 2.843498
-1.983461 10.1967 1.489038
-1.290882 6.5549641 0.65607798
-1.45495 7.3431182 0.57601798
-1.389925 6.9724221 0.40259501
-1.513052 7.5443902 0.287846
-1.364212 6.7614679 0.13294201
-1.421243 7.0022001 0.017126
-1.411247 6.9117889 -0.092664003
-1.473568 7.1744609 -0.20158599
-1.516685 7.2560301 -0.45827901
-1.275745 6.0333681 -0.47451699
-1.193996 5.5199208 -0.492349
-1.477165 6.678762 -0.480178
-1.6131361 7.1749001 -0.29699501
-1.849466 8.0084677 0.30747199
-1.811703 7.8036218 0.45364699
-1.9112231 8.1890717 0.647062
-1.878085 8.0050888 0.80746502
-2.0667851 8.7636414 1.083403
-2.2807441 9.3783388 2.585542
-2.183265 8.3821459 5.3236141
-2.370327 8.4161816 5.3738818
-1.762126 5.448195 -0.440606
-1.64317 5.0010052 -0.45891199
-1.9849809 5.9480982 -0.440193
-2.3721981 -7.6916919 2.1562569
-2.366919 -7.7061481 2.3713689
-1.869475 -7.555222 1.300603
-1.853029 -7.5260081 1.111032
-1.820069 -7.4663968 0.75468898
-1.8206739 -7.5065241 0.59435499
-1.805312 -7.4809232 0.435781
-1.797596 -7.486836 0.28803301
-1.788002 -7.4849758 0.14831901
-1.785004 -7.5107799 0.018503999
-1.775725 -7.510263 -0.101372
-1.769274 -7.521791 -0.21267299
-1.765286 -7.5438972 -0.312893
-1.7563241 -7.5448418 -0.40216401
-1.745496 -7.5377679 -0.478333
-1.6599931 -7.5649529 -0.54369301
-1.6398931 -7.5566959 -0.401438
-1.638991 -7.5948291 -0.31378099
-1.630725 -7.5990529 -0.213911
-1.623876 -7.6100001 -0.102213
-1.617923 -7.6252208 0.018684
-1.609434 -7.6286268 0.15026499
-1.59919 -7.6236281 0.29139799
-1.594052 -7.6430321 0.44211301
-1.587328 -7.6550498 0.60156602
-1.578593 -7.6573682 0.76778603
-1.573583 -7.677875 0.94303501
-1.5675581 -7.6936741 1.125505
-3.5253999 -23.479706 9.5136261
-3.426348 -23.371124 7.57551
-1.041518 -7.4641838 1.259398
-1.038256 -7.5040798 1.085917
-1.029959 -7.5080218 0.91185498
-1.024807 -7.5350499 0.746773
-1.0130579 -7.5136008 0.58338398
-1.0029531 -7.5041442 0.42871401
-0.99400598 -7.50315 0.28313601
-0.98505902 -7.5022011 0.145833
-0.97890002 -7.5225539 0.018183
-0.971798 -7.535944 -0.099808998
