# .PCD v0.7 - Point Cloud Data file format
VERSION 0.7
FIELDS x y z
SIZE 4 4 4
TYPE F F F
COUNT 1 1 1
WIDTH 1552
HEIGHT 1
VIEWPOINT 0 0 0 1 0 0 0
POINTS 1552
DATA ascii
3.1812849 4.7569442 2.4447169
2.5014229 3.7497561 2.043237
3.133729 4.6976128 2.5597229
3.01473 4.5306158 2.606545
2.977725 4.4862752 2.714293
2.9818039 4.503747 2.8539431
2.9828091 4.5166502 2.9866121
2.9637361 4.4991069 3.0924511
2.9660611 4.5140381 3.2135899
5.597167 8.5398722 6.2755499
3.6733861 5.618866 4.2456832
3.348026 5.1341982 3.975975
3.6124401 5.5396771 4.2899818
3.0777781 4.743783 3.816215
3.8024039 5.9206591 4.923542
2.744916 4.3179979 3.5032461
2.7690001 4.3782949 3.433569
2.774714 4.3986139 3.373538
2.773895 4.4086351 3.294239
2.7837951 4.4357901 3.2186739
2.792434 4.4610362 3.131269
2.7788441 4.4507942 3.0118041
2.8140271 4.5188179 2.9373341
2.8238101 4.5462689 2.827781
2.78637 4.4976349 2.6670289
2.82601 4.5734568 2.5750101
2.832324 4.5955849 2.4470119
2.8947721 4.7091451 2.3614321
2.9228029 4.767128 2.2406011
2.262434 3.6996779 1.621937
2.947516 4.8199692 2.1130719
2.9955771 4.911366 1.998276
3.0436051 5.0031509 1.87815
2.3165531 3.81797 1.313664
2.5050311 4.1394372 1.2961349
3.0871539 5.101366 1.597333
2.2706959 3.7620521 1.063176
2.1897409 3.6374569 0.91884601
2.0000601 3.3311191 0.74387002
1.995533 3.3323281 0.64906502
2.2292941 3.732497 0.6232
2.051734 3.4442899 0.48238799
1.9453779 3.2743771 0.37402201
2.108325 3.558032 0.31823701
2.0008719 3.3856521 0.22269601
2.024117 3.4340701 0.149119
1.9887379 3.3830199 0.075634003
3.0811501 5.2413111 0.117179
1.9624161 3.3471241 0.0093
1.908401 3.263664 -0.049662001
2.00477 3.437624 -0.109528
2.198344 3.779614 -0.17658301
2.0760391 3.5788791 -0.21479499
1.979753 3.4220409 -0.24441101
1.948867 3.38675 -0.300668
1.9394 3.406781 -0.34175199
1.9413 3.447227 -0.277729
2.160418 3.8572321 -0.22951899
1.826241 3.2694759 -0.151241
1.7799489 3.195298 -0.100669
1.83357 3.300566 -0.049596
1.899193 3.4280519 0.009393
1.954336 3.5372679 0.077887997
1.951161 3.5412159 0.15125
1.892411 3.444032 0.222527
1.763682 3.2186069 0.28240901
1.9915 3.644383 0.407837
2.1545129 3.9535799 0.54176098
1.9502 3.5885711 0.58545601
2.0452521 3.773901 0.71730101
1.816522 3.3611481 0.73145902
1.894201 3.5146301 0.86406201
2.2587969 4.2027888 1.1544189
2.8781371 5.3551521 1.47095
2.205333 4.1146579 1.2505929
2.1973021 4.1111379 1.3712341
2.337018 4.3848081 1.593526
2.7548909 5.1833391 2.0389631
2.7453229 5.1798482 2.1925919
2.7009089 5.1104078 2.3161061
3.370172 6.3767262 2.890018
2.8687899 5.443357 2.628572
3.3306761 6.3555422 3.4368031
4.5175128 8.6202431 4.6614552
4.4157519 8.4499302 4.8060532
3.126955 6.0006771 3.575254
4.4409871 8.5223246 5.077673
3.5905161 6.9890809 4.9694209
3.490001 6.8521042 5.189537
3.2314179 6.4180398 5.0278831
3.3656859 6.762804 5.1721039
3.4366829 6.9662528 5.0388098
3.636575 7.480711 4.5895839
4.1390481 8.5395536 5.0141382
2.994077 6.195641 3.468713
4.1690168 8.6269436 4.8299098
3.0527389 6.3358078 3.368551
3.0841391 6.4200411 3.2285531
3.1266761 6.5280342 3.0921371
2.9875391 6.2749209 2.5993021
1.983678 4.1789651 1.606824
1.995134 4.215735 1.495801
2.003083 4.2452822 1.380829
1.9649889 4.1771321 1.2366199
1.860495 3.96696 1.060119
1.8803051 4.0213451 0.96072698
1.699737 3.646219 0.77019501
1.8993061 4.0867209 0.75306702
1.848125 3.9887121 0.63015199
1.697857 3.6756001 0.487167
1.658087 3.600487 0.38926801
1.827108 3.9796741 0.33695701
1.7626131 3.8510051 0.23982701
1.590057 3.4846921 0.143288
2.020654 4.4283681 0.182091
1.7375081 3.8195989 0.080875002
1.709432 3.769491 0.0099210003
1.713971 3.7912049 -0.054653
2.34461 5.1861429 -0.074762002
1.6852371 3.7392299 -0.112885
1.692853 3.767808 -0.16681699
1.705132 3.806962 -0.21655799
1.825081 4.0875068 -0.27674401
1.605827 3.619025 -0.304658
2.005363 4.5194521 -0.380458
1.532482 3.497509 -0.33289301
1.963879 4.4820681 -0.426604
1.548323 3.5788331 -0.27373701
1.679752 3.907526 -0.220809
1.646585 3.84267 -0.168835
2.159559 5.0560269 -0.15132
1.561676 3.668051 -0.052367002
1.568872 3.6968639 0.0096260002
1.645692 3.8904619 0.081414998
1.633728 3.8747189 0.157306
1.468773 3.4948299 0.21466801
1.674606 3.9976089 0.333505
1.480136 3.5449231 0.37724701
1.5186549 3.649092 0.47557899
1.622543 3.9115419 0.60702401
1.6306469 3.94402 0.71318102
1.569059 3.8075809 0.78843403
1.759377 4.2835569 1.0021859
1.537729 3.7563219 0.98204398
2.3747151 5.8008909 1.516572
1.527931 3.7446721 1.083433
2.332221 5.7158341 1.653743
1.5247591 3.749332 1.190623
2.2992451 5.6537681 1.795388
2.250602 5.5526419 1.921515
2.2351069 5.5328522 2.0727601
2.215404 5.50246 2.2185149
2.195122 5.470428 2.361855
2.1919301 5.4808722 2.5217161
3.8531129 9.6671553 4.7173209
2.4821081 6.2910461 3.573385
3.041548 7.7089782 4.378787
2.3087599 5.8716669 3.4813211
2.999742 7.6550598 4.7193232
3.0158579 7.7225962 4.9326181
2.120244 5.4855518 3.814889
2.0782001 5.607934 3.9639349
2.7871399 7.6021538 4.9764562
3.016964 8.258667 5.2312241
2.1290181 5.84905 3.5728459
2.1451571 5.9147692 3.471658
1.927039 5.3326631 2.9959631
1.905764 5.2930279 2.8358281
1.897891 5.290422 2.692076
1.904308 5.3277559 2.564677
1.910605 5.3650422 2.4329319
1.929124 5.4370041 2.3116419
1.951719 5.5210128 2.19014
1.987336 5.6426291 2.0780101
2.0370629 5.8053141 1.9731261
2.147146 6.1418419 1.913914
1.5672981 4.51686 1.1567709
1.351065 3.9083321 0.89494503
1.3243361 3.845479 0.77865601
1.5229549 4.4389381 0.78421903
1.452204 4.2487812 0.64363199
1.28262 3.766921 0.47880501
1.241022 3.6586671 0.379397
1.6057841 4.734025 0.49090999
1.362584 4.0324259 0.32752001
1.329155 3.948622 0.235926
1.26572 3.7746561 0.148932
1.281302 3.835911 0.077946
1.4096839 4.2366142 0.010702
1.308069 3.9465089 -0.054613002
1.288371 3.9022601 -0.113105
1.268297 3.8564899 -0.16395199
1.258175 3.8407271 -0.20981801
1.591413 4.8771319 -0.31716099
1.394491 4.3075171 -0.34838799
1.408399 4.4204612 -0.404457
1.511747 4.8221488 -0.35475901
1.262616 4.0604959 -0.22075699
1.211278 3.911402 -0.165365
1.309194 4.2450199 -0.122267
1.687458 5.471529 -0.157593
1.235651 4.0231571 -0.055282999
1.305375 4.2678161 0.010697
1.2725 4.1776891 0.084169999
1.296006 4.272645 0.167026
1.4440449 4.7806659 0.282794
1.23235 4.0970249 0.32920799
1.187063 3.9631391 0.40627399
1.426524 4.782794 0.600537
1.325139 4.461802 0.66718698
1.234377 4.1739469 0.727355
1.371942 4.6589918 0.92983699
1.373338 4.683816 1.056335
1.28759 4.4103222 1.1116199
1.912454 6.5506401 1.651085
1.2896791 4.4364429 1.237655
1.6737289 5.7825942 1.7708369
1.640384 5.6921539 1.899833
1.613245 5.7226262 2.6951399
1.521764 5.4465342 2.850682
1.487247 5.3469329 2.9324279
1.464039 5.287291 3.0271931
1.439049 5.2205982 3.108381
1.422453 5.1839018 3.198251
1.405965 5.1472201 3.279413
1.388155 5.1053228 3.3460879
1.3729481 5.0726752 3.408911
1.3440011 5.0118289 3.501833
1.305474 4.9601631 3.5888879
1.29292 5.0068231 3.5405331
1.292899 5.055222 3.4584301
1.295805 5.0911961 3.4078231
1.305661 5.1549439 3.3631921
1.303874 5.1731458 3.2788899
1.308579 5.2173562 3.2002959
1.331694 5.3357582 3.1566689
1.3472151 5.4247742 3.0842011
1.81338 7.3018608 4.1514001
1.359831 5.502871 2.995028
1.297735 5.3856778 2.2197721
1.43328 5.978662 2.299437
1.5410661 6.4947872 2.1407859
1.0789289 4.5946102 1.264307
1.02073 4.3925638 0.97595698
0.938757 4.0612102 0.798024
1.021987 4.4447799 0.762133
0.94303101 4.1233001 0.606314
0.98927099 4.3487291 0.53662401
1.020399 4.5097589 0.454065
1.018573 4.5260892 0.35698101
1.18325 5.28652 0.306766
0.99664903 4.4772029 0.17158601
0.95089298 4.2951851 0.084787004
1.001339 4.548059 0.011162
0.97544497 4.4550691 -0.059907001
0.91766602 4.2146201 -0.118717
0.94536102 4.3661861 -0.180416
0.91856301 4.2663579 -0.22656401
0.89846498 4.1967082 -0.265329
1.183884 5.5298948 -0.349617
1.171472 5.534657 -0.43531299
1.112711 5.3803048 -0.47897401
0.84525502 4.1849871 -0.29971701
1.08955 5.394526 -0.38634101
0.82727599 4.1455688 -0.21946099
0.92087799 4.642695 -0.19114999
0.92246199 4.679132 -0.131263
1.1401711 5.7834501 -0.16224299
0.85884303 4.3832679 -0.058672
1.2435631 6.3467598 -0.084954001
0.840446 4.315918 0.010539
0.97698998 5.048378 0.099104002
0.91212499 4.7427082 0.18066999
0.90880102 4.7551789 0.27414399
1.018136 5.3610458 0.41989201
0.823834 4.3655758 0.436277
0.97966301 5.2246041 0.63960099
1.103766 5.924458 0.86385202
0.895648 4.8385711 0.82229197
0.83315998 4.5303659 0.88188797
0.810507 4.4361682 0.97595698
0.83352602 4.5922999 1.129257
0.80786097 4.4802289 1.219541
1.333565 7.445056 2.2249041
1.488336 8.3091125 2.4831221
1.3037421 7.327529 2.38693
1.447183 8.1887217 2.8884759
1.843473 10.502069 3.987932
1.661938 9.598526 4.1614799
1.559068 9.0668764 4.1702838
1.175439 6.8836589 3.3447919
0.89588797 5.4362602 3.2780161
0.869506 5.3145399 3.309783
0.81244898 5.039104 3.3109541
0.76737797 4.8307629 3.3010089
0.727144 4.7186089 3.340647
0.84232402 5.4660392 3.869807
0.73288602 4.9859838 3.340203
0.83726197 5.7423072 3.7642779
0.75969398 5.252933 3.3567779
0.77889299 5.4301529 3.3715701
0.94426501 6.8074551 3.631314
1.045094 7.5343552 4.0190659
0.89555597 6.5118022 3.3134179
0.92064399 6.7521682 3.2640121
1.002115 7.4138508 3.3912201
1.307084 9.7553205 4.2046928
1.323738 9.9673357 4.0289149
0.89621699 6.8086681 2.568475
1.005033 7.9190178 2.138402
0.56577998 4.4997149 1.097275
0.60657799 4.86976 1.0620461
0.580419 4.7042432 0.90746099
0.57202101 4.6807899 0.78800899
0.60479802 4.9970832 0.72153199
0.58519399 4.882587 0.59169602
0.610479 5.1439838 0.50869697
0.56875199 4.8402929 0.37501001
0.59550703 5.1192231 0.29183999
0.58370501 5.068934 0.19087601
0.63586497 5.5788369 0.108219
0.59061998 5.2357779 0.012629
0.59360099 5.3175092 -0.070283003
0.58912599 5.3335299 -0.147688
0.52440101 4.7984958 -0.194943
0.61938101 5.6676092 -0.230251
0.49409199 4.570178 -0.238644
0.49360901 4.615819 -0.28698701
0.49195099 4.7033629 -0.363886
0.46310601 4.6352549 -0.40610701
0.44938701 4.7189851 -0.33276999
0.53705198 5.639545 -0.397686
0.42997199 4.6288118 -0.24134
0.59669602 6.4236579 -0.33491999
0.47110501 5.1362352 -0.20829999
0.573448 6.3326812 -0.175008
0.53341699 5.9676909 -0.078702003
0.49640599 5.627131 0.01354
0.47045299 5.4045548 0.104558
0.42769799 4.9801722 0.186988
0.52218199 6.0803499 0.228296
0.444134 5.2427931 0.29794601
0.53616297 6.329155 0.35968399
0.44376799 5.311738 0.41014799
0.509036 6.179244 0.60887301
0.45286101 5.5762882 0.67316997
0.450591 5.629271 0.80950701
0.455502 5.7747412 0.96799397
0.49486601 6.464983 1.403229
0.54144102 7.182786 1.742799
0.7392 9.972065 2.6786959
0.75812501 10.390966 3.0647471
0.77541697 10.80093 3.472898
0.52161199 7.3856502 2.5718369
0.660101 9.34655 3.254663
0.38966501 5.6100321 2.1032629
0.65192997 9.3858719 3.518867
0.64728397 9.8134432 4.458046
0.489007 7.5473819 3.6225531
0.41787699 7.0871592 4.2239408
0.31691101 5.9638028 4.0304642
0.24884801 5.132885 3.595768
0.26864901 7.0678158 4.3470688
0.206882 6.6662302 3.194464
0.21367601 7.1529269 3.243829
0.29250899 10.188668 4.3543701
0.15934999 5.784544 2.3187089
0.261803 9.9220543 3.7122381
0.21144 8.3828554 2.9127581
0.25717199 10.195977 3.5427561
0.18894599 7.8526502 2.5191641
0.20076901 8.7671566 2.5796361
0.132083 6.8031921 1.472608
0.114012 6.2464929 1.1960959
0.106438 6.2277231 1.040845
0.10354 6.4997292 0.93181998
0.086230002 5.839241 0.70267701
0.086318001 6.343894 0.62304401
0.075488999 6.065598 0.466768
0.066425003 5.8871932 0.33339399
0.057581998 5.6887288 0.212819
0.062121999 6.933434 0.133636
0.043914001 5.6308131 0.013497
0.041735999 6.2873192 -0.082589999
0.034965999 6.3854861 -0.175751
0.026783001 6.206883 -0.25066999
0.020041 6.3534122 -0.32984
0.013681 6.8678741 -0.42458799
-0.00232 7.043179 -0.54195398
-0.064121999 6.665288 -0.46792299
-0.077917002 6.5237489 -0.338705
-0.088555999 7.4144859 -0.384951
-0.086373001 6.5910611 -0.266206
-0.089744002 6.290977 -0.17316499
-0.097392 6.3127041 -0.082930997
-0.115543 6.9650221 0.016697001
-0.099499002 5.6050758 0.108045
-0.111658 5.9038138 0.22089399
-0.116179 5.78756 0.327797
-0.126678 5.9650178 0.45909601
-0.152409 6.804553 0.668392
-0.154172 6.5439701 0.78761399
-0.182888 7.7628379 0.93431401
-0.15662301 6.335288 0.90840697
-0.17359599 6.7067261 1.1211129
-0.17987201 6.6507349 1.273755
-0.230473 7.5511112 2.023771
-0.31045899 9.7987232 2.883853
-0.252152 7.6765251 2.4632781
-0.33270001 9.7826481 3.400022
-0.25264499 7.1832862 2.6882811
-0.372978 9.9467793 4.2522278
-0.38984799 10.084078 4.574472
-0.61423999 9.5560684 6.211576
-0.65621698 9.6820841 5.773725
-0.570979 8.2819548 4.7651219
-0.61861801 8.6790733 4.5974221
-0.47694501 6.5835242 3.3273721
-0.75519198 10.098935 4.5905738
-0.71956402 9.3309584 3.7499559
-0.64393198 8.2256403 3.0858829
-0.57752198 7.2687278 2.5327899
-0.573681 7.1157598 2.289511
-0.835015 10.065306 2.7056069
-0.52890003 6.116672 1.1754121
-0.61647201 6.7632942 0.66692603
-0.62923402 6.8157821 0.52668703
-0.63987601 6.844141 0.38925201
-0.672795 7.107233 0.26706201
-0.66633499 6.9528461 0.134618
-0.63619602 6.5581951 0.015792999
-0.69846702 7.1141782 -0.093898997
-0.71596998 7.1222692 -0.289085
-0.69546002 6.8384709 -0.35685101
-0.70250601 6.39112 -0.560525
-0.84319901 7.1365018 -0.29021499
-0.82923102 6.949049 -0.192617
-0.87559497 7.2658 -0.096132003
-0.898718 7.385498 0.017833
-0.902381 7.3443971 0.14261501
-0.95927501 7.7332802 0.29150999
-0.98610997 7.874784 0.44940701
-0.98641598 7.8036518 0.60524899
-1.512274 11.532986 1.943735
-1.329406 9.8714876 2.4099591
-1.280847 9.4288893 2.5490561
-1.063398 7.7606091 2.304204
-1.001484 7.24613 2.3460081
-1.371174 9.8367834 3.4498971
-1.04322 7.4210391 2.8028331
-1.5582449 10.992024 4.4484701
-1.275504 8.3026066 5.312582
-1.453802 8.4179249 5.250308
-1.39055 7.6283789 3.3125269
-1.777846 9.4420128 2.826283
-1.761941 8.9564981 1.098336
-1.6572599 8.2721071 0.47773099
-2.0219669 9.972187 0.196108
-1.385543 6.5217361 -0.51303101
-1.273543 5.8604722 -0.52283299
-1.59391 7.1739802 -0.51589203
-2.95403 12.803192 0.253243
-2.445097 8.6128397 5.326839
-1.744882 5.2947521 -0.486009
-2.3579941 -7.6586709 2.146683
-2.3494439 -7.6623392 2.3575411
-1.9379801 -7.6209421 2.5219131
-1.927145 -7.6151261 2.3106949
-1.912643 -7.5947161 2.0980361
-1.904388 -7.5989661 1.895421
-1.897904 -7.6103368 1.697454
-1.349553 -5.4382858 1.072744
-1.892449 -7.6259918 1.5042861
-1.2718821 -5.150723 0.886572
-1.875311 -7.59442 1.307196
-1.443871 -5.8763609 0.86739999
-1.8613091 -7.6132421 0.94303501
-1.5697269 -6.4528718 0.65216798
-1.5154409 -6.2611699 0.49569201
-1.286078 -5.340529 0.31106201
-1.225885 -5.1165118 0.19682001
-1.842371 -7.7289729 0.153137
-1.8356301 -7.7402921 0.019067001
-1.806337 -7.6561189 -0.103329
-1.818889 -7.7493882 -0.21908399
-1.809608 -7.7500482 -0.321408
-1.785018 -7.6847868 -0.409578
-1.629508 -7.526248 -0.39977899
-1.617474 -7.5125861 -0.31035101
-1.612852 -7.5333662 -0.21204101
-1.6039881 -7.5344939 -0.101188
-1.595837 -7.5389261 0.01847
-1.588685 -7.548192 0.14866599
-1.579365 -7.547123 0.28844401
-1.160658 -5.5784059 0.32265201
-1.5647629 -7.5206342 0.43498999
-1.562855 -7.555243 0.59366399
-1.5508651 -7.5411472 0.75605798
-1.542259 -7.5434198 0.92642897
-1.536661 -7.5605578 1.105924
-1.038676 -5.6792898 3.3139801
-0.90209699 -5.6694431 3.4155581
-3.431881 -23.299292 8.1804619
-3.39821 -23.25687 7.5379472
-3.371001 -23.258274 6.913177
-3.3129561 -23.235794 5.6787372
-3.257899 -23.233603 4.491611
-1.072715 -7.7147751 1.301592
-1.065078 -7.7252131 1.117843
-1.053521 -7.7072201 0.93598598
-1.043113 -7.6972771 0.76280099
-1.0337501 -7.694921 0.59742302
-1.024132 -7.690681 0.43934301
-1.011724 -7.6651111 0.28922901
-0.99896997 -7.636507 0.148435
-0.99059302 -7.6410351 0.018468
-0.97735798 -7.6078162 -0.100755
-0.96588302 -7.5878749 -0.210527
-0.95645601 -7.583693 -0.30869699
-0.944475 -7.5589652 -0.39547601
-0.93521202 -7.5558071 -0.47068101
-0.82854903 -7.3934102 -0.52226502
-0.81541997 -7.4313288 -0.38811401
-0.80673099 -7.4312458 -0.30187699
-0.79903501 -7.4403839 -0.20596001
-0.79161698 -7.4524279 -0.098443002
-0.78433299 -7.4658918 0.017992999
-0.77390802 -7.4495168 0.14435001
-0.76736701 -7.470438 0.280931
-0.758564 -7.469553 0.42515299
-0.74931598 -7.4643078 0.57724601
-0.74286997 -7.4870439 0.73885697
-0.73373598 -7.4828811 0.90468699
-0.72588599 -7.4919791 1.078964
-1.8033791 -18.839458 3.162586
-2.126153 -23.346783 6.2801328
-2.0736499 -23.367243 7.5235939
-2.0471129 -23.374308 8.1502743
-1.940073 -23.393616 10.640602
-0.45892501 -6.0413342 3.604743
-0.472067 -6.3106809 3.8894269
-0.60856402 -9.2869902 6.5121689
-0.989447 -26.200802 6.34378
-0.26537001 -7.7371039 1.29368
-0.25625801 -7.7316809 1.108904
-0.24683 -7.7163668 0.92893797
-0.237305 -7.6963029 0.75615501
-0.22775701 -7.6739259 0.59074903
-0.218394 -7.6566148 0.43374601
-0.209562 -7.656775 0.286538
-0.199828 -7.6229649 0.14697
-0.190796 -7.6135879 0.018254999
-0.181834 -7.6061702 -0.099941
-0.172795 -7.5951581 -0.209097
-0.163922 -7.5900421 -0.30659801
-0.155066 -7.5851979 -0.393868
-0.146071 -7.5731301 -0.46827501
-0.058075 -7.4943309 -0.52611601
-0.040752999 -7.4898028 -0.38883901
-0.032125 -7.4918242 -0.30256301
-0.023507999 -7.4991231 -0.20640001
-0.0149 -7.5253358 -0.098849997
-0.0062170001 -7.5199761 0.018025
0.0024669999 -7.5216031 0.14496601
0.011163 -7.5367198 0.28194001
0.019839 -7.5309091 0.42645299
0.02861 -7.5506248 0.58100498
0.037326999 -7.552577 0.74169099
0.046084002 -7.5603271 0.90970498
0.054738 -7.5496302 1.082227
0.312125 -26.306074 6.36518
0.13314299 -5.1710792 2.854238
0.279448 -6.4802942 4.441061
0.269333 -5.9269938 3.932445
0.34055901 -6.9615092 4.283711
0.511617 -9.9849167 5.7388558
0.554739 -7.8152509 1.123093
0.562401 -7.7953658 0.94040698
0.57183498 -7.8004451 0.76807898
0.57911599 -7.7764149 0.60003197
0.58462298 -7.7295041 0.43894699
0.59478599 -7.744761 0.290575
0.60445201 -7.7530289 0.14988001
0.60997999 -7.7088828 0.018534999
0.61980301 -7.7194901 -0.101727
0.62750298 -7.703558 -0.21272799
0.63596898 -7.6974769 -0.31192499
0.64352697 -7.6807089 -0.40014201
0.65264601 -7.6826081 -0.47666699
0.66477197 -7.6164441 -0.58829403
0.76228303 -7.613698 -0.30902001
0.77303499 -7.6320448 -0.211133
0.78413898 -7.6532698 -0.101057
0.79697198 -7.690794 0.018533001
0.80739701 -7.70437 0.14930201
0.81357098 -7.6776142 0.288818
0.82681298 -7.717401 0.439513
0.83386898 -7.6990819 0.59588897
0.846632 -7.7333722 0.76397401
0.85189599 -7.699141 0.93204403
0.97263098 -7.3818059 4.2737751
1.1365761 -8.5496788 5.1315179
1.0462691 -7.8013539 4.837698
0.74063599 -4.8788142 3.2010241
1.265518 -8.0843439 4.6969209
1.200006 -7.6082239 4.2499552
3.852814 -23.205893 8.7980433
3.8726039 -23.159233 8.1561813
3.905241 -23.189674 7.5419168
3.9364359 -23.211121 6.9253111
1.396024 -8.1742544 2.2214651
1.403182 -8.1593437 2.0031259
1.407974 -8.1309614 1.78587
1.4214571 -8.1527081 1.58439
1.4275579 -8.132165 1.379717
1.437313 -8.1325483 1.1838239
1.445302 -8.1229115 0.99273098
1.455182 -8.1240005 0.81049502
1.465505 -8.1275177 0.63547701
1.4728 -8.1142092 0.46698901
1.480098 -8.101141 0.30807
1.488607 -8.0947342 0.158628
1.496412 -8.0846548 0.019707
1.50764 -8.0930595 -0.108137
1.5161901 -8.0869799 -0.226457
1.525238 -8.0836611 -0.33222201
1.530781 -8.0619049 -0.42601201
1.543363 -8.0771713 -0.50838298
1.556226 -8.0436201 -0.630413
1.598085 -8.0599318 -0.71633297
1.634523 -8.0484924 -0.576536
1.65738 -8.065382 -0.42746401
1.662729 -8.04426 -0.331738
1.673768 -8.0507364 -0.22632
1.686234 -8.0638723 -0.108215
1.695691 -8.0625896 0.019748
1.707809 -8.073822 0.159052
1.7181261 -8.0764971 0.308893
1.7334189 -8.1023769 0.46919399
1.742326 -8.0982027 0.63739502
1.752237 -8.098753 0.81371999
1.7618231 -8.0977821 0.99715102
1.7775511 -8.1248131 1.1921951
1.786235 -8.1195641 1.389277
1.800342 -8.1388683 1.59586
1.816636 -8.1677084 1.81083
1.825706 -8.1639719 2.024055
5.2425971 -23.317219 6.4022689
5.4056768 -23.658911 8.4298363
1.9801511 -8.5751238 3.526417
1.98835 -8.5654774 3.756449
2.323931 -9.907052 4.8739882
2.1602199 -9.1143665 4.9492021
5.6455541 -23.69743 13.441685
2.095947 -8.5775986 5.7277761
1.994688 -7.77248 5.4941249
2.050312 -7.9131851 5.4180231
2.083189 -8.0019846 5.3637018
2.09743 -8.0186777 5.2420259
2.388212 -8.8783426 4.634553
2.391377 -8.8493376 4.3906059
2.534375 -9.3356638 4.3849702
2.5635009 -9.3573236 3.8875761
2.3825769 -8.657649 3.3584249
2.41907 -8.7506704 3.1536009
2.5452659 -9.1659184 3.050849
2.399966 -8.6041002 2.6276109
2.400667 -8.5682945 2.383708
2.2586379 -8.025671 2.017236
3.977258 -13.885994 2.0705211
4.0025039 -13.913308 1.741998
4.0093999 -13.876916 1.418488
2.6051769 -8.9392023 0.52725703
2.603265 -8.8943739 0.34668699
2.593749 -8.8239813 0.17726199
2.607532 -8.8331413 0.022074999
2.607002 -8.7939157 -0.120483
2.5635941 -8.5746841 -0.36143699
2.5144131 -8.3749142 -0.45395699
2.4129131 -8.0032129 -0.51677501
2.4897649 -8.1895962 -0.65864599
2.511972 -8.1273937 -0.741606
2.6159871 -8.3272839 -0.61273998
2.7346489 -8.6351299 -0.470236
2.7300351 -8.5860825 -0.363859
2.7122099 -8.4622145 -0.116727
2.820015 -8.6947231 0.341939
2.829982 -8.6912212 0.51758897
2.8399179 -8.6875849 0.70329797
2.8428321 -8.6625986 0.89532602
2.8792751 -8.7395515 1.1071759
2.9361069 -8.8774834 1.340333
2.9802129 -8.9760437 1.580469
2.9972191 -8.9925089 1.814734
2.9963679 -8.9554043 2.043714
8.0889492 -23.630133 9.3413744
8.0439997 -23.410315 9.9186754
8.2041416 -23.697887 11.367646
8.2360125 -23.70113 12.018011
8.2731209 -23.719419 12.663098
8.2341747 -23.433208 13.704982
2.1034839 -5.8987832 3.960784
2.1113579 -5.6507368 3.998188
9.0195036 -23.555782 13.327433
9.1143646 -23.558346 11.450217
9.0216951 -23.238811 10.649428
3.33043 -8.5203276 3.4214809
3.3615849 -8.5707483 3.197897
3.3909211 -8.6162176 2.969615
3.4027281 -8.6169653 2.7252541
3.4108739 -8.6083994 2.480485
3.443562 -8.6616373 2.2552209
5.6101532 -13.876899 1.801012
5.631794 -13.8842 1.471361
5.645133 -13.871012 1.152344
3.5440371 -8.5660038 -0.12177
3.4689879 -8.3572006 -0.249045
3.4702179 -8.3329372 -0.36454499
3.4976399 -8.3714924 -0.47101399
3.5640099 -8.502655 -0.56996399
3.703171 -8.7776518 -0.73306501
3.7124529 -8.6871557 -0.82359201
3.7183681 -8.5907717 -0.65713799
3.584075 -8.2282133 -0.465933
3.676712 -8.4142952 -0.37084001
3.661562 -8.353282 -0.251026
3.7507911 -8.5299683 -0.122401
3.9817359 -8.9985991 0.18965299
4.2860241 -9.6260519 0.59668398
6.2310228 -13.907645 1.496576
6.2553978 -13.91889 1.836134
10.823311 -23.356567 9.6279278
10.867945 -23.381807 10.331534
11.165115 -23.732948 13.221261
4.1991138 -8.8723631 5.416193
3.781307 -7.965714 5.0613241
4.2167621 -8.856534 5.8361049
4.2443752 -8.8880091 6.0535359
3.8045211 -7.9432678 5.5702209
3.8275001 -7.9675279 5.7337632
3.8874929 -8.0446453 6.0297532
3.89063 -7.9568219 6.1974249
3.8585849 -7.7542892 5.7406621
4.3663321 -8.7239733 6.169951
3.8314719 -7.6331978 5.2492609
4.3227801 -8.4406548 4.2986832
4.5287862 -8.3138161 -0.38234001
4.4507828 -8.1481543 -0.482005
4.4783378 -8.1760588 -0.57631898
4.5411401 -8.2453556 -0.72431898
4.6079459 -8.2756882 -0.82576299
4.72335 -8.3912706 -0.67597502
4.660008 -8.2340603 -0.491182
4.7864251 -8.4346409 -0.391662
8.0355444 -13.896557 1.235202
8.0652189 -13.910696 1.579062
5.1854811 -8.6414804 4.305263
4.887394 -8.0809612 4.7605901
5.3532262 -8.7821379 5.9036341
5.5583358 -8.7496214 6.8704529
4.2195191 -6.6082811 4.9587312
8.5186119 -13.172396 8.2885342
9.3661366 -13.841472 1.285991
5.8093758 -8.4370317 -0.41369399
5.6963472 -8.2524118 -0.52057803
5.7538199 -8.3150434 -0.62512797
5.8951082 -8.4772148 -0.79451901
5.9156318 -8.4232006 -0.89732701
5.8187971 -8.2042627 -0.70608699
5.950933 -8.3495121 -0.53229499
6.521997 -9.1060724 -0.30827999
6.4942179 -9.0451221 -0.146266
6.284997 -8.7323666 0.025788
9.9903049 -13.812915 0.63770998
10.05353 -13.866503 0.96987897
6.2195892 -8.3123598 3.882839
8.3295364 -11.105405 5.5624471
8.8808727 -11.69877 7.760632
8.8072834 -11.57395 8.0250092
6.8102889 -8.8429041 7.2401271
9.9524059 -12.498361 10.104544
9.0377884 -11.242485 7.9593058
5.9548769 -7.3899889 5.014605
10.672704 -13.088939 6.767179
8.5667009 -10.456597 4.695456
11.779377 -14.175946 3.5286801
10.881859 -13.065029 2.8413501
11.618229 -13.81848 1.3891799
11.644175 -13.816796 1.023193
11.65649 -13.798964 0.67572898
11.673303 -13.786421 0.34816599
7.7520418 -9.0910959 -0.328832
7.336082 -8.563055 -0.58538502
7.0830822 -8.2483702 -0.67214602
7.098001 -8.2271328 -0.836101
7.3237538 -8.4097042 -0.97219098
7.201829 -8.1927719 -0.76574999
7.7761922 -8.8049469 -0.60985601
8.1600714 -9.2180853 -0.497183
7.9551549 -8.9239407 0.028655
12.357061 -13.797434 0.69288701
12.398555 -13.811564 1.0510091
12.439143 -13.82451 1.430993
12.357408 -13.638085 2.638098
11.472677 -12.457294 5.431365
9.2241726 -9.8082924 7.4293289
9.3362265 -9.9044008 7.8127689
9.3209419 -9.4175911 7.6056771
9.1999683 -9.1243944 4.8461919
11.879039 -11.618552 3.596065
13.125414 -12.807807 3.5110049
9.2069693 -8.7779884 -0.167097
10.273009 -9.7263269 -0.73444003
8.5879288 -8.1120272 -0.73033398
8.6638393 -8.1457911 -0.91504699
9.001194 -8.3846006 -1.072415
8.7257957 -8.0527706 -0.83353698
10.054258 -8.6711788 7.325943
9.8482075 -8.4735765 7.4573269
7.071444 -5.7769608 5.0383978
10.723502 -8.1551208 -1.036649
10.992589 -8.2795057 -1.199736
12.192448 -9.0289888 -0.61271298
10.198432 -7.1922688 5.0004368
10.378622 -7.3013549 5.4209628
14.803753 -9.1333189 -0.228488
13.464308 -8.1782036 -1.212186
15.006505 -8.8315744 -0.47924399
15.505857 -8.9329033 2.153187
15.500039 -8.9056168 2.5624681
11.889888 -6.7582669 3.308991
11.561856 -6.554224 3.5602951
16.002245 -7.9992118 4.7925162
6.2853088 -2.5533569 4.746964
6.3890271 -2.561017 4.712801
6.5414472 -2.6045091 4.6666708
6.4988599 -2.578826 4.535419
6.6010242 -2.6105101 4.4894228
10.603764 -3.2804201 4.7417221
10.532964 -3.245126 4.9960008
10.7725 -3.3052199 5.3971109
9.6551781 -2.950146 5.0891862
9.3799124 -2.8541379 5.1804509
8.8762341 -2.68961 5.1176281
9.3035631 -2.8073101 5.5780602
9.2049179 -2.7658751 5.718503
9.1185904 -2.7284 5.8498492
6.52916 -1.9453551 4.3087559
6.4947209 -1.926878 4.3944702
6.4030161 -1.883509 4.5042739
6.3968058 -1.849434 4.6592479
6.406889 -1.820148 4.5602651
6.4636078 -1.820045 4.4506569
6.5569959 -1.83813 4.417326
9.0159702 -2.527457 6.0738921
9.0538597 -2.5267479 5.9449182
8.9605322 -2.48948 5.7158031
9.3688908 -2.591222 5.7834401
10.158591 -2.796946 6.0480008
6.8558121 -1.879028 3.9224041
6.973196 -1.902501 3.8191171
7.2197218 -1.960748 3.7712009
10.214296 -2.7740209 5.3354082
7.1087132 -1.921743 3.527086
10.576096 -2.845933 4.964623
12.487011 -3.3290551 5.1782269
13.449501 -3.552212 4.831955
13.014713 -3.4212229 4.3157749
12.614002 -3.3002379 3.835449
14.143212 -2.9548659 2.7661951
12.519025 -2.585197 3.092875
12.77757 -2.6232629 3.4943111
10.797291 -2.190604 3.533365
12.008245 -2.421793 4.2551131
11.828498 -2.3712709 4.5119958
11.57064 -2.3056049 4.7274289
11.555633 -2.2886851 5.0324321
7.0233011 -1.374089 3.427731
7.1701441 -1.394187 3.682075
6.9656949 -1.3460521 3.748574
10.68789 -2.052458 6.0051088
7.087019 -1.352442 4.141355
8.1450882 -1.5543571 4.7596459
7.2926378 -1.382906 4.416194
8.2466211 -1.553905 5.1576281
8.3529062 -1.563905 5.3745871
9.4720144 -1.762051 6.249671
4.9054661 -0.90078402 3.3658991
4.698132 -0.84018803 3.3395
4.8432889 -0.84297299 3.365963
6.312561 -1.083611 4.2451401
9.4220152 -1.617378 6.3362198
6.694736 -1.141224 4.405354
6.5364251 -1.106439 4.1927662
6.4583778 -1.085515 4.025044
6.7796841 -1.1314369 4.0894661
7.2222481 -1.1966881 4.2020888
7.2415938 -1.191255 4.0494628
6.9843512 -1.1406209 3.7392311
7.353971 -1.1922179 3.7554469
11.39935 -1.75317 3.6988871
11.875148 -1.798143 3.2174361
15.52594 -1.527692 4.1792521
7.4762669 -0.70937097 2.608587
7.4370689 -0.69695097 2.7937241
10.371286 -0.947649 4.4490471
10.091624 -0.91029602 4.593051
9.7657633 -0.86947101 4.6960139
10.369313 -0.91108799 5.2471819
7.420392 -0.643314 3.935442
6.9591289 -0.56266803 4.4156599
5.4050078 -0.43069601 3.5172081
4.9453592 -0.38252801 3.3474391
4.4855371 -0.32602301 3.1468699
5.2653399 -0.35814801 3.6134109
5.000443 -0.328473 3.321419
5.4979591 -0.35475099 3.573806
6.8877368 -0.436405 4.364881
9.2437286 -0.57490402 5.6922412
10.435556 -0.588274 5.2687879
10.296473 -0.56845701 4.9392161
10.756277 -0.58133101 4.8828769
10.851772 -0.57385498 4.6423302
10.905411 -0.56401002 4.3755689
11.643315 -0.60217398 4.6716371
11.074663 -0.55988699 4.1473231
10.202841 -0.50393403 3.5483339
10.727197 0.080332004 3.155617
4.9123569 0.042497002 1.575508
10.325566 0.089327 3.3116519
4.90903 0.048167001 1.705261
11.064725 0.12141 4.138566
10.670428 0.12948699 4.275887
9.5568857 0.138164 4.3325372
9.3622284 0.14623401 4.484777
9.2203236 0.154723 4.6485071
8.9648991 0.160845 4.7375731
7.4391289 0.14212 4.105504
8.8385744 0.18939599 5.2598572
5.2367859 0.13046899 3.3980269
5.1612978 0.140578 3.4844921
5.0879869 0.162241 3.5619431
5.0092988 0.183025 3.4320619
5.2023401 0.202181 3.450696
8.9434605 0.378782 5.5016441
8.6811342 0.37776601 5.169867
9.5920992 0.428563 5.511353
10.49654 0.48119801 5.797853
8.9334888 0.419934 4.7254272
9.7086372 0.46768099 4.8996811
4.5652008 0.225225 2.189256
9.3105593 0.459337 4.4649062
4.6327772 0.23394901 2.1026881
4.8545399 0.25080499 2.0766151
4.7970281 0.25341699 1.924819
4.6670051 0.25198099 1.7480479
4.6990271 0.259188 1.634714
4.9028659 0.27614 1.5748971
5.2505112 0.30183399 1.547048
5.0846701 0.29822999 1.364448
4.7812519 0.28600299 1.158887
16.625393 1.0332561 3.1890869
9.8570976 1.0276 1.192472
9.8688736 1.040424 1.42249
9.964591 1.062211 1.674582
11.778998 1.283305 2.5642669
4.7272019 0.52057499 1.1506571
4.8413539 0.53878403 1.304933
4.6332531 0.52107 1.371516
4.4761772 0.50867403 1.444801
4.6529298 0.53423101 1.626839
4.27982 0.49642599 1.6114269
4.7074642 0.55157501 1.8991539
4.3003941 0.50893998 1.849939
4.3201189 0.51635998 1.972225
4.3247142 0.522008 2.0864451
4.4958348 0.54795802 2.283067
7.6133142 0.92791998 3.866179
4.468473 0.54988801 2.3788309
7.5363798 0.92742199 4.0120578
4.4512582 0.55302203 2.4749939
4.6434708 0.582376 2.6862309
4.4488168 0.56321597 2.668021
4.680068 0.59801197 2.899791
5.5513482 0.70934302 3.43964
4.548995 0.586631 2.9008341
4.604764 0.59926498 3.0121839
5.4932709 0.71489602 3.5933969
4.563817 0.60471398 3.1068981
5.2535439 0.72095603 3.710429
4.533987 0.64367801 3.135464
6.0289779 0.85591799 4.1693201
4.8055482 0.69362301 3.2181079
4.612628 0.67124403 3.023613
4.5765529 0.67141902 2.925421
4.428 0.65488398 2.7510841
5.4199591 0.80159098 3.3673811
4.5313592 0.67554599 2.7258
4.4555011 0.66952401 2.586169
5.455523 0.81979698 3.166626
4.582068 0.69398999 2.5571229
4.4628639 0.68123603 2.385371
4.6044211 0.70832098 2.348336
4.5221481 0.70103902 2.1918471
4.5021091 0.70328498 2.065531
4.4103661 0.69420499 1.9072959
4.7352548 0.75097799 1.9210989
4.1213608 0.65852302 1.5609829
4.4234562 0.71206701 1.556293
4.9112291 0.796435 1.595664
4.6043091 0.75214899 1.372363
4.9953208 0.82198602 1.356167
9.5034037 1.575129 2.330709
7.202291 1.202325 1.580272
7.2884722 1.225421 1.414969
7.3966899 1.2524461 1.253629
9.5530519 1.628981 1.389145
9.0649834 1.5566 1.106698
10.511702 1.817588 1.047593
9.2049074 1.602635 0.71894902
10.232764 1.81836 0.20030899
8.8134394 1.587261 -0.117633
8.7578659 1.587764 -0.244973
6.9720731 1.272368 -0.28622001
8.6784773 1.583778 -0.35627201
8.5227289 1.5655791 -0.44986099
8.7114305 1.6107121 -0.54768902
8.6711378 1.624088 -0.67882401
8.6885624 1.669172 -0.77130902
8.5013943 1.674194 -0.60825801
6.7832198 1.3522069 -0.35907999
6.7862272 1.360999 -0.279522
6.676877 1.347132 -0.187472
6.3646598 1.291839 -0.085308999
6.687995 1.365551 0.016361
6.2611141 1.285973 0.123191
5.8806081 1.214937 0.22463199
9.285428 1.929615 0.53703803
10.027015 2.095885 0.78822798
6.2886162 1.322091 0.63105798
7.3716168 1.549776 0.73973602
6.2856789 1.3290941 0.77304
7.8087721 1.660633 1.144377
6.7621822 1.446269 1.15556
5.1217179 1.101631 1.002983
7.3887539 1.5892479 1.446936
4.4955521 0.972417 0.995417
4.4343662 0.96457201 1.09798
4.5690689 0.99937898 1.2529221
4.2163148 0.92735201 1.269923
4.2099538 0.93108398 1.382807
4.1135292 0.91476798 1.463762
4.2010312 0.939345 1.610026
4.218514 0.94840401 1.732523
4.0570059 0.91704202 1.7768691
4.5339999 1.030395 2.1076429
4.315248 0.98595703 2.1201389
4.366282 1.002952 2.2583089
4.3324599 1.000478 2.3493991
4.4929528 1.043043 2.5450449
4.1790128 0.97527498 2.463208
4.129015 0.96866798 2.52332
4.49265 1.05948 2.836957
4.5501552 1.078618 2.9574931
4.9806771 1.18679 3.3212941
5.2390041 1.2612031 3.6366479
4.9682608 1.220475 3.579715
5.8315802 1.4325531 4.2017512
5.1160269 1.281998 3.611151
4.9986882 1.264943 3.4175479
4.8312898 1.228551 3.2336769
4.6133809 1.1788419 3.0114789
5.3699951 1.372177 3.505374
4.4675589 1.147114 2.8348629
4.573473 1.179969 2.8101659
4.0994201 1.062739 2.43085
4.749877 1.237257 2.708338
4.3024468 1.126044 2.3498659
4.3145571 1.1345741 2.248857
4.3266888 1.143135 2.143466
5.1216359 1.359526 2.4020109
4.1388459 1.103798 1.829904
4.171113 1.117591 1.730291
4.2707639 1.149606 1.654165
4.1071062 1.110673 1.4778709
4.3014641 1.168593 1.4295321
4.337841 1.183884 1.322695
4.2796021 1.173336 1.188749
4.3507919 1.198285 1.091866
5.407001 1.4959379 1.214129
5.2500529 1.459087 1.043223
6.0486412 1.6885951 1.0494159
5.1535001 1.4451489 0.76722199
6.7442508 1.891229 1.0040441
6.188797 1.74323 0.773637
4.5831809 1.296711 0.467747
4.6054878 1.308798 0.36841199
5.1362991 1.466099 0.30246899
4.7319288 1.356618 0.184147
4.3542328 1.253814 0.087329999
4.9155388 1.4216239 0.012265
4.9893341 1.449244 -0.068246998
5.4141788 1.579474 -0.15522701
5.089716 1.491232 -0.214191
5.0124698 1.474919 -0.271254
5.0691991 1.498016 -0.32678699
5.2563009 1.566584 -0.42203999
6.6045361 1.968411 -0.53029299
5.4324069 1.64659 -0.494867
6.6851602 2.0263059 -0.60898697
4.9628849 1.529479 -0.36456299
4.7111592 1.463894 -0.256116
4.543129 1.417466 -0.19219901
4.7571368 1.490299 -0.137206
4.4773169 1.408355 -0.061652999
4.3969069 1.388672 0.011052
4.5326781 1.437348 0.091646999
4.3353829 1.380325 0.170203
4.454453 1.423932 0.26481599
4.0841289 1.310786 0.33005199
4.5003862 1.450146 0.46432701
4.555038 1.473595 0.576047
4.9163489 1.596797 0.74097198
5.0084162 1.633129 0.88030899
5.0582008 1.6558599 1.018966
4.883986 1.605117 1.112599
5.7335768 1.884334 1.306141
5.1947269 1.713925 1.3235019
4.4215541 1.46447 1.247746
4.0610738 1.3503079 1.258917
4.0799251 1.361845 1.3794481
4.0870252 1.369489 1.4972301
4.0801249 1.372447 1.610026
4.3621669 1.472964 1.8448499
4.1194949 1.39635 1.858189
4.0353241 1.373044 1.932178
4.1035089 1.4015681 2.076942
4.15168 1.423404 2.2123959
5.0065122 1.716484 2.6679289
4.3465872 1.495869 2.428818
4.1784 1.443421 2.4392431
4.3871632 1.5212409 2.6653221
4.4242492 1.539863 2.7871571
4.4316149 1.548196 2.8851299
4.505331 1.579819 3.0194969
5.3276 1.868152 3.570586
4.5155339 1.589293 3.1052439
4.5226159 1.603595 3.2383561
4.1847439 1.505718 3.1118979
4.395545 1.604663 3.2038231
4.1283321 1.5179909 2.9153571
4.2745838 1.577402 2.9555869
4.4509768 1.648367 3.001858
4.4329309 1.6475461 2.9065981
4.3473301 1.621477 2.7605691
5.0752401 1.892974 3.2227941
4.2707891 1.598578 2.617532
4.112133 1.544643 2.423784
3.8744259 1.460487 2.187758
3.9914279 1.5098929 2.1511779
4.0894041 1.552384 2.0950849
4.02074 1.53166 1.950343
4.148869 1.585994 1.8974741
3.774374 1.447859 1.619823
3.962338 1.5252399 1.587956
4.2208581 1.630389 1.571714
4.1232448 1.598187 1.418232
4.203198 1.634791 1.326646
4.0204802 1.5691071 1.156145
4.2726512 1.673241 1.110209
4.4891782 1.7640491 1.043855
3.9572351 1.560331 0.81438297
4.2354021 1.6756949 0.76114398
4.2597671 1.691056 0.65697002
4.5241661 1.802108 0.585962
4.1955752 1.6768661 0.44370499
4.038506 1.6195281 0.33480901
3.9235201 1.578712 0.23948801
3.862211 1.559255 0.155811
3.7474711 1.518 0.077927001
4.8687472 1.972199 0.101243
3.4573519 1.405154 0.0089450004
3.434135 1.400365 -0.048716001
3.5295711 1.444069 -0.104961
3.6345019 1.491926 -0.158666
3.607754 1.485842 -0.20255899
4.228497 1.747244 -0.28285301
4.2623668 1.772835 -0.355216
4.3864088 1.848379 -0.41496599
7.3599501 3.101393 -0.696271
4.730391 2.0192511 -0.36106199
3.926245 1.686781 -0.221846
3.81534 1.644383 -0.167786
3.422389 1.479737 -0.102622
3.4244189 1.485341 -0.049031001
3.5165069 1.530136 0.0091920001
3.6194611 1.57994 0.076114997
3.8473589 1.6847399 0.15711901
3.944314 1.732655 0.243954
4.0218282 1.772285 0.338184
3.6792021 1.626403 0.39503399
3.878196 1.719754 0.51046199
3.9921761 1.775852 0.62632102
4.132493 1.8440191 0.756199
3.6252539 1.622725 0.76041698
3.9587791 1.7775429 0.939152
4.1315198 1.860871 1.096334
3.7525959 1.6953959 1.103099
3.7023289 1.677863 1.195703
3.906939 1.776067 1.376394
3.9674239 1.809123 1.514621
3.7392371 1.710317 1.5378619
3.8590529 1.770547 1.701279
3.8210421 1.758479 1.796904
3.7956569 1.752138 1.89502
3.7466841 1.734817 1.977587
3.7675519 1.7497931 2.0940111
3.9336071 1.832469 2.292872
3.7527871 1.753545 2.2856131
3.7844019 1.773672 2.398989
3.9120531 1.839049 2.5718949
3.9554279 1.8650481 2.687726
4.1539831 1.9645669 2.906179
3.985532 1.890572 2.861439
3.713495 1.772101 2.7768531
4.4645038 2.156009 3.4690671
3.7311971 1.823298 2.8433859
3.8202939 1.877843 2.8214381
4.5212169 2.2223771 3.339098
3.8745191 1.910084 2.8021209
4.2138348 2.0834451 2.9729941
3.92471 1.946173 2.6924391
4.015192 1.996851 2.668021
3.748565 1.869682 2.404465
3.959893 1.980837 2.4431081
3.6669569 1.839628 2.16767
3.796994 1.910391 2.142626
3.655551 1.844547 1.961172
3.680562 1.86253 1.869836
3.824667 1.941041 1.832261
3.6929231 1.8795739 1.660365
3.689851 1.883406 1.549422
3.640959 1.863788 1.420777
3.543514 1.8191 1.277447
3.680495 1.894822 1.217715
4.167026 2.151433 1.256285
3.760622 1.947138 1.024609
3.9180951 2.0344429 0.95543897
3.4888921 1.816734 0.75308299
3.3835239 1.766863 0.63785702
3.662884 1.918157 0.59269202
3.4869959 1.8312171 0.47390699
3.2413599 1.707023 0.35975301
3.501044 1.848976 0.304658
3.1109979 1.647612 0.199347
3.0686431 1.6297441 0.129979
3.3074689 1.761515 0.072223
3.3721819 1.801008 0.0091629997
3.4843979 1.866141 -0.051920999
3.5331669 1.897549 -0.110381
3.0807669 1.659189 -0.141315
2.9471569 1.591648 -0.173889
3.1551659 1.708726 -0.221827
3.6741569 2.000838 -0.32192001
3.6582761 2.014282 -0.364072
3.198756 1.780677 -0.25700101
3.1990371 1.79058 -0.19032399
2.9721091 1.6680959 -0.137642
2.8852229 1.6237381 -0.091122001
2.8806939 1.6256011 -0.043449
2.959115 1.674386 0.0081489999
3.022716 1.7150151 0.066982001
3.03915 1.7290061 0.13080201
3.8651659 2.198935 0.166353
3.0474119 1.738391 0.198668
3.2836111 1.878193 0.291078
3.5058761 2.01073 0.396891
3.2412839 1.863982 0.44989499
3.473865 2.0031099 0.57481402
3.5897019 2.07546 0.69290799
3.6027451 2.0885839 0.79727203
3.6782451 2.1380689 0.92075002
3.950974 2.3027389 1.106446
3.8821909 2.2686379 1.204533
3.586566 2.1014769 1.2227941
3.585408 2.106406 1.333639
3.697639 2.178123 1.4906681
3.695262 2.1825099 1.605122
3.6029761 2.133662 1.677847
3.701355 2.1977329 1.83894
3.7682469 2.243377 1.987914
3.7218261 2.2216091 2.0760779
3.6042919 2.157135 2.1174181
3.708082 2.2251079 2.28493
3.673908 2.210418 2.3658099
3.7153521 2.241236 2.4905879
3.670162 2.2198031 2.551954
3.697741 2.2423561 2.6578801
3.8873539 2.3635211 2.877315
3.5824361 2.1838419 2.7215779
3.49067 2.1390431 2.7628679
4.1875319 2.566072 3.3144341
4.1699042 2.58202 3.431803
3.591233 2.2468669 2.9004459
3.764375 2.3673911 2.9474001
3.897476 2.4574211 2.9887841
3.6991069 2.338357 2.7677381
3.9822919 2.5238581 2.897697
3.680454 2.3385601 2.594393
3.4093821 2.171886 2.320334
3.5470979 2.2654209 2.32233
3.514538 2.2503791 2.205044
4.4609318 2.85636 2.7988169
3.5513599 2.2797861 2.127321
3.54549 2.2818389 2.019489
3.7347281 2.409771 2.0147491
3.614352 2.3380599 1.83894
3.59655 2.3324759 1.717645
3.5556071 2.3117959 1.586205
3.618876 2.3589261 1.500512
3.430774 2.241998 1.3144
3.347899 2.1933949 1.177359
3.51687 2.3099489 1.127164
3.3980639 2.23757 0.98439598
3.539186 2.336396 0.91778898
3.5603449 2.3563161 0.81739199
2.9603829 1.964198 0.59368497
3.1929541 2.123853 0.549698
6.452888 4.3030968 0.93323898
3.4583459 2.312001 0.408521
3.0479259 2.042752 0.282332
2.9535339 1.984473 0.20149501
3.105561 2.0918601 0.140073
2.9854031 2.015976 0.069429003
2.9786351 2.016449 0.008622
2.9818339 2.02367 -0.047336999
3.141422 2.1373191 -0.104576
3.2110331 2.1901431 -0.15697099
3.0649929 2.0957551 -0.192761
2.8434961 1.94916 -0.213127
3.4329181 2.3649409 -0.32076901
3.0346861 2.111475 -0.32229799
4.1501031 2.8875599 -0.44075999
2.93173 2.060133 -0.25153899
2.901638 2.049082 -0.184414
2.9660361 2.0997281 -0.146762
3.1328199 2.2232659 -0.105731
3.393501 2.4142051 -0.054705001
3.180109 2.2679629 0.009362
2.847487 2.035748 0.067463003
2.7843649 1.995513 0.128148
2.925488 2.1018021 0.20398299
3.1286421 2.2532799 0.29667899
3.4623761 2.499753 0.41937
3.3273561 2.4081581 0.49421501
3.2850051 2.3833351 0.58176601
3.016777 2.1940849 0.623353
2.7292941 1.989852 0.64665502
3.8318219 2.800508 1.027145
3.3949339 2.487262 1.01826
3.250406 2.3871269 1.080328
3.206944 2.3609431 1.171433
3.4845669 2.571578 1.3889149
3.4872329 2.5798039 1.5067461
3.4539731 2.5614071 1.608274
3.2472889 2.4139891 1.6213109
3.759903 2.801841 2.0031519
3.3879361 2.530776 1.9169019
3.3417699 2.502347 1.9996181
3.3536789 2.5173459 2.113817
3.5085089 2.6399369 2.319967
3.349674 2.5265269 2.315083
3.3164871 2.50754 2.386544
3.4478209 2.613143 2.57394
3.8192689 2.9016531 2.947964
3.3020189 2.5147271 2.6250219
3.3148811 2.530616 2.7052519
3.1693821 2.4312069 2.69574
3.0005071 2.3238871 2.6555481
3.188235 2.493058 2.7710731
3.14343 2.469811 2.649622
3.3132119 2.6094351 2.7357271
3.5283639 2.785527 2.843106
3.3176451 2.625437 2.600282
3.3900061 2.689105 2.574451
3.464798 2.754992 2.540868
3.5439241 2.8246379 2.5005989
3.3122749 2.6462979 2.2400811
3.413208 2.733443 2.204294
3.456063 2.774353 2.122731
3.9517381 3.179806 2.2992091
3.3978369 2.7406161 1.864868
3.2230351 2.6058049 1.660737
3.196682 2.590641 1.538913
2.9789929 2.419965 1.333168
3.1330149 2.551125 1.295771
3.0249021 2.468936 1.148574
3.0173609 2.468631 1.04436
3.127208 2.5645659 0.978517
2.8139639 2.313149 0.78833801
2.765924 2.2790511 0.68614298
3.1514211 2.602838 0.68301803
3.580651 2.9643469 0.66633499
3.0438981 2.52595 0.47593701
2.797277 2.326781 0.35731
2.988126 2.4914031 0.299364
2.8827779 2.4092529 0.21274599
2.844275 2.382688 0.13880201
2.708204 2.274061 0.068157002
2.927928 2.4643619 0.0091730002
2.905715 2.4514339 -0.049936999
2.8455319 2.406327 -0.102567
2.998512 2.5416701 -0.158747
3.1918421 2.7119181 -0.217439
2.8768699 2.450069 -0.233613
2.8272691 2.419172 -0.28632101
2.6033061 2.2485709 -0.299891
2.8188391 2.4576869 -0.26253301
3.0190771 2.64464 -0.20836601
3.087435 2.7108591 -0.16593
2.9197941 2.569674 -0.107052
4.5406508 3.99617 -0.16647901
2.8516719 2.5156081 -0.049950998
2.774822 2.453548 0.0088780001
2.7954049 2.4775431 0.071992002
2.815001 2.500751 0.14085799
2.904258 2.586082 0.220209
2.7983999 2.497658 0.28862301
2.956485 2.6449261 0.389561
3.129684 2.8064201 0.50580299
3.225332 2.8989589 0.62163901
2.7450571 2.4730489 0.61742002
2.955858 2.669184 0.76248503
3.0267611 2.739604 0.88352197
3.8731239 3.505671 1.130579
3.747546 3.3999281 1.224263
3.0965779 2.8158441 1.121212
3.76406 3.4228139 1.362895
3.08143 2.8086109 1.226463
3.330174 3.0424271 1.4466341
4.215971 3.851685 1.831425
3.167052 2.9001501 1.491652
3.501225 3.2136409 1.777474
3.930043 3.6156621 2.1398029
3.549202 3.2729001 2.0624721
3.418478 3.159703 2.1101201
3.1452079 2.9139061 2.0536151
3.0845671 2.8643849 2.1219201
3.1350279 2.9180281 2.2629731
3.314966 3.09271 2.501565
3.2667699 3.0548451 2.5672519
5.722074 5.3508668 4.496798
3.3752551 3.1636541 2.752388
6.9004631 6.4980202 5.994628
5.2023411 4.9103551 4.640451
6.1981449 5.8775358 5.7645988
6.0954809 5.8342071 5.903893
6.4529729 6.2340589 6.14325
5.1576929 5.0175762 4.6676612
3.214309 3.134258 2.8393641
3.277308 3.2031269 2.8165359
3.1161699 3.052717 2.5954151
3.2872281 3.227778 2.6444139
3.2792389 3.227428 2.538765
3.3215489 3.2766671 2.4652569
3.1850131 3.1492889 2.257859
3.368804 3.338762 2.2717631
3.144875 3.124073 2.009382
3.3723249 3.357816 2.0330081
3.0939441 3.0877931 1.751492
3.220232 3.221298 1.703559
2.8670671 2.874691 1.410277
3.030479 3.0455999 1.377921
3.812278 3.8313 1.733395
2.767076 2.7873459 1.155347
2.9561429 2.9847281 1.125352
2.9430521 2.9784169 1.013086
3.5537961 3.5965011 1.223322
3.1494751 3.19473 0.97087997
2.900152 2.9486711 0.79181898
2.782582 2.835711 0.663899
2.6902909 2.7480309 0.55125898
2.419713 2.4773991 0.416684
2.8282361 2.9023941 0.397966
2.600039 2.674417 0.28701201
3.0119491 3.105324 0.24497201
2.5885489 2.675004 0.13925
2.598572 2.6916139 0.072107002
2.5390351 2.6360619 0.008773
2.45193 2.551549 -0.046482999
2.3790669 2.481493 -0.094616003
2.368933 2.476671 -0.138409
2.3434279 2.4557059 -0.176222
3.0020139 3.1531751 -0.269155
3.041625 3.2096679 -0.34025601
3.194628 3.4026489 -0.40688899
3.231251 3.47385 -0.333051
2.515054 2.7165079 -0.19219001
2.2671299 2.4544351 -0.134939
2.271364 2.464752 -0.092249997
2.379472 2.5880949 -0.046181001
2.342191 2.5534871 0.0083050001
2.4535401 2.6811299 0.070045002
2.5037439 2.7423761 0.138914
2.6193221 2.8756659 0.220265
2.902792 3.1943281 0.33212399
2.526752 2.787014 0.36942801
2.5614519 2.831887 0.459452
2.4092851 2.6698861 0.51550198
2.522922 2.8023479 0.63011098
2.694114 2.9994941 0.771887
2.8001311 3.1248269 0.908059
2.8529069 3.1911671 1.0356621
2.680506 3.0052769 1.078775
2.7697279 3.1125741 1.225616
2.9055009 3.2728059 1.403574
2.9875431 3.3730969 1.565152
3.0036299 3.3992009 1.696553
3.2717831 3.711354 1.98247
3.104619 3.529983 2.0082591
2.8858089 3.2888839 1.983372
3.1278369 3.581465 2.39695
3.192234 3.6637759 2.5675681
5.8553329 6.7202559 4.7095432
3.2396431 3.7269249 2.7247641
3.1490481 3.631207 2.7589121
3.1072359 3.591418 2.825505
3.30865 3.8512521 3.293539
3.179899 3.718817 3.3021281
3.0736949 3.6286111 3.327461
3.0911169 3.683733 3.29252
3.169004 3.7944191 3.276669
3.212008 3.854995 3.2549009
3.2863619 3.9535561 3.251478
3.9103551 4.7042308 3.8688469
3.9553239 4.7695961 3.8082671
4.035234 4.8774681 3.7663181
3.0352769 3.6774831 2.7370081
6.7398448 8.2046137 5.6102471
2.6670539 3.254389 2.1210189
2.736697 3.347286 2.070894
2.7569301 3.3800321 1.9771791
2.7180951 3.340338 1.839725
3.200768 3.942848 2.034915
6.5208192 8.0517149 3.8751321
2.81989 3.4902041 1.558589
3.3832741 4.1875091 1.869979
2.843848 3.5282259 1.453352
2.502702 3.11237 1.1748199
2.2418311 2.794595 0.95974499
2.7525749 3.431272 1.178398
2.297466 2.8707681 0.88962501
