# .PCD v0.7 - Point Cloud Data file format
VERSION 0.7
FIELDS x y z
SIZE 4 4 4
TYPE F F F
COUNT 1 1 1
WIDTH 1551
HEIGHT 1
VIEWPOINT 0 0 0 1 0 0 0
POINTS 1551
DATA ascii
2.730727 2.338624 1.24884
2.7101979 2.3265021 1.145519
2.9335599 2.5241621 1.138415
2.963182 2.555649 1.048241
2.7955589 2.416744 0.89409298
2.3230309 2.0129631 0.66523302
2.3135221 2.0094359 0.58667201
2.9616051 2.572336 0.75101501
2.9957011 2.608057 0.66373402
5.6410232 4.9110742 1.249838
3.0004849 2.618351 0.57084101
3.6083391 3.1487889 0.68648398
7.777544 6.787015 1.479673
2.4787991 2.168185 0.396256
2.3235559 2.0371611 0.30345899
2.4205971 2.1272161 0.247961
2.6723721 2.3539851 0.201665
2.3409431 2.0668731 0.116821
2.3389909 2.069993 0.060199
2.453716 2.1766069 0.0078619998
2.586983 2.300195 -0.045472
2.25669 2.011219 -0.083198003
2.242939 2.0036399 -0.121461
2.1784151 1.950551 -0.151803
3.170279 2.8453121 -0.26335499
2.510963 2.2641251 -0.26016
2.779772 2.5300231 -0.32768199
2.415385 2.2189729 -0.23025
2.307965 2.1301961 -0.16305301
2.3184509 2.1448629 -0.127554
2.284719 2.118583 -0.085757002
2.3151481 2.1518099 -0.041517999
2.5777099 2.4014299 0.008444
2.721328 2.541141 0.071759999
2.4506819 2.293746 0.125568
2.21208 2.0752461 0.171757
2.2066829 2.0750101 0.233077
2.298701 2.1665699 0.31020299
2.723011 2.5724659 0.45073101
3.2064321 3.036221 0.63299
2.715652 2.5774789 0.62566102
2.5610299 2.4363799 0.676741
2.162344 2.061893 0.64661902
2.1388421 2.0442269 0.71583903
2.85288 2.7329669 1.058333
2.7306221 2.621938 1.1135809
7.8264909 7.5149808 3.1917391
2.570775 2.4742081 1.144297
2.8356831 2.735518 1.368606
3.2832191 3.174618 1.708113
4.9174209 4.754766 2.558316
2.6536059 2.5718119 1.480716
2.663507 2.587415 1.586336
2.6291471 2.5599811 1.663407
2.6392021 2.5757599 1.766351
3.476337 3.392771 2.3266239
3.4259109 3.3513379 2.4158549
2.825803 2.7707241 2.091054
2.7882221 2.7402451 2.157105
2.994112 2.949439 2.41243
2.9249611 2.888032 2.445601
2.7164581 2.6884019 2.3489461
2.671284 2.6498449 2.379678
2.598635 2.5837841 2.377095
2.7949629 2.791934 2.6660919
2.682368 2.7044981 2.6652939
2.7129021 2.7608371 2.6501739
2.8459649 2.9097531 2.697686
2.6770699 2.7434421 2.486481
2.6712551 2.743854 2.421905
2.6556849 2.7342169 2.342663
2.6756771 2.7612109 2.287606
2.862159 2.96053 2.3636439
2.8136611 2.9171491 2.236335
2.966037 3.082288 2.26017
2.9189439 3.0404201 2.12462
2.570235 2.6834331 1.779742
2.5654199 2.684643 1.683224
2.5661299 2.691648 1.588693
2.7809589 2.923779 1.616848
2.4834919 2.6171169 1.349395
2.4574721 2.5957389 1.241622
2.454567 2.598712 1.146435
3.691005 3.907759 1.723928
1.953414 2.072948 0.83786702
2.3938 2.5462091 0.936198
2.1151509 2.2550631 0.74805599
2.573741 2.750385 0.81520098
2.70646 2.8989661 0.75928903
2.5995879 2.7909861 0.63736302
2.4689219 2.656882 0.51990098
2.1491959 2.318218 0.38036799
2.2442131 2.4263561 0.32456899
2.2306609 2.417331 0.25310099
2.1044061 2.28584 0.17594101
2.3578119 2.5670731 0.130391
2.9222541 3.1816111 0.161605
2.285109 2.4937351 0.065190002
2.1881649 2.393517 0.0077729998
2.206763 2.4194989 -0.043016002
2.3580379 2.5914061 -0.096432
2.306314 2.5404861 -0.13857099
2.2572219 2.4922211 -0.17456301
2.2550631 2.495667 -0.20794401
2.0562229 2.286268 -0.236606
1.852334 2.078932 -0.242744
2.185071 2.4754469 -0.231791
2.3168571 2.63708 -0.182236
2.4770391 2.8260159 -0.151766
2.351124 2.688658 -0.098302998
2.4262469 2.7810891 -0.04848
2.242017 2.5759499 0.0081850002
2.230088 2.5682709 0.065555997
2.3057849 2.6616869 0.131736
2.1746171 2.516175 0.18832199
2.201962 2.5538139 0.259469
2.146909 2.495821 0.32329899
2.9270129 3.4027071 0.44077301
2.175102 2.5345471 0.401871
2.4746981 2.890449 0.54544097
2.3439441 2.7441759 0.60307997
2.353812 2.7622199 0.69479197
2.1739089 2.557122 0.72636199
2.1350131 2.5172901 0.79861599
2.1207931 2.5063651 0.879529
2.2829039 2.7043071 1.041054
3.813297 4.5171971 1.738947
2.3554461 2.796829 1.172699
3.153476 3.7444 1.570011
2.425808 2.887171 1.309871
2.5661981 3.06147 1.494073
2.5278029 3.022794 1.578909
2.5072429 3.0052891 1.671977
2.8573351 3.433018 2.024658
2.807569 3.3812089 2.10502
2.68647 3.2430191 2.1228199
2.7142961 3.284363 2.2512929
2.567673 3.11431 2.2271559
2.5122731 3.0543311 2.2700541
2.6260171 3.200192 2.462986
2.3783281 2.905216 2.30758
2.5452559 3.116498 2.5448439
2.4244039 2.9755759 2.4897461
2.630249 3.2435651 2.818248
2.5634489 3.1913841 2.8642311
2.5583701 3.2155371 2.8134439
2.5872419 3.267375 2.7623241
2.418735 3.061866 2.531106
2.6668789 3.3840599 2.724977
2.428457 3.0888989 2.414922
2.6242549 3.3459311 2.5299671
2.788177 3.563442 2.597121
2.4613631 3.1608591 2.1167481
2.592792 3.337635 2.1304719
3.101162 3.9920449 2.5481939
2.55512 3.2970321 1.99789
2.5068619 3.242528 1.8578629
2.2891669 2.968071 1.601264
2.16345 2.8118119 1.421576
2.431186 3.167387 1.493373
2.2558489 2.946038 1.288871
2.3491449 3.0752671 1.241106
2.3224261 3.0476151 1.1271271
2.3055749 3.0328081 1.0205539
2.1572239 2.8445101 0.86375701
1.8675441 2.4684851 0.66988599
2.1246769 2.8151529 0.675237
2.0004721 2.656992 0.55577701
2.0444231 2.721936 0.48797399
2.0086589 2.6808031 0.40306601
1.997828 2.6728089 0.32769701
2.1706591 2.9110711 0.27941701
2.0516231 2.758116 0.194654
2.595068 3.4886999 0.246215
2.0198979 2.7220581 0.126802
2.0974801 2.8334849 0.067945004
1.841513 2.493747 0.0074300002
1.980796 2.6888881 -0.043869
2.6438291 3.5889421 -0.058554001
1.7835259 2.427001 -0.082896002
2.3559361 3.2059281 -0.109501
2.2672999 3.0928321 -0.154873
2.0520549 2.80604 -0.180473
2.0252891 2.776206 -0.212448
1.976315 2.7223239 -0.25885499
1.9532861 2.717066 -0.29172701
2.330828 3.274214 -0.282141
2.4522221 3.461735 -0.220239
1.902285 2.692024 -0.133123
1.6868941 2.3931019 -0.080585003
1.688055 2.4006691 -0.038550001
1.778435 2.5354531 0.0074229999
1.938521 2.7705259 0.065169998
1.918296 2.7484059 0.12538099
1.957306 2.8112431 0.193976
1.910448 2.750756 0.257705
1.9428411 2.804338 0.33502701
2.119535 3.0669811 0.44858101
1.7517819 2.5411501 0.442426
1.890085 2.748596 0.55742502
2.0844929 3.038856 0.70551002
2.0807481 3.0409679 0.79743302
2.0755661 3.040961 0.89080101
2.1864519 3.2113521 1.040737
2.1834681 3.2149849 1.143213
2.169946 3.203079 1.240801
2.1188071 3.1354229 1.314465
2.2632091 3.3575039 1.5143909
2.3328421 3.4694991 1.675243
2.3414249 3.491008 1.7957259
2.6426611 3.950048 2.1542959
2.36395 3.5423541 2.0397921
2.4260509 3.6445661 2.2069941
2.151469 3.2402191 2.0550821
5.5270352 8.3450232 5.5229611
5.5741901 8.4374762 5.8045678
2.4778459 3.769649 2.772552
2.4528079 3.7410109 2.8292079
5.4533138 8.3384876 6.4629998
4.470562 6.8705602 5.531889
2.5422089 3.946975 3.285037
2.584249 4.0534778 3.2913899
4.1489429 6.5412221 5.1340561
4.0462489 6.3957162 4.9092889
2.365175 3.7481439 2.8030169
5.2465191 8.3572245 5.8708739
3.2283609 5.1557641 3.4917021
5.4326129 8.6760015 5.8757558
2.102319 3.3748529 2.1008649
2.148957 3.458673 2.052599
2.3521309 3.795495 2.1387141
2.5107501 4.0619721 2.1646171
2.597822 4.2137828 2.114722
2.1884799 3.5590529 1.674127
2.5757351 4.1997499 1.8426321
1.696172 2.772845 1.1290751
2.2610309 3.7059131 1.392274
1.831761 3.0101769 1.036539
1.876398 3.0916159 0.96880198
1.896046 3.132179 0.88586199
1.8484 3.061486 0.77395499
1.750013 2.906158 0.64947599
1.753531 2.919663 0.56912702
1.540777 2.5721819 0.42979801
1.744534 2.9200289 0.40927801
1.896098 3.1821029 0.36375999
1.613197 2.714488 0.242974
1.829589 3.0867701 0.203191
1.625766 2.750165 0.119512
1.638128 2.7784431 0.062164001
2.2252109 3.784234 0.010522
1.608061 2.741977 -0.041754998
1.605414 2.7447679 -0.087517999
1.58441 2.7160871 -0.12698901
1.520655 2.6137609 -0.156987
1.580881 2.72456 -0.194739
1.6661071 2.8868589 -0.256477
1.84246 3.226964 -0.323948
1.4977551 2.6517601 -0.21379399
1.474175 2.6242299 -0.156262
1.709251 3.0509861 -0.141234
1.692314 3.0289919 -0.095496997
2.302249 4.1206861 -0.129915
1.774943 3.185576 -0.047901999
1.626649 2.927413 0.0080270004
1.679163 3.030211 0.066770002
1.7356859 3.140805 0.134241
1.884202 3.41892 0.221057
2.9597881 5.3705902 0.34724599
1.742265 3.170083 0.27834201
1.571787 2.8677771 0.32114899
1.448053 2.6493111 0.36328501
1.579951 2.898628 0.47321701
1.577042 2.901299 0.55182099
1.442064 2.6603341 0.57933801
1.575104 2.913847 0.71684402
1.608668 2.9842119 0.820252
1.8002011 3.3487411 1.018484
1.5429209 2.878161 0.96062601
1.72611 3.2288949 1.174225
1.8868181 3.5394051 1.3932149
2.2498729 4.2204442 1.661292
2.685806 5.0381908 1.983182
1.830268 3.4429531 1.458342
2.3266339 4.376678 1.853842
1.9603519 3.69803 1.677103
5.8067141 11.015631 5.6446009
2.1757939 4.1392579 2.2397971
1.995288 3.8065929 2.1664829
2.478668 4.7287798 2.6913359
1.9278409 3.688334 2.1989701
2.454138 4.69524 2.799284
1.814979 3.482269 2.1667669
2.38517 4.576252 2.8474751
2.333358 4.489563 2.9042749
2.327529 4.4911079 3.009577
2.2759941 4.4041848 3.046927
2.2806311 4.4257588 3.14885
2.2568569 4.3921628 3.2032011
2.246124 4.3963771 3.3317759
2.2230821 4.479033 3.3142371
2.2222381 4.4904261 3.2500031
2.226687 4.5125952 3.1825249
2.232908 4.5385008 3.1087141
2.224004 4.5336938 3.0044639
2.2089901 4.5163488 2.8858559
2.2067261 4.5250521 2.7779059
1.741763 3.5821691 2.1046021
2.237035 4.6007619 2.703047
1.793833 3.700197 2.072855
2.274477 4.7055559 2.5033021
2.311986 4.7973752 2.4139841
2.339458 4.868854 2.3076119
1.922225 4.0124502 1.782735
2.373276 4.9687791 2.059474
1.649349 3.4634931 1.332512
1.862753 3.9233589 1.392885
1.535114 3.243001 1.055447
1.668007 3.5343699 1.046948
1.524048 3.2390771 0.866108
1.427062 3.0421219 0.72720897
1.399707 2.992857 0.63255203
1.480504 3.1752269 0.58544397
1.876472 4.024457 0.742024
1.66282 3.5770831 0.565449
2.6020939 5.5976639 0.88485301
1.639816 3.5383601 0.469248
2.58079 5.5687742 0.73851502
1.678853 3.633652 0.39308
2.5762999 5.576057 0.60320401
1.54883 3.3624909 0.28486401
1.424929 3.1029971 0.193354
1.477096 3.2264791 0.132746
1.369903 3.0015531 0.063589998
1.396069 3.0683169 0.0080800001
1.4308 3.1543679 -0.045497999
1.4687231 3.2480121 -0.098109998
1.439672 3.193645 -0.14147601
1.4200521 3.1599159 -0.179851
1.404562 3.1351969 -0.212387
1.34999 3.032249 -0.25540301
1.326341 3.0168099 -0.28729701
1.635407 3.7672291 -0.28830299
1.373723 3.1846809 -0.180059
1.377854 3.2044899 -0.140871
1.436162 3.3508179 -0.100339
1.479036 3.4619689 -0.049451001
1.484539 3.4860549 0.0090819998
1.41966 3.344491 0.070026003
1.402975 3.3158901 0.13469
1.481275 3.512315 0.215855
1.387485 3.3006461 0.27550399
1.5207061 3.6293581 0.38643399
1.361354 3.259665 0.42504701
1.396885 3.3557141 0.52103603
1.491925 3.5957971 0.65054899
1.32683 3.2084129 0.66470701
1.4280109 3.4644871 0.81097102
1.4153529 3.445132 0.90114802
1.485379 3.6274509 1.050053
2.220747 5.4232988 1.569904
1.873085 4.589469 1.458153
1.694567 4.165906 1.442358
1.671284 4.1223831 1.545136
1.640799 4.0607319 1.638051
2.078017 5.1427832 2.074537
1.561795 3.8781919 1.675243
2.054884 5.102612 2.20415
2.007247 5.0010839 2.3021121
1.977195 4.942812 2.4131579
1.943139 4.8741121 2.513238
1.923582 4.8414011 2.6260669
1.900043 4.7983928 2.7268729
1.867976 4.7334909 2.8078589
1.84487 4.6908932 2.8933229
1.820178 4.6439662 2.9676499
1.7968971 4.6002898 3.035408
1.798105 4.6192112 3.134953
1.761665 4.5412211 3.1596651
1.748304 4.5380239 3.2819891
1.703486 4.4837341 3.3561261
1.708974 4.5619459 3.3354559
1.729912 4.6507258 3.2888229
1.738043 4.6892519 3.2440169
2.887619 7.8749728 4.990396
2.77422 7.5929952 4.6401701
3.1429839 8.6022987 5.2569671
3.7988131 10.510902 5.6338449
2.3473401 6.518517 3.3184409
2.2278061 6.254909 2.660527
1.523896 4.294353 1.70426
2.411922 6.7968168 2.6973889
1.413795 3.998842 1.473277
1.469195 4.1709499 1.418232
1.326633 3.780236 1.178488
1.689008 4.830801 1.370917
1.223888 3.5135889 0.90020698
1.596042 4.581985 1.173938
1.344522 3.8743961 0.887541
1.189971 3.4419611 0.69723701
1.320438 3.8337519 0.67757899
1.384984 4.0363789 0.61170602
1.093142 3.197952 0.40664899
1.17512 3.45087 0.35799399
1.343997 3.961875 0.32192001
1.247224 3.6907139 0.220604
1.259679 3.7418971 0.147699
1.201611 3.5831859 0.072839998
1.174853 3.5169449 0.0088879997
1.110999 3.3386979 -0.046220001
1.16246 3.506959 -0.101687
1.270974 3.8492949 -0.16371
1.321366 4.0175872 -0.219565
1.1525069 3.5179579 -0.228862
1.451121 4.42946 -0.28816
1.242069 3.821331 -0.30918401
1.080904 3.3788631 -0.30926999
1.065402 3.384542 -0.249088
1.1069241 3.545208 -0.192812
1.064227 3.4224319 -0.14474399
1.037943 3.351634 -0.09657
1.10507 3.5831399 -0.049254
1.074281 3.497731 0.0087700002
1.1247 3.6771281 0.074111
1.215066 3.989136 0.15599801
1.74966 5.7442422 0.22463199
1.1719559 3.8637011 0.228633
1.078241 3.5696869 0.286935
1.07727 3.581502 0.36727801
1.139203 3.8034179 0.47772899
1.40214 4.6812768 0.58799303
0.99502999 3.33619 0.499042
1.1602859 3.9068329 0.681041
1.264508 4.2759609 0.85368299
1.044953 3.548708 0.80060601
1.297585 4.4256272 1.115853
1.133171 3.881398 1.083174
1.235314 4.2495952 1.3018121
1.6769 5.7686892 1.767168
1.6368721 5.6555052 1.8882281
1.6238461 5.634984 2.036994
1.6113549 5.6161308 2.185236
1.602708 5.6105828 2.3380499
1.596158 5.6123099 2.492645
1.963496 6.9345012 3.2669489
3.081496 10.931412 5.439877
1.762221 6.3358068 3.62867
1.7054141 6.1592498 3.668427
1.705879 6.188889 3.819494
1.720279 6.2695298 3.9957221
1.6897579 6.186429 4.0559292
1.721278 6.33077 4.2556968
1.917574 7.4619241 5.1064329
2.6442831 10.491695 6.437407
1.953898 7.790606 4.610301
1.5179729 6.0824342 3.4590969
1.333877 5.3981171 2.802968
1.332478 5.4194598 2.673069
1.3289 5.4320941 2.534951
1.328849 5.4593682 2.4003251
1.346316 5.5592031 2.291929
0.89406502 3.7105899 1.427514
1.362269 5.6537552 2.175077
0.88480002 3.6909709 1.318403
1.374324 5.7330389 2.047822
1.397881 5.8613071 1.9325089
1.486091 6.2633801 1.8935961
0.96682799 4.0960479 1.127422
0.93584597 3.985477 0.99050999
0.88394302 3.784168 0.84100699
1.031458 4.438971 0.872486
0.84407002 3.6517489 0.62632
0.93934602 4.0855532 0.60092199
0.92610002 4.04949 0.49983001
0.872168 3.8341391 0.386141
0.86866099 3.8393209 0.30289301
0.82854199 3.681881 0.213707
0.86386102 3.8597431 0.14796001
0.84135097 3.779773 0.074631996
0.901959 4.074347 0.010002
0.84684598 3.8465431 -0.051736999
0.80706698 3.6862559 -0.103861
0.83304697 3.8261709 -0.158142
0.86768198 4.0076241 -0.21287701
0.888798 4.128346 -0.261071
0.98146403 4.6107631 -0.362735
0.892685 4.291513 -0.382137
0.79664201 3.9210441 -0.28088
0.73612303 3.6668041 -0.19416
0.72619301 3.6392281 -0.14986899
0.827106 4.170157 -0.117012
0.807414 4.0958152 -0.054837
1.078938 5.473186 -0.073278002
0.82233799 4.1971879 0.010251
1.10882 5.6593828 0.013823
0.77087402 3.9588971 0.077734001
0.81410903 4.2069559 0.16029701
1.034723 5.3469939 0.20373499
0.74702901 3.8844841 0.223997
0.69060498 3.6137271 0.283099
0.77798098 4.096725 0.40949899
0.679515 3.601016 0.44093499
0.71928698 3.8362539 0.55948901
0.75182498 4.035645 0.68598503
0.78688997 4.251266 0.82773399
0.65722603 3.573947 0.78643399
0.79723501 4.3637791 1.073288
1.018296 5.6102881 1.527467
1.170009 6.4890041 1.939595
0.69115603 3.8589129 1.257292
1.170303 6.5781078 2.320822
1.902405 10.765592 4.0888219
1.028854 5.9022031 2.5594299
0.97927803 5.656601 2.602247
0.95264202 5.5410562 2.69294
0.92828298 5.4371548 2.780462
0.91244698 5.382051 2.8843091
0.89664 5.3263712 2.9803309
0.881468 5.2736282 3.0690529
0.86794198 5.230083 3.154278
0.85883898 5.212688 3.246949
0.85185099 5.2079501 3.3375349
0.83877999 5.1657219 3.394762
0.81805801 5.1131039 3.494561
0.78689498 5.06919 3.5894611
0.76210099 5.064539 3.5066359
0.75554001 5.1014428 3.4181001
0.755463 5.1421032 3.371361
0.75576901 5.1860361 3.3145511
0.75455201 5.2201939 3.241713
0.75368899 5.2573161 3.159903
0.76006103 5.3459311 3.0994201
0.76617497 5.434248 3.0281601
0.789617 5.696209 2.8988459
1.393406 10.138383 4.9016342
0.73574001 5.4469948 2.3480761
0.79430002 5.932447 2.3983059
0.80548799 6.0695601 2.289978
0.85748303 6.5194521 2.2840719
0.89490098 6.8655672 2.2204919
0.57305902 4.4366112 1.315922
0.61643702 4.8165002 1.300792
0.579925 4.5733638 1.115382
0.53310901 4.2436309 0.92561501
0.50141197 4.0291791 0.77733999
0.528162 4.284708 0.72142202
0.56682301 4.6427178 0.67044997
0.49803299 4.1190739 0.49923301
0.55287802 4.6176481 0.45670301
0.58714902 4.9525738 0.383757
0.464625 3.9584401 0.225693
0.58916199 5.0194449 0.28618601
0.45871499 3.9476581 0.148671
0.45721599 3.975049 0.077117004
0.51376599 4.512836 0.010887
0.490125 4.3500981 -0.057503
0.48160401 4.3195891 -0.119625
0.473533 4.292439 -0.174404
0.47686201 4.3691349 -0.22817101
0.59117401 5.4164972 -0.282868
0.56290799 5.2136889 -0.324195
0.44435 4.2070928 -0.325526
0.43765 4.3364401 -0.37996599
0.51466697 5.3480711 -0.377168
0.40272599 4.2893338 -0.22366001
0.40930501 4.4144511 -0.17904399
0.38294101 4.1829171 -0.115608
0.37044901 4.0989389 -0.054062001
0.380027 4.2600708 0.010251
0.38789499 4.406137 0.085248999
0.37687701 4.3386159 0.16291399
0.381138 4.4475479 0.252774
0.350604 4.1479039 0.32030901
0.35837799 4.299336 0.42366999
0.36352399 4.4230762 0.53399599
0.34412599 4.2475238 0.61085498
0.32855499 4.1146669 0.689776
0.31393799 3.989979 0.76624602
0.36512101 4.710494 1.0224921
0.337017 4.414412 1.071171
0.48047999 6.2935662 1.527154
0.35030699 4.6591072 1.251628
0.442211 5.8814368 1.579996
0.33057401 4.4660468 1.317333
0.68985403 9.4695644 3.0450461
0.412938 5.760715 2.006151
0.31712401 5.3895092 3.318161
0.41535899 7.0590072 4.3460212
0.40512601 7.0242548 4.4498692
0.29308 5.186511 3.3697281
0.27972299 5.1630998 3.489526
0.241254 4.8723941 3.4134569
0.226282 5.0447001 3.457485
0.21709201 5.1049628 3.38661
0.217283 5.2532148 3.4105439
0.293212 7.51192 4.6203971
0.26701301 7.5127921 4.1480179
0.25903901 7.7992969 3.9336989
0.238897 7.4538598 3.572011
0.29462901 9.9126081 4.2365141
0.157654 5.7543921 2.153007
0.27893299 10.632928 3.6946771
0.111284 4.4388409 1.424035
0.105981 4.432868 1.304352
0.16867 7.0549932 2.0759001
0.10039 4.651669 1.125729
0.124864 5.785677 1.400166
0.095495 4.6767349 1.012339
0.077505 4.0251369 0.77075899
0.18988299 10.494737 1.7540261
0.080117002 4.7319469 0.67839599
0.069982 4.4384298 0.53411603
0.069252998 4.741683 0.46569499
0.067642003 5.0316701 0.387209
0.057016999 4.6432109 0.26295
0.056134999 5.0491562 0.188894
0.049201999 4.9428372 0.09527
0.044741999 5.088789 0.012198
0.037246998 4.8814368 -0.064122997
0.031287 4.8380671 -0.13316201
0.023699 4.4672961 -0.180416
0.019012 4.5887809 -0.23822901
0.015347 5.1501451 -0.31839499
0.0034640001 5.2783952 -0.40615901
-0.02383 5.9663229 -0.52013999
-0.041090999 4.7541218 -0.33375099
-0.051709998 4.7143669 -0.24476101
-0.055605002 4.5839262 -0.185137
-0.074216999 5.5833921 -0.153686
-0.087012 6.5459428 -0.180181
-0.074217997 5.1340208 -0.067446001
-0.077924997 4.989377 0.01196
-0.087018996 5.185307 0.099951997
-0.089464001 4.9857101 0.18653899
-0.098508 5.155798 0.29201001
-0.102688 5.0659809 0.38989401
-0.105494 4.9221869 0.483482
-0.107875 4.7743359 0.57461298
-0.130584 5.496253 0.78808099
-0.115713 4.6431561 0.776142
-0.121646 4.6636839 0.89317
-0.12738401 4.6749969 1.012127
-0.13083699 4.6052122 1.114677
-0.27920401 9.0875111 2.6744571
-0.32806799 10.288348 3.3012691
-0.25604799 7.7474418 2.6925859
-0.29329801 8.0273647 3.431561
-0.29674199 7.4136882 3.7401421
-0.25882 6.2837548 3.3229821
-0.25893801 6.11379 3.3764851
-0.29081801 6.6830139 3.8396771
-0.26655 5.2783341 3.5667231
-0.27340999 4.9568601 3.473654
-0.47911599 7.2983141 4.4952521
-0.54115999 7.2170048 3.0917439
-0.432841 5.6839538 2.2841179
-0.79785401 10.319004 3.870929
-0.77744299 9.9052038 3.4512091
-0.69494402 8.7242861 2.8068421
-0.68888301 8.4015751 2.258209
-0.82654899 10.080542 2.7094879
-0.81785297 9.8343182 2.387619
-0.50445998 5.899929 1.1336679
-0.52139401 6.0157199 1.009034
-0.52915698 6.0239921 0.86683202
-0.50149298 5.6339269 0.68057603
-0.485111 5.379189 0.53039402
-0.476753 5.2187772 0.40324399
-0.50085598 5.4131689 0.30783999
-0.48895201 5.2184768 0.196072
-0.46297699 4.880178 0.09448
-0.64376998 6.7031379 0.016140999
-0.603993 6.2131729 -0.081998996
-0.61524397 6.253428 -0.17294499
-0.63153601 6.3434439 -0.257449
-0.64046103 6.3582191 -0.33175799
-0.62725002 6.1553111 -0.38250601
-0.692352 6.6412702 -0.513798
-0.640163 5.8758121 -0.51527703
-0.82198298 7.2325268 -0.51099002
-0.77492702 6.6801462 -0.34912601
-0.76321 6.5130901 -0.26483399
-0.84193897 7.1849418 -0.29215199
-0.73985302 6.2509851 -0.17324799
-0.75398302 6.307548 -0.083443999
-0.68179101 5.6479821 0.013636
-0.84900498 6.9651442 0.135235
-0.69503599 5.6474109 0.21285699
-0.72225499 5.8129182 0.331698
-0.861422 6.8677258 0.53259498
-0.75553399 5.9674268 0.59069502
-0.75950801 5.94345 0.720954
-0.81693298 6.3342552 0.91550201
-0.96406198 7.475049 1.0803829
-0.81075603 6.2293558 1.049745
-0.82003403 6.2440062 1.205686
-0.88925099 6.7106261 1.464993
-1.360513 10.176224 2.484036
-0.997639 7.3329048 2.17693
-1.045745 7.5549479 2.6492741
-1.164256 8.4111261 2.949508
-1.018342 7.2331009 2.9268401
-1.388935 9.7830172 4.2211928
-1.00631 6.971467 3.373734
-1.4687231 9.6962337 6.0273561
-1.612865 9.3907518 5.856133
-1.660951 9.603837 5.798779
-1.219812 6.8629022 3.513726
-1.85206 10.281339 4.735487
-1.745728 9.3783169 3.0593989
-1.366281 7.2927642 2.182574
-1.191802 6.2411308 1.375097
-1.2357039 6.4304218 1.253635
-1.3355089 6.8213582 0.83635497
-1.32241 6.7130761 0.67190999
-1.312314 6.6212502 0.51939899
-1.309695 6.5679631 0.37924501
-1.4360549 7.158267 0.27311799
-1.354334 6.710423 0.13194001
-1.471814 7.249073 0.017729999
-1.541941 7.5494771 -0.101215
-1.446865 7.0421801 -0.197871
-1.44612 6.9973049 -0.28856099
-1.2697639 6.0030408 -0.472139
-1.18197 5.4623861 -0.487225
-1.456133 6.5812478 -0.47317499
-1.827051 8.1232824 -0.33625799
-1.6055599 7.0999689 -0.200348
-1.641336 7.2191262 -0.097248003
-1.6532021 7.2324381 0.017782001
-1.715278 7.4640231 0.147606
-1.674476 7.2478838 0.278276
-1.847339 7.9121852 0.62519598
-1.929966 8.2229204 0.82945502
-2.0582299 8.723835 1.078505
-2.34832 9.6521807 2.6610999
-2.4277301 9.878705 3.2624841
-2.360275 8.3774128 5.3492718
-2.8159549 9.4465866 2.899657
-2.856029 9.5405397 2.6678281
-3.9598911 12.690223 0.49730101
-1.758044 5.4337959 -0.43945599
-1.63214 4.9658298 -0.45569801
-1.965652 5.8882971 -0.435781
-2.3676031 -7.6951289 2.156774
-2.3628709 -7.7114038 2.372498
-1.858497 -7.5325351 1.296482
-1.847978 -7.5272489 1.111032
-1.840766 -7.5354762 0.93335801
-1.836682 -7.5565858 0.76368099
-1.8252439 -7.5474782 0.59750003
-1.817107 -7.5520229 0.439852
-1.810485 -7.5628719 0.290912
-1.801741 -7.5649552 0.14988001
-1.7928751 -7.5664668 0.018638
-1.7844501 -7.5698471 -0.10216
-1.7795171 -7.588182 -0.214517
-1.768622 -7.5810828 -0.31438601
-1.763 -7.5966048 -0.40485999
-1.753683 -7.5963159 -0.48197299
-1.667918 -7.6255112 -0.54796499
-1.651289 -7.6339288 -0.40548199
-1.646921 -7.6564908 -0.31628299
-1.633361 -7.636313 -0.214929
-1.630625 -7.6668372 -0.102962
-1.623358 -7.6762018 0.018805999
-1.615835 -7.6844969 0.151344
-1.606548 -7.6843672 0.29367799
-1.598879 -7.691998 0.444884
-1.588042 -7.6844301 0.603791
-1.583868 -7.7091179 0.77286798
-1.57757 -7.7236762 0.94853002
-1.573424 -7.7490501 1.133451
-0.95933998 -6.0380039 3.6374669
-1.039699 -7.5548429 1.093153
-1.031621 -7.560905 0.91818702
-1.027732 -7.5979261 0.75292999
-1.015669 -7.5746169 0.58806401
-1.00603 -7.5692039 0.43238899
-0.99818403 -7.577189 0.28590199
-0.99031401 -7.585206 0.147433
-0.98275602 -7.5956659 0.018358
-0.97694999 -7.619966 -0.100913
-0.96709502 -7.6129131 -0.211215
-0.95862901 -7.616653 -0.31002799
-0.95055997 -7.6236219 -0.398846
-0.94341302 -7.6382661 -0.47580299
-0.922876 -7.6166129 -0.59036499
-0.88909298 -7.6332479 -0.66995603
-0.85570598 -7.6543632 -0.54068202
-0.83752501 -7.6519361 -0.39962301
-0.82955402 -7.6609359 -0.31119901
-0.82201898 -7.6741781 -0.21242601
-0.815063 -7.6932769 -0.101622
-0.80624098 -7.6948552 0.018545
-0.79719299 -7.694376 0.14909001
-0.789527 -7.7072468 0.289828
-0.78183001 -7.7200809 0.43939999
-0.77155697 -7.7075801 0.59604299
-0.76369399 -7.7190008 0.76172602
-0.75568002 -7.7291312 0.93443298
-0.746131 -7.7237282 1.112309
-2.128258 -23.444555 6.3062682
-2.1023901 -23.460047 6.9286981
-2.076493 -23.475969 7.5584092
-0.64197302 -7.7681031 3.5332429
-1.921957 -23.588194 11.335488
-0.420212 -5.3875771 2.981781
-0.43733799 -6.703536 4.7005262
-0.53234702 -9.1325569 6.063302
-1.171329 -26.375418 10.578878
-1.11054 -26.380117 9.1713972
-1.076568 -26.294676 8.4400702
-1.01634 -26.309038 7.0530529
-0.92400402 -26.276239 5.0337181
-0.63957298 -18.80522 3.1442909
-0.25133601 -7.6496382 1.097126
-0.243982 -7.6965909 0.92654902
-0.235364 -7.7053242 0.75703502
-0.226399 -7.7028928 0.59297401
-0.21788301 -7.716558 0.43713799
-0.209226 -7.7257619 0.28911701
-0.20051201 -7.733964 0.14910901
-0.191875 -7.7456021 0.018571001
-0.183117 -7.7531691 -0.101871
-0.174337 -7.7611022 -0.213664
-0.165741 -7.7778931 -0.31418499
-0.156688 -7.7739501 -0.403667
-0.14796899 -7.787724 -0.48154101
-0.129622 -7.7649608 -0.59757698
-0.093291 -7.7251339 -0.67351598
-0.057847001 -7.7527041 -0.54425299
-0.039855 -7.7334828 -0.40149
-0.031033 -7.7576141 -0.313297
-0.022097001 -7.7610302 -0.213609
-0.013143 -7.7663188 -0.102016
-0.0041860002 -7.7639771 0.018609
0.0047849999 -7.7725549 0.149803
0.013785 -7.7935371 0.291547
0.022746 -7.7844958 0.440813
0.031766001 -7.7919021 0.599572
0.040805999 -7.802361 0.766222
0.049690999 -7.7846899 0.93670303
0.142478 -18.901257 2.709471
0.320104 -26.339998 6.3734112
0.160905 -6.1802158 3.4112689
0.210961 -7.1490402 4.3957648
0.257092 -7.5303049 5.0849299
0.34795499 -7.608902 5.0484238
0.229715 -4.8991261 3.181433
0.401077 -8.5537758 5.554719
0.411149 -8.3552237 5.141396
0.36448199 -7.236392 4.310864
0.57317799 -7.913043 0.95462298
0.58620501 -7.9650402 0.784302
0.58960301 -7.8866129 0.60854799
0.599621 -7.8975811 0.448502
0.62064397 -7.9312758 0.153329
0.681629 -8.10744 -0.42238301
0.68655998 -8.0543594 -0.499744
0.70288497 -8.0264654 -0.61997902
0.73987103 -8.0213966 -0.702263
0.775895 -8.0066967 -0.56470102
0.794716 -8.0078249 -0.41776901
0.80480301 -8.01513 -0.325322
0.81664801 -8.0395689 -0.222413
0.82640398 -8.0429583 -0.106206
0.83773798 -8.0615664 0.019427
0.84744 -8.0640879 0.156278
0.858648 -8.0808249 0.303996
0.86902303 -8.0894222 0.46071401
0.87806499 -8.0854197 0.62581003
0.89055502 -8.1130075 0.801503
0.89844698 -8.0985432 0.98042601
0.91074502 -8.1235514 1.1717629
0.924492 -8.1609182 1.372465
0.93233299 -8.1459093 1.569723
0.943124 -8.1565704 1.776986
0.953026 -8.159502 1.987605
1.0277129 -8.0698252 3.896426
1.0871069 -8.4582148 4.2987552
1.271759 -9.3799324 5.9866109
1.4349149 -9.2894354 5.7770672
1.437655 -9.2364311 5.5615311
1.449275 -9.1714849 5.123426
1.653993 -10.312287 5.2647371
1.3726 -8.433197 3.8730249
3.8380139 -23.241549 9.4388647
3.8590281 -23.202013 8.7969923
3.8895659 -23.219608 8.1778374
3.916821 -23.217657 7.5513849
3.9395759 -23.18918 6.9191031
1.390843 -8.0736923 1.982196
1.4014601 -8.0795174 1.77466
1.411973 -8.0845728 1.571227
1.419477 -8.0724974 1.369663
1.426192 -8.0561056 1.172756
1.435619 -8.0550518 0.98448801
1.442403 -8.0393391 0.80208999
1.451539 -8.036828 0.62841898
1.4612041 -8.0371647 0.46258
1.4639 -7.9994678 0.30421999
1.473004 -7.9969611 0.156721
1.482149 -7.9947491 0.019489
1.4925441 -7.9992461 -0.106889
1.497853 -7.9765091 -0.22337601
1.512905 -8.0056591 -0.329034
1.520972 -7.997695 -0.42264301
1.52974 -7.9934011 -0.50313801
1.542227 -7.958992 -0.623815
1.579253 -7.9529629 -0.70686603
1.620734 -7.968842 -0.57086402
1.6371551 -7.9553518 -0.421657
1.648029 -7.9615932 -0.32834801
1.659783 -7.9719639 -0.22411899
1.671338 -7.9811769 -0.107112
1.684201 -7.996541 0.019587001
1.69625 -8.0077972 0.15776099
1.7056659 -8.006609 0.30623901
1.714206 -8.0013247 0.46337101
1.729955 -8.0294733 0.63202399
1.7383389 -8.0233545 0.80619401
1.747244 -8.0196686 0.98759401
1.760186 -8.0343752 1.1789989
1.773717 -8.0516243 1.377739
1.786328 -8.0645132 1.581381
1.909188 -8.5257607 2.113888
1.93152 -8.5791864 2.355762
2.062691 -9.1126146 2.748395
2.0037479 -8.8048496 2.8960159
1.995553 -8.7222099 3.107991
2.087327 -9.0750561 3.482785
2.0811591 -9.0005121 3.7016029
2.0620749 -8.8712292 3.890805
2.056217 -8.7998695 4.0963821
2.0595951 -8.7684879 4.314147
2.0909109 -8.855794 4.5868392
2.1006689 -8.8513393 4.806715
2.091377 -8.7669888 4.973177
2.2739601 -9.4837666 5.5979729
2.2901399 -9.5027008 5.8156528
1.562584 -6.4510221 4.0795002
2.298449 -9.4889889 6.0006509
2.32638 -9.5559874 6.2201948
2.347399 -9.5939713 6.4069462
2.378973 -9.6265211 6.692081
1.512774 -5.830924 3.9926641
2.4732189 -9.4877672 6.3601451
2.480294 -9.4700289 6.1913309
6.2926369 -23.580091 13.466324
2.4833651 -8.8915815 2.7156589
2.4940839 -8.8902102 2.4734981
2.507566 -8.8986874 2.2368791
2.5193789 -8.9011669 2.002044
2.5281129 -8.8927155 1.769981
2.5339849 -8.8743391 1.542231
2.49066 -8.6845579 1.295069
2.489773 -8.6436796 1.082328
2.5062971 -8.6633682 0.88565099
2.522913 -8.683177 0.69577903
2.5419841 -8.711153 0.51385802
2.5684099 -8.7640104 0.34164
2.5812931 -8.7703257 0.176202
2.5865221 -8.7507172 0.021872001
2.3864329 -8.0395632 -0.110159
2.449012 -8.2154999 -0.23594899
2.4677551 -8.2435408 -0.347516
2.474534 -8.2315254 -0.44623199
2.55882 -8.4762878 -0.54737997
2.4180641 -7.9435711 -0.63892901
2.6221099 -8.4729033 -0.77321899
2.6489601 -8.4214859 -0.61974299
2.6324739 -8.301897 -0.452142
2.620136 -8.2299433 -0.34880701
3.1810889 -9.7570887 0.58113599
4.510263 -13.779788 1.115671
4.5439401 -13.828565 1.4294339
4.5667801 -13.84407 1.754064
2.883436 -8.6735306 1.527397
2.881568 -8.6345434 1.742716
2.892679 -8.6345282 1.970739
2.891839 -8.5989952 2.195019
2.9100361 -8.6202641 2.4372711
2.923481 -8.6271877 2.6795371
2.9168811 -8.5750608 2.9048719
2.9031439 -8.5024443 3.1207881
2.9083359 -8.4855766 3.3549221
2.893857 -8.4115906 3.5643549
2.8636 -8.2924871 3.747807
2.8247831 -8.1495523 3.90977
2.790776 -8.0214386 4.0679202
2.746433 -7.8646951 4.199276
2.6935749 -7.6847939 4.3026381
2.9532061 -7.895309 5.5870771
2.650481 -7.061111 4.8924189
2.6926031 -7.1482139 4.8309808
2.737956 -7.2432008 4.7591548
3.0792589 -8.1461105 5.3524132
3.1052849 -8.1863537 5.2092381
3.1093819 -8.1686811 5.0170188
3.1482799 -8.2421789 4.868341
3.332521 -8.6943731 4.9197698
3.3655691 -8.750288 4.7259302
3.3762839 -8.7479668 4.4912572
3.3961611 -8.7692957 4.262764
5.5891681 -13.76617 1.459047
3.4298201 -8.2285357 -0.36002499
3.397815 -8.1253042 -0.457223
3.3612809 -8.0118847 -0.53713697
3.5116169 -8.3163061 -0.694628
3.4918399 -8.163909 -0.77408803
3.58935 -8.285738 -0.63388801
3.5422759 -8.1255093 -0.46017799
3.569561 -8.162343 -0.35978299
6.17485 -13.771412 1.4821121
10.742627 -23.448933 6.909441
10.785501 -23.257435 9.5883427
4.8495131 -10.362822 5.1863279
11.010287 -23.386377 13.029955
3.4924681 -7.2647519 5.2287388
4.148911 -8.5793142 6.4314008
4.201283 -8.486105 6.4833498
3.561343 -7.1517868 5.2953758
4.3756542 -8.7363186 6.1795721
11.800276 -23.223297 13.76377
4.1520271 -8.1479158 4.609796
11.934398 -23.088612 9.7207603
7.3020101 -13.734358 1.8716151
7.3246312 -13.738519 1.5289249
7.3230739 -13.697382 1.195154
4.9188251 -9.0736141 -0.135575
4.4685302 -8.1975851 -0.37705401
4.3803201 -8.0136766 -0.474125
4.4739728 -8.1625175 -0.57545602
4.4525542 -8.079011 -0.70981902
4.4760122 -8.0333023 -0.80170602
4.558332 -8.0926628 -0.652026
4.5969238 -8.1171446 -0.48428699
4.9685402 -8.7026882 -0.131634
5.0222468 -8.773159 0.02423
7.9938059 -13.778391 1.5643049
7.7799358 -12.854943 7.5743618
5.4484868 -8.5269775 6.3997941
4.8061709 -7.4834428 5.2915592
8.1845951 -12.711401 8.6779795
5.4327312 -8.331028 4.5084152
6.6799641 -9.9636393 2.004554
9.2372942 -13.640931 1.267655
9.2538166 -13.597315 0.61528099
5.8751831 -8.5899496 0.024944
6.0831141 -8.8718843 -0.14130101
5.7304811 -8.2955914 -0.52342999
5.5817509 -8.0602732 -0.60612297
5.6856928 -8.169858 -0.76590198
5.7582741 -8.192853 -0.87300903
5.7484651 -8.0988283 -0.69719303
5.894269 -8.2635832 -0.52695501
6.3829489 -8.9268036 -0.44319201
6.4497252 -8.9761286 -0.145189
9.8417749 -13.630066 0.32402101
9.8495703 -13.607615 0.62840199
9.9097958 -13.657479 0.95551902
9.9609118 -13.694474 1.303023
5.5350189 -7.3383751 4.1665678
8.5670376 -11.249559 7.8022938
5.4194188 -7.0484481 5.623138
5.831893 -7.4590931 6.6251101
5.4948578 -6.9119282 5.7277761
5.783936 -7.1897721 5.0915399
11.522225 -13.85712 3.450269
11.4633 -13.593196 1.00691
11.483559 -13.58531 0.66544801
7.3846569 -8.6953182 0.027344
7.5865922 -8.9121828 -0.15374
7.6075029 -8.8949566 -0.472689
6.9536462 -8.092453 -0.65961999
6.9767938 -8.0815039 -0.82152402
7.1136532 -8.1633348 -0.94396502
7.1061692 -8.0789642 -0.75531602
7.7934151 -8.819047 -0.61099601
7.748126 -8.7473917 -0.47192299
7.742105 -8.6999435 -0.152978
12.109644 -13.544574 0.35016999
12.15242 -13.560825 0.68118602
12.209168 -13.59249 1.034613
11.526406 -12.654558 3.2770879
6.4807792 -7.000268 3.56791
9.2345715 -9.8594408 6.809588
6.4393349 -6.8431602 5.1847811
8.8322058 -9.3425512 7.6492138
9.1356335 -9.6410913 8.1631889
5.2256608 -5.4132552 5.264658
11.12309 -11.336694 10.302378
8.8676682 -8.9961004 7.76367
8.945982 -9.0545216 7.573029
8.9851017 -9.0519991 7.0375242
9.2580395 -9.3053608 6.9356089
11.643693 -11.32909 2.7147679
14.078613 -13.508721 0.72989601
9.2013636 -8.7269392 -0.51215398
8.5336514 -8.0561142 -0.72552103
8.4721794 -7.9610019 -0.89456201
8.7330894 -8.1301708 -1.040194
8.6782494 -8.0042706 -0.82877499
9.6893158 -8.8952856 -0.682854
9.4586754 -8.6633539 -0.51800501
10.11819 -9.2243233 -0.179851
11.573736 -10.283906 3.3507011
11.237508 -9.9387856 4.0188198
9.3475571 -8.1330566 5.6165271
9.2654476 -8.0427494 5.876605
9.7205391 -8.3983679 6.7875161
9.7674971 -8.4191694 7.1153049
9.6683846 -8.3142338 7.3194308
7.0460458 -5.8630009 6.2760129
9.2550898 -7.5391459 6.3072648
11.631559 -8.9484892 -0.403914
10.665754 -8.107523 -1.030895
10.620297 -7.995532 -1.158917
11.618272 -8.6627665 -1.017359
12.004153 -8.9072514 -0.77601999
10.181554 -7.140728 5.6371698
10.474024 -6.7291059 4.324347
10.616665 -6.7860441 3.706481
13.054136 -7.9239278 -1.175053
14.487748 -8.5206671 -0.46259901
14.964049 -8.6612654 1.330412
15.00419 -8.6613073 1.7013251
15.030026 -8.6530209 2.086766
15.032174 -8.631053 2.48471
14.947007 -8.5591421 2.8782699
11.24353 -6.3694978 3.4617071
10.977889 -6.2022219 3.7090211
15.34752 -7.6886721 5.0494952
15.48866 -7.7369132 4.6380348
6.051455 -2.4563279 4.5698128
9.1754036 -3.637857 6.4025931
10.15349 -3.125015 4.8155808
10.051713 -3.0809059 5.0355468
10.111241 -3.0863171 5.3291059
9.9822016 -3.0342679 5.512609
9.8541231 -2.9828291 5.6809392
6.564127 -1.978637 3.9352579
8.743866 -2.63568 5.242033
8.3587284 -2.5089929 5.1923642
8.4500322 -2.5257111 5.4204831
8.6819916 -2.58407 5.7289729
8.5496321 -2.5338609 5.7843742
8.4760447 -2.4906609 5.9620662
8.5919704 -2.4814191 6.2576218
8.3204279 -2.3611839 5.9217911
8.3979139 -2.362107 5.7820969
8.628109 -2.4160509 5.8121281
8.8062811 -2.4549241 5.7818899
9.5400019 -2.647516 6.0849528
6.4065738 -1.7699291 3.9544799
6.5226178 -1.793842 3.882987
6.5329161 -1.788509 3.737371
6.3322439 -1.725673 3.4678049
9.6412535 -2.62745 5.2799578
10.067723 -2.7311051 5.2584348
10.103602 -2.7282519 5.0126519
11.838267 -3.167172 5.2351441
12.31126 -3.2784071 5.1049538
12.673389 -3.359091 4.9036431
11.998902 -3.1505041 3.9786241
12.354131 -3.228451 3.7561491
11.956969 -2.4512081 3.269706
12.194094 -2.4850869 3.660764
10.234641 -2.061034 3.6264279
11.396606 -2.2812791 4.3470001
11.21078 -2.230545 4.5801392
11.998334 -2.3727789 5.2249298
11.113996 -2.184504 5.1343079
10.924123 -2.120863 5.6095381
6.3948359 -1.233831 3.4411759
6.7329679 -1.2909631 3.782784
6.6103129 -1.2595 3.862577
6.4435749 -1.219978 3.9018149
6.4050832 -1.204998 4.0056701
6.533978 -1.221404 4.20399
6.5888619 -1.2237459 4.3471241
7.8731461 -1.462276 5.1944542
5.8392558 -1.070518 4.0064101
6.481739 -1.157234 4.6070771
5.7889881 -1.005856 4.0229988
5.9324899 -1.0166121 3.9893489
7.7432098 -1.326903 5.2069812
6.3601041 -1.082299 4.1849499
6.6192431 -1.1185 4.2456832
6.719995 -1.1275001 4.1878891
6.3163099 -1.0522389 3.8097789
6.48245 -1.072192 3.771476
6.9067101 -1.1341259 3.862015
11.874413 -1.9074351 5.7604032
10.355508 -1.6388021 4.4789038
10.339313 -1.623951 4.193687
10.123584 -1.57804 3.8320439
10.634792 -1.645079 3.7379899
10.887839 -1.671297 3.5327539
11.119226 -1.693619 3.3085721
14.551844 -2.1991689 3.9424851
7.197597 -0.67242098 2.7036951
6.958354 -0.64191997 2.8000071
6.7367048 -0.61359501 2.889818
6.9713378 -0.62681502 3.172817
7.248116 -0.63474703 3.667671
9.605444 -0.84118801 4.8605189
7.1047769 -0.605582 3.9344821
7.0996699 -0.59685397 4.089582
6.906476 -0.572537 4.1232128
6.929688 -0.56637102 4.2732391
8.825798 -0.63893402 6.1916919
8.6128683 -0.56327999 5.7207742
6.3017969 -0.404798 4.0962439
7.0658369 -0.445649 4.477664
9.4904881 -0.587511 5.84409
9.5180111 -0.56705803 5.473021
9.6645641 -0.56452698 5.3417931
9.5748863 -0.54814798 5.0673962
9.9204016 -0.55637199 5.0086131
10.11563 -0.55555397 4.8523889
11.003823 -0.59153599 4.9951749
11.045554 -0.56807297 4.4317322
9.9087124 0.100073 3.4420221
10.515857 0.118412 3.933284
9.1555958 0.113738 3.6688721
9.8728533 0.13411 4.21805
9.3227968 0.13746201 4.2264318
9.1114931 0.14493901 4.3646879
9.1122456 0.155531 4.5940409
8.5016251 0.15498 4.4927759
8.5438337 0.165683 4.7151942
6.8830228 0.141469 3.9516859
8.3917389 0.182236 4.9939761
8.3759451 0.211089 5.4349928
8.2104759 0.264173 5.7479539
8.3868933 0.33811 5.4447889
8.179842 0.34879699 5.03196
6.8333778 0.29932901 4.0695248
8.3281517 0.364806 4.9597182
9.0996208 0.419781 5.02632
9.0870409 0.42977101 4.806715
9.6755009 0.46887401 4.8830261
9.6302032 0.47788399 4.618258
4.0369058 0.20502301 1.832266
4.1693692 0.216609 1.783547
4.2695222 0.22678199 1.713182
9.6630735 0.52451599 3.619406
11.06923 0.61374801 3.8508639
16.051601 0.98350197 3.4803629
13.273091 1.372003 1.310396
11.603614 1.213048 1.403801
11.240822 1.188331 1.62029
9.3444595 0.99882501 1.570415
11.389019 1.244132 2.4794469
11.329731 1.264161 3.053899
4.1993451 0.47349501 1.243113
4.5309048 0.516213 1.462514
4.2689552 0.49138901 1.492637
3.928 0.456763 1.47901
4.0499778 0.475719 1.633957
4.250021 0.50421798 1.828333
4.1834168 0.50124103 1.909883
8.1145267 0.972251 3.7045791
4.0452132 0.489452 1.951669
4.0994692 0.50084502 2.0818579
4.0014758 0.493588 2.130296
8.5347271 1.05277 4.5436978
3.7777431 0.47044799 2.10058
4.1330209 0.51956397 2.3910241
3.8467481 0.48811901 2.3070359
3.862731 0.49470299 2.3934529
3.91013 0.50538802 2.49353
3.8899851 0.50738102 2.5447111
3.960525 0.52593601 2.6962991
6.8635411 0.91144001 4.6726532
4.0000682 0.550111 2.8252461
6.654335 0.91513997 4.6999531
3.890084 0.553406 2.690285
3.9317241 0.56865102 2.6330481
3.9416561 0.57475901 2.583894
6.7775221 0.988276 4.442904
3.7987211 0.55842102 2.428319
4.0721698 0.60345501 2.530117
3.727098 0.55673999 2.242099
6.8558202 1.024098 4.1242352
3.6491511 0.54942799 2.1182189
3.7101619 0.563025 2.070627
4.0046902 0.61247599 2.140574
3.8443489 0.59252697 1.960773
3.8954329 0.60503101 1.888168
4.1482682 0.64923298 1.903278
3.8842161 0.61253297 1.679835
3.8723719 0.61527199 1.571098
3.93435 0.629803 1.49022
4.3728909 0.705217 1.538574
4.2493072 0.69034803 1.380669
7.5436721 1.225556 2.451062
3.9584019 0.64780402 1.179899
9.3535118 1.541895 2.5394821
6.8057661 1.130024 1.669193
9.2301731 1.543581 2.0253119
9.2910213 1.56486 1.803827
9.0728054 1.538939 1.53778
9.0676355 1.548892 1.3186229
9.1447687 1.573009 1.1164941
9.0706596 1.571103 0.90402502
8.6329041 1.5573111 -0.115229
9.6760321 1.757098 -0.27067
8.9787884 1.641252 -0.36862001
9.4941292 1.7582541 -0.59692901
9.0490656 1.741128 -0.80335599
8.4832954 1.673164 -0.60699803
8.3105841 1.659166 -0.43995899
8.4012308 1.6874059 -0.34606299
8.1364202 1.6440459 -0.228466
8.3015013 1.687447 -0.111276
9.6814814 1.991387 0.190501
8.7941895 1.830169 0.50865698
8.9919567 1.882233 0.70690399
8.4560547 1.780304 0.84860998
8.3541698 1.7689821 1.027495
8.9836531 1.913187 1.316637
8.7080278 1.8650579 1.488169
6.6595492 1.434407 1.304216
6.848937 1.483532 1.5166039
6.7855129 1.478042 1.680246
4.4631009 0.97754598 1.22394
3.851594 0.84829497 1.160145
4.4858069 0.99344599 1.473508
5.5995889 1.240109 1.839365
3.7407579 0.833 1.331199
4.1559749 0.93052602 1.5928611
3.7355609 0.84095597 1.534276
3.454016 0.78178698 1.512872
3.534601 0.80434102 1.643177
3.6037159 0.824476 1.770671
3.4087291 0.78403002 1.763165
3.659389 0.84615701 1.984539
3.7404661 0.86948597 2.1189389
3.8687899 0.90404999 2.280508
3.3490031 0.78669399 2.046778
3.702992 0.87438297 2.338474
3.9553139 0.93881202 2.5710349
3.646915 0.87009102 2.43206
3.5174079 0.84782797 2.4417729
3.7243409 0.91603601 2.68364
3.907172 0.980272 2.7580791
3.6408739 0.92245603 2.4894071
3.530925 0.89896202 2.3634901
3.794255 0.97069597 2.4769599
3.3425829 0.85928398 2.1211729
4.121501 1.059522 2.6154671
3.436507 0.88768297 2.1117151
3.5425479 0.91946203 2.100796
3.6557591 0.95338202 2.0846381
4.6368408 1.2092381 2.644084
3.423737 0.89711899 1.870082
3.6380811 0.95780402 1.896404
3.5050321 0.927127 1.736544
3.557056 0.94530702 1.6683609
3.497936 0.93395001 1.546658
3.6319599 0.97425199 1.506752
3.6536529 0.98461902 1.415254
4.0976682 1.109386 1.4745899
3.89224 1.05862 1.293633
3.6591589 0.999789 1.115839
4.3705511 1.199623 1.214107
5.4492159 1.495693 1.5137531
6.3424888 1.748796 1.5918241
6.1403189 1.700724 1.378904
5.904418 1.642777 1.1733429
5.6007419 1.565292 0.97178501
6.517417 1.821484 1.130837
6.0584722 1.700802 0.902022
5.75351 1.622406 0.71928197
7.1787109 2.0332899 0.73269999
7.2327681 2.057673 0.57862699
5.0504389 1.443163 0.29743701
4.9601431 1.4235899 0.19304401
4.6343961 1.3359309 0.092956997
5.3541012 1.55013 0.01336
5.7339902 1.6673321 -0.078438997
5.634418 1.645483 -0.16155501
5.009707 1.469355 -0.210842
5.9665852 1.7500089 -0.25111401
4.879847 1.43742 -0.26409999
6.1778831 1.819773 -0.33434999
5.6832218 1.681246 -0.36640099
5.736434 1.7114789 -0.46063101
5.484365 1.664062 -0.49964401
5.3961582 1.664706 -0.39642501
4.7221808 1.4688081 -0.25673801
5.9637561 1.854993 -0.32424
5.0997119 1.592731 -0.215765
4.9112272 1.540123 -0.141663
4.9881229 1.5706069 -0.068694003
4.7254591 1.493933 0.011879
4.451263 1.41294 0.090008996
4.7539172 1.5150861 0.186652
4.4103012 1.411216 0.26221499
5.3174648 1.701492 0.31615099
4.8175359 1.547699 0.389357
4.0074449 1.29258 0.413506
3.991663 1.2926069 0.50484699
4.5223918 1.470281 0.68166
4.569129 1.4913419 0.80317301
6.158432 2.010082 1.082545
5.4534569 1.786989 1.098693
5.3560939 1.761981 1.220264
4.6570902 1.538025 1.186637
3.69314 1.22439 1.04229
3.7985289 1.264225 1.177642
3.6586649 1.222401 1.237136
3.954082 1.326207 1.448668
3.6110411 1.2158149 1.4250619
3.5017059 1.1835361 1.481088
3.508631 1.190416 1.5828
3.60902 1.2291501 1.7282259
3.6943309 1.2629991 1.870025
3.4020989 1.167504 1.8131289
4.1056619 1.408947 2.1880889
4.2684121 1.470338 2.385371
3.752656 1.297557 2.190923
3.7648489 1.306668 2.287478
3.5424531 1.2340961 2.231873
3.5827341 1.252794 2.3327141
3.822247 1.341527 2.561949
4.1194339 1.451213 2.8331399
3.9651849 1.4072289 2.839505
5.186924 1.84082 3.7144041
3.845897 1.385046 2.860218
3.839401 1.402886 2.7987549
3.8916581 1.432236 2.748513
4.0600691 1.4995691 2.8075631
3.8236599 1.417298 2.5790529
3.5038049 1.303373 2.297632
3.554621 1.326975 2.2574389
4.2735968 1.595376 2.7140391
3.577558 1.340271 2.1928921
3.595371 1.351712 2.119422
4.1089449 1.55024 2.320435
3.6076779 1.365912 1.944568
3.823386 1.452659 1.959012
3.6407371 1.388101 1.766209
3.896759 1.490904 1.782369
3.435991 1.319188 1.474764
3.9479151 1.520992 1.582352
3.658258 1.414283 1.362371
3.753475 1.456104 1.29119
3.6663229 1.427193 1.157323
4.261158 1.664451 1.225493
4.1074719 1.609917 1.067409
4.231266 1.664106 0.98399502
4.2180738 1.664582 0.86816102
4.3458819 1.720852 0.78108698
5.3894811 2.134088 0.96865302
3.5564539 1.4130369 0.548563
3.5728059 1.4243439 0.46279699
3.6009419 1.440407 0.38086301
3.6466351 1.4635971 0.302356
3.691534 1.4866019 0.225353
3.7746689 1.525175 0.15229701
3.8795331 1.572794 0.080682002
3.8330259 1.559122 0.0099179996
3.8531129 1.572507 -0.054666001
3.769675 1.543569 -0.112114
3.673815 1.509299 -0.160401
3.900012 1.60752 -0.21899401
3.7077961 1.533336 -0.248052
3.655256 1.5215549 -0.304658
3.5138421 1.4818799 -0.332459
3.5877199 1.532702 -0.27387699
3.9835579 1.712761 -0.22511201
3.7111919 1.600762 -0.16322599
3.749481 1.6224411 -0.112444
3.335938 1.448103 -0.047770001
3.5389881 1.541129 0.0092519997
3.6318331 1.586585 0.076384999
3.7489409 1.642929 0.153119
4.0763431 1.792052 0.252152
3.4474959 1.52038 0.28992701
3.538574 1.565455 0.37998399
3.7334111 1.656835 0.49146801
3.7863841 1.685614 0.59411103
3.8879001 1.736217 0.711532
4.3122778 1.9317369 0.90464002
4.2747512 1.9208961 1.0142421
4.0459189 1.823715 1.073758
3.866528 1.748209 1.1367379
3.829406 1.736781 1.236905
4.730185 2.145319 1.527858
3.4652541 1.576483 1.22095
3.662683 1.671435 1.398465
3.4159701 1.563643 1.405095
3.3903561 1.556687 1.49485
3.4262879 1.578004 1.611478
3.3213789 1.534362 1.658453
3.357492 1.555783 1.772398
3.421277 1.590166 1.901805
3.3873529 1.579182 1.9747289
3.3160629 1.550642 2.0199001
3.7304981 1.749718 2.3651371
3.366399 1.58372 2.2134659
3.5873711 1.692765 2.4379611
3.5376999 1.67435 2.4753571
3.59619 1.707152 2.5822611
3.5701201 1.7049429 2.6700079
3.3816631 1.634281 2.6280291
3.464566 1.69424 2.6405699
3.127157 1.538252 2.3098559
3.330004 1.642836 2.408659
3.1663661 1.566679 2.2342889
3.172441 1.574277 2.176676
3.3475671 1.666026 2.224715
3.3398571 1.667029 2.142612
3.6132641 1.808744 2.2295721
3.3511469 1.6824 1.981269
3.3194959 1.671343 1.8734469
3.2291379 1.63055 1.732657
3.220124 1.630692 1.636158
3.29198 1.67189 1.5773
3.1158609 1.586998 1.401119
3.132118 1.599859 1.315415
3.341959 1.7119451 1.304293
3.6217611 1.860586 1.305849
3.15802 1.626986 1.045005
3.1185839 1.611259 0.94033802
3.0420511 1.576193 0.82895303
3.3858659 1.759324 0.82577699
3.684345 1.919858 0.79539102
3.7781379 1.9743119 0.71235698
3.6781139 1.9274811 0.59524602
3.18326 1.672877 0.43269199
3.9883029 2.0959449 0.54211998
3.3403571 1.760386 0.37079701
3.152312 1.6659631 0.274353
3.0867059 1.635884 0.19781999
3.132591 1.664862 0.132708
2.759037 1.470446 0.060256001
2.8248601 1.50974 0.007677
3.30936 1.773621 -0.049320001
2.983181 1.603274 -0.093212999
3.506886 1.8899831 -0.16088501
3.794512 2.0506821 -0.22392
3.8365059 2.0791421 -0.26977199
3.8819499 2.115443 -0.340179
3.0765829 1.69515 -0.30623099
3.0509679 1.699556 -0.245166
3.4485841 1.93156 -0.205204
