# .PCD v0.7 - Point Cloud Data file format
VERSION 0.7
FIELDS x y z
SIZE 4 4 4
TYPE F F F
COUNT 1 1 1
WIDTH 1554
HEIGHT 1
VIEWPOINT 0 0 0 1 0 0 0
POINTS 1554
DATA ascii
0.39388701 5.9958 -0.165379
0.361727 5.6058569 -0.073789999
0.33039901 5.2145281 0.012524
0.33234599 5.3436809 0.103189
0.39558801 6.360527 0.122825
0.30911401 5.0650272 0.18982901
0.32784101 5.4764071 0.31066701
0.33173299 5.6515369 0.43562001
0.31502599 5.475563 0.53860301
0.31620401 5.60957 0.67603701
0.31749099 5.7513661 0.825683
0.31108201 5.7566619 0.96337903
0.34154099 6.605062 1.431361
0.459218 9.2974434 2.493681
0.329 6.821713 2.0090179
0.494032 10.243589 3.016772
0.48704901 10.348778 3.3226459
0.33871001 7.3792729 2.5659299
0.44305101 9.9034262 3.707684
0.452732 10.390305 4.1672788
0.172169 6.0501719 4.0847259
0.07333 8.4213753 4.4497972
0.042631999 6.6774201 3.1983521
0.029104 10.033461 4.02036
0.0058610002 10.147263 3.524709
-0.005661 9.7089081 3.113759
-0.016049 9.2030697 2.7071929
-0.02888 9.937562 2.6621349
-0.035565998 6.8034039 1.472396
-0.039976999 6.2562451 1.197788
-0.049263999 6.524344 1.090291
-0.054825999 6.2934299 0.90216398
-0.058013 5.8753328 0.70697701
-0.067689002 6.1341181 0.602422
-0.071105003 5.8303299 0.44866201
-0.07632 5.7133369 0.32355699
-0.081721 5.628469 0.210576
-0.108108 6.8938718 0.132884
-0.120398 6.6873388 -0.087857001
-0.131731 6.4803782 -0.261767
-0.151484 6.6875138 -0.41354299
-0.17796201 7.1257071 -0.54847598
-0.210418 7.102932 -0.61949599
-0.221792 6.4712648 -0.454548
-0.240594 6.57374 -0.34150499
-0.24198399 6.408205 -0.258982
-0.254002 6.5255852 -0.179741
-0.27684301 6.9058571 -0.090786003
-0.27750501 6.7272592 0.016138
-0.239259 5.6408801 0.108816
-0.26025501 5.9721508 0.22362299
-0.259359 5.796905 0.32858899
-0.272459 5.9351859 0.457178
-0.289361 6.1475892 0.60437697
-0.32893601 6.8198242 0.82154202
-0.33043799 6.689384 0.96005601
-0.32996401 6.5260568 1.091939
-0.33464301 6.4696932 1.240284
-0.52808702 9.9845753 2.1638579
-0.386329 7.147048 1.731747
-0.42282599 7.3485632 2.360667
-0.433175 7.3790622 2.5675709
-0.61593002 9.9024467 4.2384791
-0.566248 8.0472498 4.7996769
-0.63506901 7.8523359 5.5123258
-0.851053 9.555582 6.2230039
-0.88329297 9.6634684 5.9639978
-0.65473503 6.7315302 3.409296
-1.0231839 10.27212 4.679338
-1.045812 10.026748 3.50174
-0.76160598 7.2206788 2.3286009
-0.96589702 9.0567474 2.679255
-1.014711 9.4107122 2.5356009
-1.154506 10.591844 2.5778661
-1.273661 11.438283 2.2034039
-1.01285 8.9079628 1.285136
-0.81882501 7.0554781 0.69751602
-0.79348397 6.7685032 0.52438498
-0.86841297 7.3339329 0.418199
-0.82598102 6.9069209 0.260221
-0.89173597 7.3839679 0.14334799
-0.809201 6.6358242 0.016023001
-0.873164 7.0918331 -0.093859002
-0.87942201 7.0748529 -0.19622099
-0.90379202 7.2026 -0.293161
-0.92255402 7.2163792 -0.44976401
-0.85642302 6.3471899 -0.55835402
-1.154477 8.1283684 -0.42622
-1.121325 7.8296652 -0.31943101
-1.058617 7.3311572 -0.203869
-1.096837 7.5339198 -0.100006
-1.111191 7.5708671 0.018340999
-1.056421 7.1399288 0.139108
-1.161894 7.7903209 0.29464999
-1.197785 7.9675622 0.456247
-1.2585911 8.3063555 0.64644802
-1.767289 11.223361 2.1751981
-1.551192 9.7042503 2.3777421
-1.551613 9.635745 2.6145229
-1.286086 7.7018371 3.1288071
-1.624575 9.6599426 4.1846581
-1.495039 8.4115639 5.2508321
-1.868682 9.546464 6.3100781
-1.66826 8.4188852 5.2749181
-2.169373 10.378214 4.248363
-2.1431961 10.077726 3.304322
-2.3170681 10.250548 0.59509999
-2.3314199 10.149643 0.024961
-1.505374 6.317934 -0.49975801
-1.403698 5.772244 -0.51788199
-1.755689 7.0765152 -0.51183099
-2.145725 -7.6556449 2.129863
-2.136754 -7.65764 2.3386331
-1.346598 -5.5636339 3.518183
-1.335708 -6.0675702 1.038208
-1.6881371 -7.6685071 1.31214
-1.669677 -7.6265669 1.11912
-1.659063 -7.620235 0.93837601
-1.645788 -7.6014638 0.76377898
-1.6329041 -7.5842738 0.59696299
-1.613374 -7.5358829 0.43640301
-1.602584 -7.5279231 0.28792101
-1.581243 -7.4700589 0.147163
-1.564051 -7.4311671 0.018201999
-1.545145 -7.4696441 -0.30805099
-1.530073 -7.4400678 -0.394335
-1.424358 -7.494576 -0.39604601
-1.415717 -7.4962692 -0.30809101
-1.410074 -7.5139418 -0.210417
-1.402898 -7.5236621 -0.100532
-1.394875 -7.5288539 0.018353
-1.388634 -7.5438342 0.147837
-1.379936 -7.5454898 0.28694901
-1.37231 -7.5530472 0.43470699
-1.364395 -7.5591469 0.59105599
-1.355626 -7.5604792 0.75429899
-1.3449039 -7.5508418 0.92284602
-1.3366801 -7.5552421 1.099822
-3.92345 -23.43614 8.2539616
-0.767335 -5.7638178 3.4595311
-0.85489702 -7.55337 1.270276
-0.84503502 -7.5442252 1.088187
-0.833992 -7.5243168 0.91089898
-0.82455897 -7.518537 0.74276602
-0.81200302 -7.4838252 0.57924098
-0.79995501 -7.4531841 0.424474
-0.800286 -7.5383372 0.28358501
-0.76873499 -7.4041791 0.017842
-0.76501799 -7.4521899 -0.098403998
-0.75657803 -7.4548688 -0.20623501
-0.74783802 -7.4544749 -0.30256301
-0.73774898 -7.4404449 -0.388165
-0.730775 -7.4579759 -0.46327701
-0.649064 -7.5184641 -0.52975798
-0.62970501 -7.4964681 -0.39054999
-0.62500298 -7.5449858 -0.305751
-0.61655402 -7.548995 -0.208464
-0.60783798 -7.5499182 -0.099494003
-0.601933 -7.5861349 0.018239999
-0.59258002 -7.5794592 0.14652701
-0.58444399 -7.588203 0.284706
-0.57583803 -7.5909948 0.43108901
-0.567626 -7.5993028 0.58637601
-0.55985802 -7.6137209 0.74970502
-0.55010498 -7.60115 0.91699201
-0.54019099 -7.5860529 1.090174
-1.317415 -18.807489 3.1505539
-1.525957 -23.329792 6.2630548
-1.472553 -23.340296 7.5003839
-1.451685 -23.439651 8.1574926
-1.368523 -23.409878 10.017722
-1.314039 -23.404936 11.227926
-0.30868801 -6.2738662 3.8606279
-0.34918001 -7.2675691 4.6016722
-0.32518399 -9.2034903 6.3053908
-0.17336001 -7.6604538 3.6700699
-0.44194099 -26.213663 9.1067562
-0.41181999 -26.221106 8.4104471
-0.351199 -26.21426 7.023037
-0.066853002 -7.6121511 1.272089
-0.057838 -7.581284 1.086768
-0.049044002 -7.575201 0.911497
-0.040213998 -7.557538 0.74217999
-0.031374 -7.5276818 0.57924098
-0.022678999 -7.5269079 0.426227
-0.014058 -7.5587001 0.28276199
0.012026 -7.5103421 -0.098653004
0.020795001 -7.545114 -0.20766599
0.029561 -7.5617781 -0.305388
0.038240001 -7.553731 -0.392158
0.047047999 -7.5674062 -0.467843
0.135104 -7.6090722 -0.53423899
0.15275501 -7.6132131 -0.39532
0.162001 -7.635056 -0.30841401
0.171886 -7.683167 -0.211518
0.179729 -7.6392269 -0.100374
0.189344 -7.6716418 0.018394001
0.198038 -7.6650181 0.14778
0.207606 -7.6918168 0.287846
0.217208 -7.7175751 0.437195
0.22558101 -7.6989269 0.59266698
0.235723 -7.7401619 0.76045603
0.24462999 -7.739284 0.93168598
0.25397801 -7.751564 1.1117409
0.37318301 -6.53653 4.2469902
0.454772 -6.2992291 4.0967889
0.43858799 -5.7072272 3.285605
0.74422801 -7.6990499 1.108762
0.74939901 -7.659915 0.92607099
0.75654 -7.6417031 0.754103
0.76718903 -7.6589179 0.59228301
0.77811402 -7.6783099 0.43702501
0.79065698 -7.7131581 0.290052
0.80185503 -7.7340999 0.14986099
0.81397098 -7.763423 0.01871
0.82741201 -7.8045859 -0.103093
0.83513898 -7.7914019 -0.215672
0.848517 -7.8307419 -0.31809899
0.85755199 -7.8295698 -0.40890399
0.86766899 -7.8380651 -0.48752701
0.89002198 -7.8734322 -0.60969901
0.96612298 -7.8915148 -0.558119
1.015993 -8.0666418 -0.32834801
1.028289 -8.0888138 -0.22442099
1.0454659 -8.1484966 -0.107913
1.059471 -8.1826735 0.019777
1.062144 -8.129384 0.158012
1.075174 -8.1556807 0.30773401
1.079152 -8.1134338 0.46348399
1.091735 -7.995604 0.97098899
1.135664 -8.2460814 1.193189
1.1628259 -8.2318144 1.799196
1.169273 -8.2088966 2.0061829
1.197449 -7.704083 4.1195068
1.47796 -9.2962074 5.6003909
0.915613 -5.6745148 3.635262
1.667124 -9.3656464 6.1707611
1.023396 -5.71103 3.669472
4.2821078 -23.275698 13.058576
1.5739959 -8.4457741 4.3307152
1.526257 -8.1374092 3.9655421
4.39182 -23.267076 10.733082
4.4426398 -23.241335 9.481266
1.839247 -9.5619612 3.6418259
4.5698991 -23.179775 6.3290391
1.616273 -8.1485577 2.0099449
1.622124 -8.1288357 1.793908
1.631402 -8.1263285 1.586834
1.640517 -8.1230879 1.3848259
1.652503 -8.1339951 1.189783
1.65813 -8.1135693 0.99643397
1.6648771 -8.098875 0.811961
1.676722 -8.1089859 0.63716501
1.680047 -8.0779238 0.46721601
1.688856 -8.0734797 0.30855599
1.699067 -8.0756664 0.159052
1.7020839 -8.0438681 0.019707
1.714564 -8.0568733 -0.108202
1.72066 -8.0398216 -0.226292
1.733398 -8.0538597 -0.33270699
1.743044 -8.0534344 -0.427775
1.750315 -8.042016 -0.50881499
1.766832 -8.0285864 -0.63256103
1.80528 -8.0262794 -0.71720201
1.845037 -8.0294724 -0.57835698
1.859573 -8.0078497 -0.42679
1.871406 -8.0167589 -0.33246401
1.884456 -8.0307398 -0.227035
1.895906 -8.037714 -0.108478
1.909041 -8.0517569 0.019834001
1.916845 -8.0432091 0.159361
1.930269 -8.0582399 0.30997699
1.9429719 -8.0700998 0.47004199
1.953892 -8.074398 0.63923597
1.961948 -8.0669098 0.81528401
1.973166 -8.0724049 0.99989903
1.986517 -8.0864563 1.193614
1.997668 -8.0914831 1.392738
2.0094271 -8.0988922 1.5975519
2.0271599 -8.1301079 1.813368
2.034003 -8.11759 2.024761
5.8616629 -23.279924 6.4309912
5.9717059 -23.60177 7.1615171
6.001369 -23.604137 7.810966
2.2386501 -8.7624865 3.1414599
2.2148199 -8.627636 3.3314509
2.3390679 -8.9397726 4.4260278
2.286422 -8.6975136 4.5332742
2.2614319 -8.562212 4.6791768
2.228334 -8.3975344 4.793942
2.2146449 -8.3072186 4.9348779
2.1920249 -8.1843176 5.0410161
2.181309 -8.1068172 5.1597219
2.32603 -8.6050329 5.6375699
2.3318031 -8.5869427 5.7718568
2.351284 -8.5802383 6.0040212
2.546603 -8.9668407 6.3822241
2.5657189 -8.9553061 6.1743469
2.574703 -8.9476061 6.039607
1.955928 -6.7385678 4.31251
2.746418 -9.4212942 5.8386621
2.7470231 -9.383008 5.6119118
2.736033 -9.3055344 5.3519392
2.7254691 -9.2301846 5.0851479
2.7186811 -9.1681318 4.8204579
2.7035179 -9.0785027 4.537046
2.6473961 -8.8526392 4.1884489
2.656354 -8.8453016 3.945411
2.6836219 -8.8987637 3.724292
2.708174 -8.9427891 3.4946949
2.717555 -8.9364824 3.2444911
2.6977999 -8.834836 2.9625909
2.714493 -8.85287 2.7238431
2.7255349 -8.8523293 2.481261
2.735857 -8.8494864 2.241112
2.7529831 -8.8685598 2.0096591
2.748723 -8.8187885 1.768477
2.75528 -8.8040104 1.541571
2.756139 -8.7711878 1.317914
2.7455721 -8.702342 1.097977
2.7480879 -8.675374 0.89366502
2.7565601 -8.6673222 0.69984603
2.7712369 -8.6786938 0.51589298
2.792922 -8.7118587 0.34223801
2.8056641 -8.7169018 0.17649201
2.8171711 -8.7181025 0.02196
2.8322511 -8.7302837 -0.120562
2.636708 -8.0639601 -0.34263301
2.663929 -8.1154575 -0.443432
2.600904 -7.892632 -0.51375097
2.829144 -8.5189714 -0.69071603
2.8629351 -8.4892664 -0.78103602
2.8741629 -8.331295 -0.45753399
2.8601429 -8.2596903 -0.35300401
2.8847201 -8.2996387 -0.24183699
2.810189 -8.0551424 -0.112064
3.254905 -9.2268801 0.36601299
3.1213119 -8.7513304 0.91242999
3.1129091 -8.6960039 1.111357
3.1193559 -8.6823463 1.322454
3.1331921 -8.689292 1.5435489
3.1433361 -8.6859627 1.768477
3.158361 -8.6960268 2.0022559
3.1681509 -8.6916742 2.2382901
3.194654 -8.7331419 2.4910941
3.2212479 -8.7743788 2.7495241
8.767416 -23.62781 9.4257994
3.1850719 -7.7225761 4.4138241
3.398886 -8.213995 4.4810581
3.4597299 -8.333744 4.3219218
3.474925 -8.3430872 4.0967951
3.6285441 -8.6835728 4.0204458
3.650569 -8.7079611 3.7834311
3.6737089 -8.7348137 3.5440891
9.9670687 -23.469978 7.5007272
9.87185 -23.097038 6.0773401
6.0274439 -13.879588 1.820724
4.1866212 -9.6102343 1.029415
3.7227759 -8.3860245 -0.120522
3.7370861 -8.3920412 -0.25284201
3.6942141 -8.2700176 -0.365796
3.6789401 -8.2103176 -0.46707401
3.8789589 -8.5768013 -0.72431898
3.9568219 -8.6421986 -0.82862902
3.9290941 -8.4777737 -0.65594703
3.8437941 -8.24366 -0.47220701
3.836323 -8.2028561 -0.365715
4.3904161 -9.2754955 0.197785
4.2854838 -8.6116457 4.10923
11.825142 -23.489141 13.895044
4.4678321 -8.8238268 5.6771259
3.8278611 -7.5166469 5.1843319
4.4497342 -8.6879702 6.3318462
4.0480971 -7.8588929 5.965982
3.8916259 -7.469902 5.8935728
4.1015911 -7.7847219 6.024611
4.5655098 -8.616766 6.4632869
3.9328301 -7.3813152 5.289598
4.6712608 -8.7428036 6.0922842
12.572426 -23.270788 13.975398
4.5046391 -8.2918205 4.5197668
7.8555541 -13.842246 1.224691
4.8308511 -8.353919 -0.389725
4.7608061 -8.210844 -0.492737
4.7420568 -8.1567068 -0.58329201
4.7287889 -8.0907211 -0.72109699
4.8331852 -8.1820841 -0.82845497
4.8565369 -8.135335 -0.66512102
4.8833642 -8.1373844 -0.49268499
5.4072561 -8.9165096 0.024994999
5.42344 -8.5366774 4.3205848
5.0566468 -7.8784008 4.9463978
5.7564349 -8.8329153 6.839046
4.358757 -6.6545 5.3685451
4.3941979 -6.5747719 5.4144669
5.9208131 -8.7052383 6.0430231
5.1923938 -7.6152468 5.085743
8.5383205 -12.429357 7.2226419
9.8339396 -13.795226 1.663698
9.8957586 -13.814067 0.96224701
9.9037933 -13.791502 0.63516802
6.2707081 -8.689661 0.025684999
6.4572392 -8.9263344 -0.14471599
6.0901389 -8.3575134 -0.53685802
5.9386239 -8.129755 -0.62241298
6.073945 -8.274683 -0.78983903
6.1012249 -8.2315483 -0.89324498
6.1570401 -8.2268534 -0.72135299
6.2712059 -8.3390198 -0.54167902
6.8177061 -9.0438871 -0.457396
6.8389931 -9.050293 -0.31221399
6.8659821 -9.064126 -0.14936601
10.517769 -13.818346 0.33469599
10.540486 -13.814952 0.650047
10.561529 -13.809326 0.98446602
10.603907 -13.831452 1.341076
9.0658083 -11.328179 7.6662641
9.0266809 -11.252528 7.9597888
5.7759781 -7.1661739 5.4761419
10.16026 -12.166949 10.506224
9.2501583 -10.92195 7.8974671
12.066715 -13.755769 3.05776
12.250953 -13.771591 0.68952298
8.0369606 -8.9506874 -0.33108801
7.9415379 -8.8238478 -0.47942799
7.615737 -8.4421778 -0.590258
7.3574882 -8.1369219 -0.67819297
7.5355411 -8.2951546 -0.86233997
7.6180739 -8.3083382 -0.98269999
7.6022768 -8.2144051 -0.78570801
8.0574961 -8.6659212 -0.61431402
8.2689075 -8.8521137 -0.333399
8.2016239 -8.7597103 -0.157627
13.037397 -13.795908 1.074867
12.689774 -13.365898 1.809906
12.142198 -12.729958 2.521745
12.151393 -12.710109 2.9384301
12.105934 -12.633252 3.349858
12.109543 -12.607732 3.7832611
12.093997 -12.562409 4.2190752
12.177219 -12.590538 5.1524992
12.196027 -12.580744 5.6194859
12.25674 -12.614096 6.1093431
9.4240408 -9.6763506 5.051825
10.226518 -10.451717 6.246737
6.5135188 -6.6108098 4.678216
6.8663678 -6.9527988 5.1631651
9.2902956 -9.3637114 7.5713272
6.648416 -6.6545129 5.949194
9.9345112 -9.4929619 7.260293
9.7639437 -9.3083296 6.8001361
10.133139 -9.6379108 6.6982231
11.971807 -11.099449 3.125531
15.053092 -13.698832 0.39227399
9.850565 -8.9019299 -0.36542401
9.1161003 -8.180788 -0.75723702
9.1217775 -8.1478052 -0.94113201
9.3569937 -8.2802134 -1.089264
9.2869959 -8.1418161 -0.86701
10.792531 -9.4175348 -0.74361598
10.030683 -8.7322989 -0.53709197
10.318445 -8.5909529 5.021698
10.208872 -8.4796896 5.3177071
10.263378 -8.424943 7.0159631
10.30181 -8.4365053 7.3471999
12.264443 -8.9523668 -0.417918
11.409425 -8.2273407 -1.082374
11.373054 -8.1212139 -1.218322
10.698434 -7.1255741 5.4912829
11.764875 -7.2772589 7.3093462
15.387069 -9.1518097 2.566299
15.390856 -8.8903828 -0.92274201
15.191004 -8.7514524 -1.083838
15.316931 -8.5891056 -1.2327631
15.40097 -8.5893526 -0.915483
15.411237 -8.5716848 -0.71218199
15.456732 -8.5735569 -0.48648
15.400319 -8.5189171 -0.231181
15.459621 -8.5283442 0.042319
15.479817 -8.5160761 0.34051499
9.7639303 -3.7940669 6.2323709
6.6145582 -2.5526431 4.4840779
6.5736279 -2.5280809 4.5686159
6.38836 -2.4398379 4.6150351
6.1487079 -2.3156641 4.597331
6.3908329 -2.373049 4.6676049
6.4724669 -2.3862829 4.5721989
6.5251698 -2.3971219 4.5092969
9.6746616 -3.5414081 6.5157838
9.7117882 -3.5422151 6.353569
9.7579498 -3.546236 6.1771498
8.8551302 -3.2065129 5.4058151
9.0323343 -3.258821 5.2983131
9.2788935 -3.3356221 5.2098818
12.970471 -3.7153549 4.3270741
10.543553 -2.9541121 4.9633851
7.0384002 -1.96322 3.499871
10.743039 -2.9831309 5.6203408
6.9412198 -1.9187731 3.8051021
10.278709 -2.8285179 5.8823981
9.2688618 -2.539067 5.5163312
9.1593142 -2.497627 5.6484542
8.9052687 -2.4172609 5.6712961
8.987936 -2.4285131 5.8882589
8.9692945 -2.4123039 6.0249128
10.028711 -2.6723089 7.0042248
7.4897079 -1.921478 5.2941332
9.016614 -2.2909141 6.16606
8.1107779 -2.0507519 5.4268298
8.9013586 -2.250644 5.9557991
8.1821766 -2.058712 5.3361011
9.1517773 -2.3026731 5.9684372
9.241292 -2.3137879 5.8550858
8.9744768 -2.2359281 5.5027299
8.9365292 -2.2154701 5.2848449
6.7623501 -1.668133 3.843173
10.348818 -2.5528409 5.8814321
6.9484372 -1.7054909 3.7803421
6.8217669 -1.6660039 3.539834
6.8848672 -1.672956 3.393605
11.773476 -2.846385 5.4906049
11.619732 -2.7949381 5.1055031
11.747676 -2.811305 4.8401289
12.267937 -2.9207709 4.716578
12.975827 -3.057502 4.2754631
12.361035 -2.897512 3.7347009
12.81146 -2.9874041 3.5240681
12.537758 -2.9082561 3.1140399
13.818608 -3.1884789 3.0691669
11.504975 -2.0428441 3.4372571
10.703534 -1.88772 3.485724
10.851109 -1.900774 3.8265829
10.903487 -1.89692 4.139266
12.495938 -2.1440971 5.4162488
6.9835148 -1.189921 3.2112131
7.4687819 -1.263683 3.6281681
7.0440879 -1.183426 3.600601
6.891468 -1.149569 3.6915791
7.2679381 -1.203696 4.0649219
7.1971912 -1.183405 4.186657
6.9210682 -1.129751 4.1722989
6.4528699 -1.045644 4.0177131
6.4818568 -1.042629 4.152142
6.3625579 -1.015861 4.1795082
4.8835168 -0.768103 3.336251
4.7788458 -0.72892499 3.382498
4.800427 -0.70943999 3.3224621
4.8831749 -0.71009201 3.270592
4.9838128 -0.718826 3.2663291
5.063345 -0.72430402 3.2349081
6.4823599 -0.91961199 4.0239968
7.1706619 -1.017257 4.4512682
7.1664028 -1.008176 4.3057508
6.989387 -0.97500902 4.0507522
6.962688 -0.96304399 3.8784399
7.4142032 -1.016734 3.954129
7.4307418 -1.0102119 3.7802041
10.984541 -1.441473 4.4391708
7.6858702 -0.98139799 2.4849601
11.596027 -0.78678399 4.3470001
7.676929 -0.50297898 3.2865989
10.512511 -0.67651898 4.7751212
10.126011 -0.63984001 4.8597331
9.2868309 -0.53274202 5.534431
5.2448702 -0.294772 3.2286229
5.1847949 -0.285364 3.2840841
4.9686141 -0.26767901 3.22769
4.8956089 -0.25235999 3.3082809
4.9540339 -0.23232099 3.4702139
4.8581352 -0.205236 3.329242
4.7815232 -0.190883 3.171701
5.411366 -0.20974299 3.5128551
9.1175232 -0.332201 5.6074152
9.2920227 -0.32776999 5.5318751
9.459136 -0.32268199 5.4326968
8.9389668 -0.29454601 4.9350109
9.0404654 -0.287395 4.7791519
10.937232 -0.33498001 5.5159111
10.261462 -0.290463 4.6533279
11.574443 -0.31417799 4.9463978
10.797525 -0.280559 4.32796
10.045112 -0.24935199 3.7581289
10.422071 -0.2466 3.6211779
4.9448552 0.1699 1.586808
4.8164878 0.171087 1.674089
5.0544219 0.185413 1.8916759
9.4502907 0.357667 3.789382
10.362468 0.40423599 4.4301901
10.517577 0.42251399 4.7714062
9.0526056 0.37420201 4.339633
9.254344 0.39330199 4.6692128
7.490603 0.32705501 3.9616041
8.7063169 0.41054299 5.1857171
9.1923513 0.46556199 5.9704919
5.4357581 0.287956 3.673568
5.1492138 0.29677299 3.608954
5.2689428 0.328233 3.6145411
9.4975023 0.61380601 6.308044
8.9724789 0.590334 5.832808
8.8079367 0.58977699 5.5830488
8.8974733 0.61653697 5.3063869
8.595993 0.60567302 4.9463282
4.3700929 0.313021 2.4175031
9.2231016 0.67139399 4.8861341
9.0629206 0.67032498 4.5809879
9.9819479 0.73829901 5.0455232
4.553411 0.34209999 2.1870961
4.5289721 0.34555101 2.0589249
4.7208848 0.36571401 2.022794
8.7587137 0.67851299 3.752914
4.7408128 0.372794 1.905478
4.768229 0.380519 1.789035
4.5043888 0.36473301 1.569746
4.4680381 0.36701 1.437777
5.0020118 0.41671699 1.4764971
4.6171741 0.39006099 1.241277
4.6619272 0.39929199 1.132079
11.992221 1.041151 2.6050899
9.811492 0.87479103 1.646068
13.619835 1.421896 -0.84658498
11.123483 1.331308 -0.45243201
9.734642 1.2454391 0.75516099
9.8028297 1.2773 1.189485
9.6985397 1.275176 1.402199
9.7581768 1.306069 1.884871
4.5261912 0.61115801 0.988437
9.7478256 1.316219 2.1287451
4.679523 0.637393 1.142661
4.9378772 0.67837101 1.3352081
4.5717721 0.63348198 1.357688
4.5531082 0.63629103 1.474424
4.0979481 0.57753301 1.437512
4.0987368 0.582497 1.548371
4.6522269 0.66667402 1.8831609
4.3268552 0.62517399 1.867618
4.3991599 0.64083499 2.015162
4.3295059 0.63582802 2.0959489
4.6154232 0.68329102 2.3519371
4.3190742 0.64454198 2.307354
4.6208658 0.69507098 2.5783801
4.4966378 0.681723 2.6105621
5.5453391 0.84071302 3.2193949
4.4150381 0.67460197 2.657284
4.3516078 0.67008001 2.706053
5.3603601 0.82541198 3.3333459
4.5173888 0.70097601 2.891212
5.4661331 0.84819603 3.498426
4.6641049 0.72929502 3.062252
4.587707 0.72826397 3.1348679
4.5799351 0.74886101 3.2471981
5.4079461 0.88424897 3.8342631
6.3572469 1.0394681 4.5073218
4.772264 0.80308402 3.3134229
4.6119509 0.78712702 3.1009851
4.4227061 0.760113 2.9109621
4.5577922 0.78877699 2.925421
4.3291402 0.75439 2.7008171
4.4177032 0.77510703 2.6685331
5.3335791 0.93580198 3.221771
4.1302228 0.72961003 2.4074521
5.1626992 0.91818798 2.8933711
4.1462369 0.74237603 2.2255991
4.1259689 0.74369699 2.1133671
4.2541742 0.771905 2.070894
4.3884768 0.80153698 2.022181
3.9026749 0.71749502 1.695156
4.2561932 0.787597 1.734383
4.0110021 0.74704099 1.525952
4.3507791 0.81555802 1.53759
4.7749882 0.900814 1.558406
4.349721 0.82581598 1.302376
4.3605909 0.83313203 1.189266
4.538527 0.87259001 1.118204
6.9799871 1.350395 1.538602
7.195775 1.400822 1.403499
6.190877 1.2126549 1.054195
7.07266 1.385377 1.204347
9.3613958 1.844975 1.3677191
6.2406049 1.237456 0.76551402
6.2667708 1.250206 0.62753999
9.1069279 1.827805 0.71472901
9.1357012 1.844629 0.52776599
6.6424899 1.357281 0.130668
6.5333982 1.3428921 0.015986999
6.3354492 1.309871 -0.084980004
6.5630398 1.3648829 -0.18449999
6.6886659 1.39911 -0.275971
6.6658969 1.4024251 -0.353636
6.7318039 1.424464 -0.42539001
7.321063 1.5669169 -0.57609499
6.7227259 1.471554 -0.59995502
6.5358882 1.462499 -0.470164
6.2718801 1.418731 -0.333832
6.5765681 1.495679 -0.27237901
6.082664 1.39078 -0.17173401
5.673532 1.304175 -0.076468997
5.8283782 1.346894 0.014338
5.5141029 1.28102 0.109105
6.2736778 1.4651591 0.241006
7.7563829 1.830443 0.61322802
6.391046 1.516068 0.64503402
7.7844882 1.846617 0.785671
6.2243481 1.484158 0.769934
7.13796 1.702003 0.882945
6.1838708 1.482105 0.911529
9.9939213 2.3952689 1.473146
6.3890982 1.5391361 1.0982029
6.6868262 1.619073 1.317191
4.860343 1.182811 1.082563
5.9277582 1.442577 1.320313
6.6884332 1.627694 1.489741
4.3505292 1.064093 1.083635
4.4809141 1.101449 1.236102
4.1389408 1.02249 1.254119
4.0367742 1.0022351 1.333945
3.9841809 0.994093 1.426355
3.934752 0.98661703 1.517194
3.939816 0.99276 1.628006
4.4555459 1.128221 1.963474
4.2465172 1.080543 1.986262
4.4003258 1.125133 2.175432
4.2984128 1.104396 2.2371531
4.3789382 1.13051 2.389576
5.0867281 1.319555 2.8996511
4.1005301 1.06881 2.432343
4.5209231 1.184005 2.7805099
4.3906012 1.155327 2.790355
4.6263261 1.223103 3.0264449
4.9428439 1.312938 3.3174839
5.352159 1.434984 3.7395771
5.0782952 1.386903 3.6834829
5.086132 1.414484 3.6145411
4.9243708 1.38184 3.389924
4.6204419 1.3023469 3.113951
4.6994429 1.33051 3.088984
4.6414361 1.319922 2.9657669
5.0993881 1.4565589 3.1553011
4.59759 1.319007 2.745471
4.6685171 1.3452359 2.6808
4.1497488 1.200976 2.282594
4.3070869 1.251943 2.2610099
4.2638092 1.244738 2.1274829
4.1532679 1.217706 1.961904
3.959986 1.166042 1.763512
4.540648 1.342756 1.897295
4.175117 1.239938 1.628943
4.0427608 1.20575 1.465402
4.0017781 1.1985919 1.339747
4.4051509 1.3249871 1.353173
4.3228822 1.305728 1.209708
4.327806 1.312704 1.0942169
4.786087 1.457783 1.082775
4.677278 1.43059 0.936418
4.824594 1.4817801 0.84338897
6.5287352 2.0134771 0.97935402
4.1189179 1.275533 0.51882398
6.1693668 1.9105099 0.77710199
4.4665461 1.388875 0.459342
4.3694439 1.3642499 0.35222399
4.556674 1.428528 0.27041301
4.3589492 1.372105 0.17095099
5.1508532 1.627968 0.104114
4.8839688 1.549861 0.012282
4.6197591 1.471927 -0.063689001
4.5414791 1.452808 -0.131236
4.5986919 1.477002 -0.19506399
4.470973 1.441713 -0.24388
4.3974652 1.42366 -0.28575301
4.428421 1.4450589 -0.358439
4.5635929 1.512686 -0.419135
4.3110862 1.451265 -0.319325
4.3124928 1.462911 -0.236414
4.237412 1.442934 -0.180779
3.9547601 1.351814 -0.115031
4.3080659 1.4781801 -0.059827998
4.2783399 1.473539 0.010846
4.4421501 1.535741 0.090586998
5.9068022 2.0421009 0.120455
4.7798371 1.6587059 0.18926799
3.9278729 1.368171 0.23553
3.9332139 1.375165 0.32061499
3.991971 1.400915 0.41545999
4.761816 1.677295 0.60746503
4.8894091 1.728635 0.743384
5.742661 2.0378079 1.0182641
4.516048 1.608449 0.91780299
5.046207 1.80389 1.1597691
4.571528 1.640197 1.175114
4.1069469 1.478848 1.169342
4.221591 1.525667 1.320437
3.982579 1.444525 1.358681
4.0583391 1.477336 1.500183
4.0556931 1.481707 1.61493
3.932292 1.441806 1.678219
3.916415 1.441144 1.7827621
3.9139891 1.445412 1.891305
4.0829148 1.51319 2.0855811
4.0106492 1.491704 2.1570301
4.288343 1.600657 2.41854
4.2176809 1.57987 2.4851389
4.4666238 1.679034 2.7389989
4.2648678 1.608852 2.7119939
5.0046258 1.8879139 3.1824
4.3663139 1.652913 2.869421
4.444922 1.688572 3.0072031
4.3264551 1.649325 3.0034771
4.2963591 1.649285 3.1057789
4.3942032 1.710312 3.2993691
4.0779238 1.609059 3.0015719
4.1908422 1.664875 2.9888351
4.0664902 1.620942 2.8396709
4.3206701 1.728075 2.9430611
4.1747012 1.675325 2.764698
3.777122 1.5208679 2.4225919
3.99173 1.612667 2.471173
3.7796299 1.532091 2.2503459
3.7494781 1.524938 2.138705
4.1537242 1.694977 2.2614601
3.9545319 1.619051 2.0467031
3.9108219 1.6064579 1.916489
3.973105 1.637442 1.835797
3.7992611 1.5709569 1.647347
3.758177 1.5590791 1.5217479
3.9183941 1.630886 1.474262
3.8398981 1.603447 1.334555
4.103898 1.7192841 1.308867
4.151433 1.744873 1.206345
3.691622 1.556656 0.96934497
3.6752751 1.55479 0.863639
3.8768051 1.64536 0.80629802
3.995671 1.7012841 0.72570699
4.2302179 1.806953 0.659383
4.2489581 1.820801 0.556216
3.9123039 1.681913 0.41819701
3.7463729 1.615733 0.313941
3.8182781 1.65201 0.235587
3.696049 1.6042221 0.150727
3.8583331 1.679992 0.081106
4.9831071 2.16974 0.10475
3.555593 1.553085 0.0093
3.3538361 1.469596 -0.048099
3.4225249 1.504438 -0.102898
3.8352671 1.691182 -0.16927899
3.9198561 1.733919 -0.22251999
4.3617592 1.935456 -0.29500899
4.7232461 2.1089971 -0.398027
3.562964 1.61081 -0.340884
3.9347799 1.800964 -0.30377901
4.2306709 1.948294 -0.241806
3.6065769 1.665965 -0.16044199
3.467443 1.606582 -0.105181
3.5708649 1.6595449 -0.051724002
3.4287491 1.598339 0.0090669999
4.216373 1.965497 0.01115
3.6544991 1.708748 0.077753
3.7782061 1.771938 0.15611
3.9082601 1.838468 0.24457601
3.467119 1.635877 0.29499099
3.2528231 1.539386 0.35339999
4.1222649 1.956705 0.54904801
3.9450531 1.8782099 0.62632102
4.0915771 1.9537981 0.75768203
3.8160551 1.827674 0.810058
3.8975279 1.872268 0.93576801
3.9867151 1.920809 1.070701
3.8224311 1.847078 1.137255
3.725168 1.805415 1.217715
3.6945519 1.7958831 1.317454
3.8625619 1.8830971 1.492637
3.677902 1.798357 1.531206
3.572083 1.751763 1.594159
3.6118619 1.776474 1.7195131
3.7157209 1.832916 1.878093
3.8227651 1.891247 2.0428159
3.571593 1.7721471 2.0098369
3.653904 1.818277 2.1564579
3.710237 1.851692 2.288029
3.680789 1.8423361 2.362648
3.795738 1.905391 2.5269001
3.8824279 1.954553 2.671494
4.1524882 2.0965559 2.941992
3.743845 1.8957 2.722122
3.9686611 2.0211239 3.0056469
3.641166 1.8756959 2.8659511
3.8183129 1.989444 2.947902
4.1368051 2.1676209 3.0954609
4.3081908 2.2638021 3.1569431
3.902246 2.0562761 2.789654
4.3914542 2.3205881 3.0526869
3.6259651 1.921466 2.4415109
3.6462591 1.937644 2.370116
3.7877281 2.018471 2.3682261
3.501327 1.87107 2.097594
3.647295 1.954527 2.0859089
3.690979 1.9834549 2.0069621
3.523066 1.898495 1.8141
3.5993969 1.94503 1.747798
3.5771191 1.938359 1.6302381
3.55035 1.929188 1.5112391
3.4929769 1.903275 1.381731
3.5255079 1.926311 1.2884409
3.5403841 1.939779 1.187519
4.0187292 2.2079411 1.228339
3.7006459 2.0387781 1.022257
3.859195 2.131969 0.95416999
3.23211 1.790449 0.70739102
3.4558239 1.919623 0.66060299
3.2022941 1.7836601 0.52543402
3.1768391 1.774323 0.43782899
3.1650021 1.772535 0.356235
3.0975039 1.739459 0.27335599
4.071178 2.2862439 0.359283
3.1509919 1.774317 0.20477401
3.035167 1.713739 0.130391
2.9390261 1.663963 0.065093003
2.8932779 1.6425 0.0079739997
2.867666 1.632365 -0.043343998
3.3693299 1.923116 -0.106777
3.0863869 1.766373 -0.14361501
2.9900169 1.71583 -0.17896999
3.178396 1.828846 -0.226702
3.40644 1.970603 -0.302816
3.3677559 1.969164 -0.34010199
3.145762 1.85902 -0.256511
2.9354401 1.743942 -0.177259
3.2603171 1.9420739 -0.15325899
3.9719551 2.3659761 -0.186711
2.779742 1.660184 -0.089114003
2.8772769 1.722977 -0.044052999
2.9964001 1.799039 0.0083769998
2.8943961 1.742376 0.065112002
3.098784 1.870317 0.1354
2.9921739 1.8107131 0.198046
3.1488431 1.910525 0.28340599
3.230943 1.965472 0.37138301
3.176034 1.937124 0.44762501
3.084945 1.88649 0.51833999
3.3903589 2.078666 0.66455799
3.5460141 2.1797669 0.79689598
3.6010849 2.2193911 0.91546202
3.8034599 2.3502131 1.081754
3.7378199 2.3155999 1.177881
3.3461881 2.0783651 1.158734
3.323777 2.069808 1.255765
3.5096321 2.1912069 1.437184
3.583765 2.2432821 1.581301
3.7134409 2.330471 1.756699
3.4963419 2.1998911 1.764691
3.6914251 2.3286281 1.978418
3.6046059 2.2797279 2.0428159
3.4984469 2.218282 2.08816
3.4412899 2.18765 2.1545889
3.5950119 2.2912481 2.352283
3.5547359 2.2713909 2.421391
3.689851 2.363776 2.6071751
3.4881499 2.240283 2.54792
4.1204038 2.6463511 3.0097511
3.6325409 2.338985 2.73246
3.660259 2.36286 2.826066
3.61514 2.3456531 2.9083109
3.5283749 2.3127429 2.951946
3.6057119 2.3874719 2.9608951
3.4022989 2.2641821 2.708735
3.4810729 2.3224449 2.714503
3.4549251 2.3108051 2.6287639
3.3986239 2.2788761 2.5149331
3.5911081 2.4139941 2.574451
3.4378271 2.3167601 2.3795741
3.350378 2.2635 2.2310209
3.2854991 2.2252319 2.0966599
3.5002539 2.3766279 2.1327231
3.569716 2.4298561 2.0683019
3.4561789 2.358453 1.896672
3.4496329 2.3598731 1.785512
3.6439099 2.498997 1.770461
3.574306 2.4573729 1.622287
4.531414 3.1231639 1.911651
3.457993 2.389266 1.347993
3.2263429 2.2347519 1.154501
3.2823739 2.279218 1.070495
3.605669 2.509922 1.062941
3.4841709 2.431361 0.91948098
3.20787 2.244103 0.749511
2.8683701 2.011569 0.58544397
2.9071431 2.043803 0.50940001
3.3808889 2.3827419 0.49768001
3.45366 2.4400389 0.41526499
2.917752 2.0665021 0.27511999
2.7751949 1.9703881 0.19273201
3.017205 2.147491 0.13854
2.9568391 2.1097131 0.070006996
2.8776569 2.0582659 0.0084800003
3.1830051 2.282263 -0.051447999
2.901006 2.08518 -0.098329999
2.859216 2.060184 -0.142323
3.590436 2.587059 -0.178721
3.095742 2.2360799 -0.198256
2.9483111 2.1348131 -0.225036
2.9580071 2.152329 -0.281488
2.9222269 2.1471491 -0.316131
3.288605 2.4399731 -0.28746301
4.4278002 3.2851961 -0.38704199
2.840626 2.1178551 -0.183947
2.8212631 2.1085219 -0.142243
3.6088159 2.697114 -0.18195
3.205647 2.401608 -0.110243
3.2485621 2.4396651 -0.053366002
3.22123 2.4249971 0.009664
2.683111 2.0247869 0.064785004
2.7160411 2.054594 0.1274
2.8146269 2.1343169 0.20002501
3.090133 2.3488979 0.298673
3.3413489 2.5459859 0.41252801
4.1646152 3.1732841 0.51416999
3.3856571 2.585969 0.51261199
3.1359971 2.4010601 0.566158
2.761236 2.11922 0.581653
2.83354 2.179949 0.68444997
3.779227 2.914506 1.032856
3.3004429 2.551393 1.009323
3.135083 2.4293289 1.0624731
3.1669669 2.459924 1.179617
3.5463231 2.7612021 1.441442
3.207314 2.503231 1.4132299
3.244396 2.538238 1.540665
3.204411 2.512965 1.631726
4.054389 3.1871431 2.2031131
3.5604861 2.8055799 2.0547969
3.506145 2.769372 2.1400101
3.37796 2.6744959 2.1718841
3.4046371 2.7020531 2.2966089
3.32863 2.648042 2.3469689
3.1774881 2.5338321 2.3327789
3.1711869 2.534843 2.4154339
3.4705789 2.7807651 2.7332809
3.4330959 2.757282 2.784843
3.2485199 2.615257 2.7052519
3.1565449 2.5533111 2.7399321
3.028429 2.473043 2.735811
3.092325 2.549252 2.7439549
3.1621449 2.619173 2.721442
3.3758509 2.8027959 2.8462009
3.4521101 2.8728859 2.8404329
3.1664071 2.641356 2.534306
3.3953509 2.8390269 2.6332519
3.2337389 2.710278 2.4218891
3.1635399 2.6577089 2.2798159
3.1502769 2.6528101 2.176079
3.4842 2.9409311 2.2983711
4.8086882 4.0588989 3.172076
3.5031719 2.9639139 2.1978951
3.2008801 2.7145369 1.902452
3.17329 2.6974859 1.7792259
3.1173179 2.656146 1.641024
3.1067331 2.653357 1.528053
3.195461 2.7355659 1.4611371
3.0300541 2.600065 1.280501
3.0380521 2.6130569 1.1787699
2.7558999 2.3759539 0.97475302
2.9997301 2.5922439 0.95923299
2.7075751 2.3452699 0.77522397
2.7091999 2.352195 0.68689501
3.3838401 2.9448299 0.74960601
3.178525 2.7726419 0.60461098
4.139318 3.6107471 0.78737098
2.7363291 2.392519 0.43735099
2.7086511 2.373872 0.35369399
2.698163 2.370223 0.27634799
2.701298 2.378545 0.203813
2.739929 2.4182119 0.13670801
2.6621399 2.355067 0.068503998
2.755662 2.4435091 0.0088280002
2.79669 2.4856939 -0.049148999
2.7937281 2.4888799 -0.10298
3.0124619 2.6900251 -0.163105
3.0642941 2.742708 -0.21349899
2.8075321 2.5187759 -0.233181
2.791347 2.515975 -0.28916001
3.6111979 3.2549469 -0.37408999
2.7117269 2.4671409 -0.31960499
2.8081601 2.5788159 -0.267645
2.7906001 2.5746651 -0.197116
2.826503 2.6138699 -0.155478
2.663413 2.468791 -0.099954002
2.6510639 2.463079 -0.047534
2.8708949 2.673537 0.0094029997
2.8826101 2.6907101 0.075999998
2.7203879 2.545202 0.13936201
2.6436119 2.4791319 0.205227
3.019299 2.8380461 0.31885099
2.8460071 2.6813869 0.383991
2.8888061 2.7280459 0.47808799
2.708097 2.563355 0.53451598
2.7061291 2.5674541 0.623353
3.0205591 2.8724411 0.798024
2.8242249 2.691992 0.84439099
2.923526 2.7931271 0.97828197
3.0571189 2.9274969 1.133891
2.9789081 2.8592379 1.21461
2.912991 2.8024809 1.296382
3.0755711 2.965775 1.484105
3.06429 2.9617691 1.593912
3.534817 3.42451 1.972056
3.4286549 3.3293841 2.041651
3.206629 3.121026 2.028374
3.2697899 3.1899099 2.1879599
3.0352139 2.967948 2.139925
3.1143041 3.0523651 2.3040841
3.198509 3.1421919 2.4740281
3.1529181 3.104604 2.5398719
3.2246549 3.182632 2.695632
3.2245619 3.1899371 2.7877369
3.1345451 3.1080949 2.7917919
5.0097198 4.9790068 4.581677
7.4405851 7.4987411 7.3916192
3.1687951 3.2459099 2.9425261
3.1860771 3.2711999 2.888005
3.1440859 3.2431259 2.6874509
3.1962659 3.3046169 2.638938
3.2149839 3.3317101 2.554708
3.1102369 3.2306559 2.369487
3.4058399 3.545943 2.4784241
3.3458569 3.491596 2.316257
3.033056 3.172533 1.989565
3.143074 3.29527 1.945402
2.9793739 3.1309121 1.731779
2.7575419 2.9045401 1.497927
2.830308 2.9881339 1.429637
2.6147671 2.7669981 1.22095
3.239845 3.436451 1.389295
2.8510571 3.0311201 1.114743
3.023561 3.2220049 1.069055
2.8442731 3.038008 0.90065598
2.7587881 2.9535739 0.77376699
2.9653969 3.182168 0.726861
2.586179 2.7816949 0.54444802
2.321938 2.5033059 0.410831
2.8328869 3.0612841 0.409596
2.5160041 2.7251921 0.28540099
3.099014 3.356674 0.35153401
2.8896079 3.137167 0.241523
2.382122 2.5922351 0.131699
2.3951941 2.6125481 0.068310998
2.6436679 2.8902979 0.009389
2.268038 2.4854119 -0.044197999
2.2644861 2.487319 -0.092579998
2.2626259 2.4910791 -0.13590699
2.2350631 2.4664791 -0.1728
2.8581221 3.1614261 -0.26347801
3.1859341 3.540513 -0.366494
2.458801 2.7581179 -0.322124
3.0793021 3.454154 -0.40341499
3.1313491 3.545553 -0.33206999
3.404161 3.872545 -0.26767701
2.2070351 2.5165889 -0.13518099
2.2077069 2.523258 -0.092278004
2.2415831 2.567992 -0.044776
2.2703099 2.6070049 0.0082860002
2.3291581 2.680866 0.068446003
2.385067 2.7516611 0.136222
2.4776831 2.8652251 0.214499
2.7491131 3.186589 0.323838
2.517015 2.924413 0.37890801
2.3000021 2.6785569 0.424808
2.8775899 3.3512089 0.53148699
2.5721159 3.002512 0.56672603
2.337676 2.735261 0.60126698
2.8376279 3.328058 0.83732301
2.6761899 3.146117 0.89388698
2.8092861 3.3103621 1.050477
2.8068399 3.3152039 1.163649
2.5319209 2.997541 1.154219
2.9759941 3.5315969 1.481143
2.790148 3.3188651 1.50609
2.8006141 3.339175 1.629994
3.2220471 3.8507321 2.0118539
2.9294641 3.5093291 1.952867
2.7539909 3.3069179 1.950756
6.8011341 8.2053032 5.3723192
6.6401968 8.0300913 5.5056009
3.037709 3.6822541 2.6339381
3.0240481 3.6743751 2.7315321
3.902108 4.7637749 3.784704
3.2499411 3.9770031 3.248271
3.8424921 4.702117 3.840518
3.1647661 3.881973 3.248914
3.041683 3.748733 3.257935
2.986799 3.7162471 3.336061
2.9709411 3.7318799 3.2659681
3.050431 3.8500509 3.2556751
3.084476 3.902318 3.2266021
3.1513939 3.996506 3.2188721
5.1341782 6.5266008 5.1036949
2.934088 3.747704 2.7320299
6.4629369 8.2748899 5.7935052
2.650574 3.4181709 2.071758
2.7580171 3.5652671 2.043237
2.610826 3.383112 1.825583
3.0680151 3.9850941 2.015202
3.3385091 4.3573461 1.906729
2.9895799 3.9113281 1.578868
2.1842771 2.864619 1.05968
2.160248 2.8399451 0.95586401
2.711129 3.5641539 1.199617
2.2890639 3.016552 0.91619802
2.1679299 2.863817 0.77733898
2.2172301 2.9360271 0.704382
2.0036099 2.6595681 0.556436
2.1237071 2.8258021 0.50670397
2.1452179 2.8613429 0.43030301
2.1648991 2.894588 0.35496399
2.0832529 2.7921741 0.268062
2.5072501 3.368618 0.237791
2.3745379 3.198056 0.14900699
2.104841 2.8417189 0.068157002
2.1464951 2.905 0.0086580003
2.1453159 2.9104669 -0.047494002
2.273953 3.0925031 -0.105649
2.2616889 3.083317 -0.154429
2.6007249 3.5541601 -0.22863799
2.2479391 3.0795469 -0.23571099
2.869359 3.930856 -0.30087101
2.1991849 3.0274889 -0.28793201
2.741802 3.7744801 -0.35897601
2.1797831 3.0302889 -0.32542399
2.1737709 3.051733 -0.26302299
2.1586919 3.0455101 -0.19379801
2.250329 3.182616 -0.157415
2.282759 3.236444 -0.109005
2.1622839 3.073216 -0.04936
2.125576 3.028506 0.0088679995
2.129694 3.041887 0.071567997
1.920803 2.7503121 0.125494
2.482028 3.5627069 0.245876
2.00683 2.8877571 0.270594
2.019057 2.91256 0.34802499
2.4270451 3.5097899 0.51344901
3.163403 4.5746498 0.669227
1.974528 2.862504 0.498474
2.0149961 2.9284389 0.594015
2.022562 2.9467521 0.68426198
2.3345101 3.40973 0.89431
2.336818 3.4216139 1.002504
2.2423041 3.2913499 1.066872
2.8307531 4.1550999 1.3468519
2.4022391 3.53492 1.257223
2.7073059 3.9938071 1.547412
2.491689 3.684931 1.545136
3.7909081 5.6203799 2.5355461
2.682698 3.997354 2.0565791
2.473556 3.694983 2.0155749
3.1302531 4.6877298 2.699851
6.6616802 9.9762402 5.7457161
3.0280571 4.546103 2.753454
2.9739239 4.4760828 2.8394611
2.9190121 4.4045329 2.9155941
2.8834839 4.3619099 3.0013499
2.876842 4.3628778 3.109283
2.8628249 4.3526058 3.2019179
3.487 5.4104171 4.5038829
4.0835538 6.3360281 5.274404
3.486716 5.4655571 4.4388008
3.5018251 5.517468 4.3313251
5.4043889 8.5589943 6.4019318
2.832643 4.4976621 3.2668469
2.8278899 4.5016942 3.162971
2.8200121 4.5007429 3.0486431
2.8397839 4.5440292 2.9566591
2.821223 4.52601 2.817971
2.7949369 4.495471 2.6683791
2.839457 4.5789218 2.580626
2.2738061 3.676271 1.959426
2.8793881 4.6553712 2.4812801
2.923008 4.7381968 2.378325
2.9790089 4.8415418 2.2777951
2.989939 4.8719678 2.137944
2.5018101 4.0872331 1.664574
3.045274 4.9750962 2.026166
2.24225 3.6727531 1.380059
3.0639279 5.0186439 1.885785
2.358017 3.8724771 1.333701
2.408283 3.965395 1.24283
2.100389 3.4674931 0.98086798
2.0135369 3.332834 0.84269899
2.2055421 3.660249 0.81814402
1.854969 3.0865469 0.601762
1.978169 3.300215 0.551543
1.89668 3.172621 0.444758
1.884781 3.161042 0.36141399
2.1001589 3.531574 0.31616601
1.936924 3.265717 0.21500701
1.9358931 3.27263 0.142241
1.903614 3.2266159 0.072204001
1.878409 3.192353 0.0088780001
2.047121 3.488337 -0.053128999
2.1040699 3.594945 -0.114646
2.6549561 4.536171 -0.14466199
2.0476019 3.507798 -0.164033
2.0459609 3.5143499 -0.211114
2.525295 4.3377032 -0.26057401
2.000134 3.4448359 -0.246262
2.110224 3.6539519 -0.324682
2.114707 3.7013171 -0.37162799
2.0997901 3.7151611 -0.299577
2.008821 3.573565 -0.212825
2.319423 4.137341 -0.191553
1.900504 3.3993249 -0.10719
2.5580699 4.5754781 -0.14427701
1.795336 3.2199991 -0.048427001
1.905948 3.4277329 0.0094010001
1.9956779 3.598949 0.079314001
2.9600611 5.3380919 0.117642
1.905364 3.445504 0.14728799
1.947382 3.531158 0.22835
1.818612 3.3067429 0.29038799
2.031091 3.703264 0.414776
1.897609 3.4694331 0.47581801
2.090807 3.833236 0.62589598
1.87526 3.4475701 0.65582299
1.7720439 3.26684 0.71152699
2.117687 3.9148991 0.96326602
2.8692751 5.3190799 1.462249
2.1969991 4.0840492 1.242312
2.2693701 4.2303419 1.412154
2.2283151 4.1654272 1.515041
2.114603 3.963918 1.560558
2.6988311 5.0590801 1.991713
2.66047 5.0011411 2.1186769
2.626122 4.9504409 2.245436
2.577888 4.8731718 2.3551469
2.5543959 4.8423529 2.4816921
2.509136 4.7699809 2.58149
2.4908581 4.7486029 2.7030389
2.463325 4.709394 2.8081601
2.427031 4.6531682 2.895786
2.4015391 4.6173568 2.987411
2.3684499 4.5666952 3.060708
2.350903 4.545764 3.1453669
2.3451171 4.5475049 3.2359769
2.3157439 4.5033879 3.284832
2.3127551 4.523366 3.4285519
2.2981861 4.5468669 3.5648091
2.2569771 4.5173278 3.457485
2.302376 4.6350942 3.430254
2.3160131 4.6761618 3.3849659
3.719964 7.577076 5.0220981
3.9713349 8.112875 5.1847839
4.1867352 8.5781412 5.266911
3.0630679 6.3130398 3.537133
3.132746 6.533741 2.9034081
2.8738239 6.0116162 2.4921069
2.957165 6.2044759 2.3874309
1.9568371 4.11797 1.462208
1.903821 4.0184288 1.30802
1.9307539 4.0875502 1.211002
1.853938 3.936749 1.052829
1.713876 3.650321 0.87273502
2.0636079 4.4085159 0.93190497
2.6752789 5.7152371 1.20813
1.871585 4.0104108 0.73955202
1.717073 3.6904969 0.58346897
1.556637 3.355865 0.44511601
1.7753429 3.8390269 0.41536301
1.91818 4.1605692 0.35253099
1.587782 3.454484 0.21529
1.748382 3.8155611 0.15700699
1.99909 4.3761148 0.092726
1.620532 3.5583551 0.0093719997
1.689019 3.7201791 -0.053668
1.703986 3.7647641 -0.113738
1.682436 3.7286661 -0.16520301
1.601836 3.5610571 -0.20271499
1.558002 3.4743979 -0.235402
1.602698 3.596411 -0.30296999
1.519642 3.4530981 -0.32889801
1.562438 3.595546 -0.275208
1.808382 4.1881132 -0.236829
1.6101249 3.740885 -0.16447701
1.639589 3.8215499 -0.114453
1.602598 3.747345 -0.053536002
1.6226929 3.8065491 0.0099179996
1.596858 3.7580459 0.078698002
1.48489 3.5058401 0.142428
1.86605 4.4057651 0.17898799
1.617337 3.8309269 0.23547301
1.512091 3.5932851 0.29997799
1.538627 3.668247 0.390636
1.496624 3.579752 0.466858
1.521144 3.650316 0.56686801
1.784233 4.2956929 0.77729601
1.757087 4.2442369 0.87944299
1.539686 3.73137 0.87358099
1.774909 4.3156242 1.129022
2.3771429 5.7799339 1.512104
2.338603 5.704875 1.651673
2.2946689 5.6162658 1.784665
2.2876611 5.6177549 1.945336
2.2895939 5.6412392 2.1147599
3.9020469 9.743722 4.757781
2.547153 6.381927 3.2912271
2.5123069 6.3159041 3.4264009
2.9478841 7.436059 4.2264891
2.486588 6.2937779 3.733989
2.4561629 6.237947 3.84814
2.5810959 6.5776601 4.204
3.046648 7.764071 4.9622741
3.3393459 8.5684261 5.8160992
2.8775821 7.8374619 4.9673872
2.934433 8.0210657 4.9025202
2.2846341 6.2674541 3.6808469
2.8186231 7.7603331 4.3624358
1.939245 5.3781018 2.738297
1.926231 5.3615031 2.5824299
1.932984 5.4000168 2.450217
1.9336179 5.4216118 2.3064351
1.982668 5.5796041 2.2146621
1.9735169 5.5743771 2.0540569
1.33035 3.771605 1.282639
2.009779 5.6978178 1.937701
1.322855 3.7642779 1.173691
1.310295 3.742439 1.062215
2.095834 5.9860792 1.699026
1.584901 4.5436659 1.164296
2.1832011 6.2588978 1.6038181
1.336579 3.8461161 0.88119602
1.284331 3.709667 0.75157899
1.532439 4.442977 0.78537202
1.349113 3.9262431 0.59510398
1.295188 3.783612 0.48119399
1.253087 3.6745369 0.38125399
1.236697 3.6403019 0.29583499
1.312225 3.877413 0.23179901
1.353916 4.0159502 0.15854
1.352806 4.0281148 0.081896
1.303641 3.896704 0.0098489998
1.489956 4.4708581 -0.061903
1.265439 3.811924 -0.110546
1.304696 3.9454889 -0.167826
1.241312 3.7684801 -0.205981
1.224413 3.7317669 -0.242807
1.291328 3.966773 -0.320999
1.232002 3.8451369 -0.352
1.562421 4.8763881 -0.44640499
1.185747 3.7607961 -0.27681801
1.2862231 4.112762 -0.223712
1.179618 3.787313 -0.160199
1.234965 3.981281 -0.114728
1.274671 4.1262279 -0.056728002
1.289394 4.1911311 0.01051
1.168891 3.8152139 0.076906003
1.191277 3.9044549 0.15270799
1.243144 4.0914602 0.242145
1.257795 4.157042 0.33419499
1.2518049 4.1546369 0.42611301
1.29936 4.3306589 0.54403102
1.283103 4.2946048 0.642497
1.199834 4.0329599 0.70312703
1.226655 4.1406932 0.82679302
1.257916 4.264411 0.96220797
1.905324 6.486897 1.6358
1.855204 6.3432412 1.770444
1.6844929 5.7844639 1.772248
1.899822 6.580802 2.3792281
1.744972 6.0708508 2.362493
1.682526 5.8793278 2.4503779
1.5991 5.6124291 2.4930379
1.558691 5.4947991 2.589036
1.527558 5.4089851 2.692076
1.504295 5.350347 2.8016181
1.476656 5.2755351 2.894587
1.458083 5.2326059 2.9972401
1.444774 5.2082171 3.102407
1.42724 5.168323 3.1900699
1.424515 5.1818891 3.3029759
1.392236 5.0875649 3.335932
1.38386 5.0801439 3.415442
1.359296 5.0360398 3.520293
1.320271 4.9833741 3.607234
1.2965111 4.9871402 3.5281041
1.291783 5.0167842 3.433569
1.2968121 5.0606332 3.3887761
1.312808 5.1478958 3.3599851
1.297006 5.1107321 3.2406659
1.311399 5.192719 3.186491
1.318828 5.2477851 3.1058919
1.329928 5.3180952 3.0247779
1.347447 5.4148469 2.9483111
1.396997 5.670146 2.7970459
2.8982811 11.882343 5.2249298
1.358833 5.5991502 2.3086669
1.539971 6.3778338 2.4539239
1.484529 6.1796908 2.207619
1.380547 5.7763572 1.904719
2.407182 10.123867 3.0610781
1.4427021 6.1308122 1.523862
1.139944 4.8695722 1.082352
0.957627 4.1122861 0.808366
1.284186 5.5146151 1.084026
1.001407 4.322999 0.74153
0.96330899 4.1805992 0.61497003
1.070663 4.6713052 0.576644
1.022439 4.4848018 0.45171899
0.92937303 4.098526 0.32337701
0.98648399 4.3739529 0.25390401
0.94664001 4.2201042 0.161792
1.06043 4.753243 0.093863003
0.998353 4.4995608 0.011047
0.93379599 4.2318249 -0.056924999
0.89710897 4.088141 -0.115196
0.902839 4.1371832 -0.171014
0.95728397 4.4112458 -0.234341
0.93919998 4.3523159 -0.27526301
0.97763997 4.5820141 -0.36050999
1.10338 5.291688 -0.47124401
0.88014603 4.3214278 -0.309591
0.82102698 4.0795989 -0.216039
0.88512802 4.4246578 -0.18223201
0.91156697 4.5844808 -0.128649
0.88226998 4.4642611 -0.059774999
0.87002999 4.429348 0.01082
0.92315 4.7288399 0.092860997
1.321221 6.7679629 0.13290299
0.91338301 4.70786 0.179399
1.420987 7.3242102 0.27909899
0.88725197 4.601738 0.26538101
0.83493203 4.3576169 0.341407
0.85663599 4.4991431 0.44976401
0.80176401 4.2377129 0.51894403
0.81988603 4.3612428 0.63611197
0.89628899 4.7983232 0.81569898
0.79143602 4.2644081 0.83036602
0.81082398 4.3973551 0.96770799
0.83225298 4.5431328 1.117499
0.83660901 4.5967469 1.251628
0.80376101 4.4455218 1.328903
1.999418 11.058578 3.3057499
1.723026 9.5934963 3.1259749
1.55539 8.9584446 4.1215658
1.817575 10.614635 5.4285851
1.656758 9.7433701 5.2220292
0.88604403 5.3229041 3.2105219
0.87753099 5.3097668 3.307689
0.846084 5.1566529 3.30493
0.78592902 4.8966322 3.34688
0.84757203 5.4420109 3.853755
0.73559701 4.8716049 3.3733079
0.81998497 5.430481 3.760298
0.73277402 4.9303899 3.30374
0.77533001 5.3445902 3.3192079
1.068024 7.6106081 4.0606441
0.96298897 7.1638842 2.8963411
1.088634 8.0985842 3.2742381
0.88622898 6.6512618 2.5096231
0.966151 7.3159661 2.5633049
