# .PCD v0.7 - Point Cloud Data file format
VERSION 0.7
FIELDS x y z
SIZE 4 4 4
TYPE F F F
COUNT 1 1 1
WIDTH 1551
HEIGHT 1
VIEWPOINT 0 0 0 1 0 0 0
POINTS 1551
DATA ascii
0.74617302 4.0140848 0.78166503
0.77587801 4.2010531 0.92455697
0.78567201 4.2819061 1.053299
0.83498597 4.5803509 1.247229
0.688223 3.8255789 1.246603
1.072072 6.0396018 2.2941821
1.006855 5.7107258 2.323544
0.97266698 5.5544772 2.408968
0.94870102 5.4548402 2.5097671
0.93483502 5.4123392 2.6307349
0.92495698 5.392427 2.7579551
0.91366398 5.3639078 2.8749659
0.89757597 5.3066778 2.969703
0.88845301 5.2900448 3.07901
0.87753898 5.2624631 3.1742189
0.870987 5.2607651 3.277319
0.86758101 5.2781682 3.3829701
0.85526103 5.2412391 3.444829
0.85102999 5.2925038 3.6176281
0.77970499 5.1536741 3.5687799
0.77200598 5.1841078 3.4738989
0.76802802 5.1987648 3.408911
0.764081 5.213861 3.332725
0.76216102 5.2431951 3.2563739
0.758147 5.2584109 3.1609249
0.75453001 5.2766352 3.0595951
0.75640398 5.3339391 2.9726009
0.760674 5.409162 2.886178
0.76695198 5.5001168 2.799367
1.632766 11.911108 5.4497318
0.88622898 6.5785222 2.6597829
0.75643402 5.7152638 2.0025411
0.77936703 5.9954052 1.778456
0.89536899 6.8877711 2.043164
0.52237701 4.0927501 0.99827099
0.47943801 3.791337 0.82704598
0.53437799 4.2655821 0.82303298
0.56653601 4.5651941 0.76872498
0.45988801 3.7413111 0.54033297
0.58024901 4.7661772 0.57771897
0.49711499 4.1231632 0.407837
0.47586799 3.985827 0.30887699
0.46003899 3.8916249 0.22190499
0.450477 3.8490181 0.14497
0.4788 4.1325831 0.080181003
0.475234 4.143826 0.009997
0.44760799 3.9433351 -0.052131001
0.45260701 4.0291228 -0.111592
0.50061601 4.5035682 -0.182999
0.61034298 5.4906778 -0.22310901
0.41957799 3.814827 -0.199241
0.51183403 4.6536331 -0.24305101
0.44859999 4.1227479 -0.25638199
0.54846102 5.1515722 -0.39864001
0.52259201 5.1348991 -0.44996601
0.51195401 5.2731681 -0.371916
0.39298201 4.1478138 -0.216298
0.51270401 5.4114461 -0.28219399
0.39712799 4.2439852 -0.172144
0.40010399 4.3299069 -0.11968
0.407547 4.467061 -0.058921002
0.367506 4.080472 0.0098200003
0.354202 3.984545 0.077097997
0.355777 4.0555768 0.15229701
0.42876101 4.9535131 0.28154999
0.650976 7.5207858 0.42747101
0.37841201 4.431725 0.342251
0.34694299 4.1195302 0.40597999
0.35523701 4.2773161 0.51643503
0.364898 4.4563818 0.64093602
0.35208899 4.3621311 0.73131102
0.32850999 4.129715 0.79313499
0.395529 5.04634 1.095466
0.488904 6.331912 1.536561
0.58662403 7.5975189 1.843685
0.581779 7.6494141 2.0550809
0.59305698 7.9193578 2.3360929
0.715877 9.7111263 3.122921
0.38040099 5.4178791 2.176254
0.61489302 9.0588732 4.1157861
0.34334001 5.2384858 2.646323
0.33779499 5.247282 2.7782609
0.34756899 5.6022711 3.221884
0.312996 5.3466039 3.3872459
0.306061 5.334507 3.466053
0.28982699 5.2654848 3.5588911
0.264505 5.2502408 3.678324
0.244427 5.3461828 3.6642561
0.23439699 5.4020662 3.5838399
0.217585 5.298892 3.3541059
0.21522699 5.3945389 3.318161
0.203831 5.4253521 3.1163459
0.338184 9.5961008 5.0734692
0.215663 7.0509682 3.013567
0.24830399 8.1181259 3.4696679
0.207689 7.6647859 2.663383
0.117928 4.5472612 1.458849
0.194506 7.5000768 2.4061699
0.113559 4.5843058 1.34894
0.108901 4.6130171 1.236102
0.10375 4.6224289 1.118674
0.129943 5.789454 1.401106
0.093457997 4.3913221 0.95057398
0.087814003 4.3648281 0.83581901
0.080962002 4.2709999 0.71384001
0.079144999 4.447825 0.63767302
0.080003001 4.8106308 0.57891399
0.069096997 4.4669762 0.438721
0.069045 4.8262382 0.37140501
0.063699998 4.8468161 0.274483
0.062431 5.2109809 0.19495
0.051865999 4.7948289 0.092418
0.039266001 4.0667992 0.0097479997
0.034173001 4.0235081 -0.052852999
0.042597 5.0153861 -0.065883003
0.032575 4.4441981 -0.122322
0.026629999 4.3173981 -0.174363
0.029261 5.8450551 -0.30344999
0.022495 5.8537812 -0.36189699
0.0087919999 5.7878842 -0.44536299
-0.016202001 5.1743488 -0.45109501
-0.043336999 5.5701232 -0.39103299
-0.046673 4.6185441 -0.239784
-0.047485001 4.2142968 -0.17020699
-0.057659 4.638885 -0.12768701
-0.065167002 4.7941432 -0.062980004
-0.074077003 5.0204391 0.012035
-0.075622 4.7505159 0.091569997
-0.085196003 4.987783 0.18661401
-0.083186999 4.5599351 0.25825799
-0.089881003 4.631434 0.356444
-0.10665 5.184957 0.50928301
-0.112793 5.1903281 0.624668
-0.118387 5.1707768 0.74139702
-0.111659 4.6412821 0.77581298
-0.125596 4.9799428 0.95371801
-0.116003 4.3966508 0.95184398
-0.124776 4.5295391 1.096334
-0.27548999 9.5994358 2.572603
-0.31167901 10.437917 3.0718019
-0.327517 10.557026 3.3873889
-0.17778499 5.1515298 2.065414
-0.37098801 10.399599 4.4455118
-0.246883 6.4970002 3.1141169
-0.29813701 7.6129189 3.8405211
-0.251304 6.057148 3.345082
-0.289377 6.9748192 3.8518691
-0.283721 6.6520691 3.8217549
-0.331651 7.56917 4.507719
-0.25464001 5.130372 3.4665909
-0.29203299 5.8837428 3.9756429
-0.270688 4.9857278 3.4937191
-0.299023 5.07232 3.4789529
-0.34539601 5.8589501 4.0184789
-0.31886801 5.2031741 3.4551151
-0.32618099 5.2232022 3.394762
-0.458884 7.083631 4.3627772
-0.40216801 5.9924412 3.447396
-0.55184299 7.9463248 4.2087369
-0.52741098 7.4688911 3.7743521
-0.73666102 10.098477 4.5897479
-0.591824 7.9850712 3.4205611
-0.67496997 8.9657021 3.6026659
-0.77861798 10.031131 3.4948499
-0.76445198 9.7026472 3.1213939
-0.76553899 9.5744972 2.8254371
-0.80566603 9.9310579 2.669121
-0.40456399 4.9160571 1.193457
-0.817146 9.7905169 2.1262071
-0.50218499 5.9336362 1.140061
-0.49040201 5.715457 0.95859897
-0.40088099 4.6093078 0.66321403
-0.503546 5.7897401 0.83306098
-0.465684 5.2832608 0.63816702
-0.4702 5.2646189 0.51905698
-0.56569302 6.2519031 0.483033
-0.455724 4.9721599 0.282738
-0.477521 5.1442709 0.193268
-0.49535099 5.2697868 0.102014
-0.574889 6.040688 0.014544
-0.59153599 6.140039 -0.081027001
-0.49653199 5.0919099 -0.14081
-0.463462 4.6963401 -0.190585
-0.54903102 5.5634179 -0.22577199
-0.57216197 5.7297492 -0.29894
-0.48157799 4.7665882 -0.29618099
-0.47510901 4.595849 -0.35552299
-0.50428498 4.666028 -0.40914699
-0.64847302 6.0001688 -0.526133
-0.53078502 4.7065082 -0.33249
-0.728957 6.331593 -0.33087599
-0.729886 6.275547 -0.25514901
-0.63555098 5.4097319 -0.14991701
-0.76161802 6.4184132 -0.084902003
-0.68786401 5.7399139 0.013856
-0.619093 5.1157188 0.099316001
-0.61040699 4.9953241 0.18825901
-0.77525097 6.3443389 0.239099
-0.719073 5.828402 0.332546
-0.72696197 5.8365149 0.452575
-0.76255101 6.064846 0.600272
-0.75112998 5.9184952 0.717848
-0.74304801 5.8008261 0.83831102
-0.87973499 6.8052249 1.14666
-0.83281398 6.3839798 1.2325751
-0.89965999 6.834456 1.491856
-1.322426 9.9567537 2.4301829
-1.046409 7.6082568 2.667649
-1.025565 7.3305092 2.9658949
-1.274078 8.736887 4.6651621
-1.226675 8.2771244 4.8029561
-1.4887511 9.8870726 6.1451688
-0.86348403 5.5590758 3.7966361
-0.857678 5.3574648 3.7964239
-1.402611 8.1536407 4.9223919
-1.328429 7.2195549 2.5498519
-1.387784 7.4932461 2.4440379
-1.345453 7.1716032 1.954682
-1.194675 6.2873459 1.385038
-1.227424 6.4190078 1.2511899
-1.23992 6.4438009 1.096554
-1.213324 6.2663741 0.91493398
-1.405004 7.2114129 0.88401997
-1.405458 7.169395 0.717453
-1.195859 6.062921 0.47551399
-1.220661 6.1510038 0.355104
-1.376627 6.894999 0.263024
-1.357983 6.7606831 0.13290299
-1.428471 7.0690961 0.017286001
-1.385762 6.8169761 -0.091376998
-1.394478 6.8192449 -0.191571
-1.5452 7.4244299 -0.46882999
-1.294572 6.1486192 -0.483493
-1.204756 5.5930171 -0.49877599
-1.569391 7.0085821 -0.29005399
-1.6212471 7.200954 -0.203154
-1.6075751 7.101696 -0.095646001
-1.502777 6.6031342 0.016232001
-1.574623 6.881844 0.13606399
-1.590534 6.9144602 0.26541701
-1.7008179 7.3548079 0.42747101
-1.5713691 6.7592359 0.53397602
-2.2894621 9.7454777 1.204538
-2.252408 9.296752 2.5625119
-2.18647 8.9790812 2.7184811
-1.841027 7.5224562 2.4837389
-1.991624 8.0168514 3.3099439
-2.1540251 8.2598343 5.3986402
-2.3131289 8.2772636 5.4355221
-1.886881 6.60394 3.628978
-1.77609 5.5075979 -0.44528601
-1.660565 5.0686908 -0.464991
-2.3855679 -7.7087922 2.161691
-1.519049 -5.6653032 3.366749
-1.882025 -7.576499 1.304559
-1.8724281 -7.5752592 1.118552
-1.86757 -7.5933061 0.94088399
-1.85496 -7.5797858 0.76631999
-1.8472559 -7.5862541 0.60079902
-1.842609 -7.6054368 0.443131
-1.831962 -7.5998502 0.29244399
-1.824339 -7.6068411 0.150766
-1.815649 -7.6093621 0.018750999
-1.810401 -7.6263862 -0.102962
-1.801509 -7.6281919 -0.215727
-1.79397 -7.635695 -0.31676701
-1.785563 -7.6395431 -0.407296
-1.777082 -7.643146 -0.48512
-1.6823291 -7.6346021 -0.548805
-1.67184 -7.6713662 -0.40760699
-1.657721 -7.6490479 -0.31608099
-1.647918 -7.6464791 -0.215287
-1.644369 -7.6731038 -0.10308
-1.641266 -7.7020459 0.018874999
-1.629776 -7.691772 0.151537
-1.617378 -7.6769881 0.29349101
-1.611971 -7.695385 0.445223
-1.602326 -7.693686 0.60471201
-1.594733 -7.7017961 0.77237898
-1.584053 -7.6949821 0.94530499
-1.588915 -7.7640762 1.136005
-1.024565 -5.9443469 4.2206702
-1.017638 -6.2942891 3.91875
-3.506458 -23.399981 8.8495378
-3.423604 -23.399914 6.956636
-1.069628 -7.6176071 1.285439
-1.059338 -7.6080871 1.101099
-1.051102 -7.613349 0.924757
-1.044266 -7.6288209 0.75615501
-1.035497 -7.6302948 0.59251302
-1.026334 -7.6289411 0.43589401
-1.01752 -7.6300678 0.287958
-1.0093499 -7.6361499 0.148454
-1.001627 -7.645647 0.018482
-0.99439198 -7.6590509 -0.101451
-0.98869503 -7.6847262 -0.21325099
-0.977754 -7.6696248 -0.31224799
-0.97076398 -7.6855011 -0.40216401
-0.96282798 -7.6941872 -0.47938201
-0.93970197 -7.652729 -0.59328002
-0.86590397 -7.634141 -0.53935099
-0.84457898 -7.602932 -0.39713499
-0.83690202 -7.6138992 -0.309342
-0.82944697 -7.6271262 -0.21116
-0.82172602 -7.6382642 -0.100913
-0.81329399 -7.642827 0.018422
-0.80399901 -7.6393819 0.148049
-0.79611701 -7.6493039 0.28769699
-0.78800899 -7.657228 0.43589401
-0.77961999 -7.662673 0.59266698
-0.77124399 -7.6682401 0.75683999
-0.76479697 -7.6933141 0.93025202
-0.752976 -7.664382 1.103937
-2.5202961 -26.600307 5.7825561
-2.1638 -23.412199 6.2985058
-2.13903 -23.439396 6.9236178
-0.66232097 -8.6988287 5.3618379
-0.450728 -6.742065 4.728045
-0.39329001 -6.3214459 4.336545
-1.149043 -26.302826 9.1451473
-1.117275 -26.271057 8.4330463
-1.058022 -26.309328 7.0535712
-0.96453297 -26.249229 5.0288301
-0.66937101 -18.80813 3.1449499
-0.26577601 -7.718483 1.107059
-0.257094 -7.725966 0.93013299
-0.249025 -7.7526898 0.76172602
-0.240119 -7.7543502 0.59696299
-0.231914 -7.7800751 0.44075701
-0.22319201 -7.7893519 0.29150999
-0.214656 -7.8065991 0.150516
-0.205604 -7.8052702 0.018715
-0.19617499 -7.7888579 -0.102344
-0.187718 -7.8117862 -0.215067
-0.17795999 -7.7796221 -0.31426501
-0.16884699 -7.773695 -0.403667
-0.15967 -7.7645311 -0.480122
-0.141178 -7.7338462 -0.59519899
-0.069360003 -7.6947498 -0.54019201
-0.051601999 -7.6974611 -0.39962301
-0.042727999 -7.699605 -0.310956
-0.033891 -7.7110052 -0.21223301
-0.024994999 -7.7162938 -0.101359
-0.016136 -7.7389612 0.018549001
-0.0071789999 -7.726562 0.148917
0.001744 -7.7465811 0.28979
0.010673 -7.737597 0.43815601
0.019633001 -7.7440829 0.59588897
0.028628999 -7.7596211 0.76201898
0.037572999 -7.756958 0.93335801
0.113289 -18.882647 2.706775
0.187603 -26.223698 4.3822622
0.153118 -6.2496042 3.449435
0.189669 -7.0728621 4.2096238
0.14889599 -4.9156771 3.19014
0.175984 -5.397409 3.644479
0.19663601 -5.2802782 3.697243
0.34774199 -7.6676831 4.9789481
0.39686301 -8.532773 5.4023819
0.397845 -8.3456326 5.1351118
0.35476401 -7.2652688 4.3277369
0.44926599 -8.5885544 4.5441651
0.55401802 -7.9452968 1.141681
0.56560302 -7.9782858 0.96238798
0.62269998 -8.1176395 0.156913
0.62847602 -8.0705433 0.019402999
0.63838601 -8.0771122 -0.106429
0.64731002 -8.0710182 -0.222853
0.64809102 -7.9651632 -0.32273901
0.66738403 -8.0865803 -0.42124301
0.673621 -8.04844 -0.49931201
0.68920398 -8.0116396 -0.618752
0.72711498 -8.0175619 -0.70182902
0.76190799 -7.9900031 -0.56344098
0.78204298 -8.0050592 -0.41756201
0.79191703 -8.0103893 -0.32508001
0.80202597 -8.0179348 -0.22178
0.81305802 -8.0342684 -0.106074
0.82475901 -8.0568733 0.019412
0.83197999 -8.0355444 0.155699
0.84385699 -8.0592737 0.30313599
0.85430002 -8.068903 0.45947
0.86491799 -8.0798168 0.62527299
0.874147 -8.0777559 0.79788703
0.88397098 -8.0811596 0.97815698
0.89588898 -8.1032934 1.168641
0.90802902 -8.127039 1.366531
0.91675103 -8.1200018 1.564458
0.92739803 -8.1298456 1.770852
0.93883902 -8.146471 1.984077
3.3605931 -28.580851 8.4653044
1.024225 -8.1420841 3.930552
1.076381 -8.4775896 4.3077579
0.94803798 -7.3983421 3.9410479
1.254337 -9.3592548 5.9721789
1.409332 -9.217515 5.730988
1.415763 -9.1885118 5.531364
1.365894 -8.4739571 3.8907781
3.8162749 -23.164469 8.7805271
3.8706839 -23.160711 7.5309229
3.9247301 -23.154665 6.2912598
1.374531 -8.0528212 1.976552
1.383601 -8.0498695 1.767679
1.391028 -8.0373716 1.561637
1.401335 -8.0416279 1.364059
1.409556 -8.0339098 1.169209
1.419806 -8.0376911 0.982099
1.429024 -8.0356627 0.801503
1.434816 -8.0145092 0.62650102
1.444092 -8.0128679 0.46105301
1.449665 -7.9908891 0.30380899
1.4546289 -7.9657698 0.156066
1.466449 -7.9783268 0.019443
1.479908 -7.9995589 -0.106862
1.485067 -7.9758492 -0.22329301
1.494365 -7.9745789 -0.32766199
1.502224 -7.9656711 -0.42082801
1.5124511 -7.9692631 -0.501472
1.527382 -7.9476399 -0.62274098
1.5672441 -7.9563541 -0.70695299
1.605548 -7.9566512 -0.56981301
1.6297441 -7.9813371 -0.42290199
1.633804 -7.9543238 -0.32794499
1.638047 -7.9284902 -0.222826
2.020133 -9.0374517 2.4807429
2.0087321 -8.9379292 2.6947761
1.982664 -8.7744799 2.8850219
2.045758 -9.0053015 3.207741
2.06106 -9.0243816 3.462116
2.046736 -8.9141388 3.6647799
2.041168 -8.8430328 3.8770549
2.036267 -8.7755251 4.0835829
2.043608 -8.7611151 4.3089628
2.088042 -8.9050894 4.6106958
2.148453 -9.1153307 4.948267
2.2277949 -9.4032269 5.3321309
2.248035 -9.4400263 5.5700951
2.2616229 -9.4485645 5.7803721
2.2777691 -9.4676886 5.9849429
1.450267 -5.9674201 3.9835939
2.3164649 -9.5315676 6.3628659
1.422599 -5.7951889 4.0271082
2.451159 -9.5090513 6.5085888
2.4533169 -9.4721346 6.347084
2.4548149 -9.4330063 6.1646051
6.3359399 -23.45475 11.013
6.2877951 -23.170019 10.256183
6.3866711 -23.427252 9.7297258
2.503593 -8.8598518 1.762648
2.4644229 -8.6828871 1.5082771
2.4575989 -8.6209126 1.284994
2.475215 -8.6447611 1.081969
2.4905939 -8.6606474 0.88496703
2.5107541 -8.6929283 0.69624001
2.5317271 -8.7276554 0.51459301
2.555841 -8.7728882 0.34182701
2.375293 -8.0491171 -0.110238
2.4336121 -8.2117348 -0.23572899
2.445168 -8.2158718 -0.34618399
2.4982531 -8.3589048 -0.45291999
2.5409441 -8.4660339 -0.54645401
2.543963 -8.4055023 -0.67575502
2.6175711 -8.5066233 -0.77591199
2.660696 -8.50667 -0.62569499
2.6343889 -8.3547077 -0.45478699
4.4770999 -13.753904 1.112986
4.5085001 -13.796192 1.425329
4.5349989 -13.823169 1.7504801
2.8832459 -8.6531372 1.973912
2.8725791 -8.588027 2.1910219
2.8833759 -8.5874519 2.426662
2.897465 -8.5964861 2.6685309
2.8989329 -8.568078 2.900902
2.8747001 -8.4642305 3.1050379
2.8721361 -8.4247026 3.328999
2.8741319 -8.3987312 3.556916
2.8518729 -8.3023624 3.750164
2.8450451 -8.2514439 3.956423
2.8735631 -8.3029699 4.208312
2.7382989 -7.8826571 4.2064781
2.6915259 -7.7192292 4.3194561
2.6568041 -7.5913858 4.4378872
2.6329031 -7.495307 4.5600209
2.5748639 -6.9181638 4.8926291
2.6184211 -7.010407 4.8543239
2.6601839 -7.0971951 4.7935648
3.058779 -8.1319809 5.3398461
3.0752461 -8.1471834 5.1811152
3.077631 -8.1250763 4.9871488
3.143553 -8.270215 4.8818688
3.3315799 -8.7344904 4.9393911
3.3401301 -8.726573 4.710175
3.342942 -8.7037849 4.4657698
3.559391 -9.235445 4.4865332
3.3136909 -8.5683804 3.9245901
8.9758492 -23.129839 9.9413633
9.1506205 -23.260799 7.3528519
9.106245 -22.991802 5.983274
5.5375638 -13.748808 1.783451
5.5439782 -13.718975 1.4530849
3.3908019 -8.1991587 -0.244203
3.3788781 -8.143671 -0.356071
3.3561671 -8.0626059 -0.45338699
3.450145 -8.2614193 -0.55348903
3.559489 -8.4681644 -0.70682698
3.5585351 -8.3574905 -0.79189199
3.530412 -8.1862383 -0.625835
10.652512 -23.346746 6.8745079
10.711676 -23.404709 7.5715609
10.769836 -23.459957 8.2788239
10.802927 -23.460449 8.9715691
10.705724 -23.178764 9.5491076
4.839304 -10.382668 5.1925211
3.8997729 -8.3416758 4.4104772
10.982437 -23.350683 13.634363
4.1588292 -8.7371969 5.9472418
4.1738038 -8.5634928 6.6658149
11.678995 -23.140718 14.302595
11.691091 -23.098242 13.678745
4.1048522 -8.0867538 4.5715351
4.3243341 -8.4705477 4.3110681
7.2620549 -13.711726 1.866956
7.2701011 -13.688622 1.522084
7.2708049 -13.651815 1.190167
4.8582439 -8.9961128 -0.13430101
4.3881869 -8.0809097 -0.371364
4.3875542 -8.0575113 -0.476302
4.4360271 -8.1241169 -0.57224703
4.4045691 -8.022337 -0.70421898
4.473731 -8.0596495 -0.803617
4.532104 -8.0765104 -0.65013498
4.573514 -8.106287 -0.48319799
4.8170452 -8.5149078 -0.395091
4.9411139 -8.6872435 -0.13128
7.9320841 -13.72328 1.556584
5.055377 -8.4503517 4.2066579
4.6239281 -7.6086621 5.1106091
5.27595 -8.6139908 6.3885689
4.7774978 -7.4660959 5.273663
8.2268362 -12.79123 8.3916931
6.643465 -9.9453392 1.99862
7.5472631 -11.241863 1.629226
9.1713285 -13.592853 1.261747
9.2033548 -13.5724 0.61344898
5.92203 -8.6899471 0.025206
5.9524598 -8.7129107 -0.13860901
5.9031968 -8.619338 -0.28753501
5.6699781 -8.2378397 -0.51917797
5.512517 -7.989223 -0.60007602
5.6456709 -8.1418152 -0.76237297
5.7408829 -8.197752 -0.87248802
5.7213802 -8.0898991 -0.69558299
6.3160691 -8.865284 -0.43959999
6.3778882 -8.9301634 -0.302035
6.4069829 -8.9489508 -0.144572
9.7652502 -13.573069 0.322267
9.8121738 -13.605046 0.627505
9.8453827 -13.617839 0.95156199
9.892314 -13.649405 1.297116
9.3943186 -12.232099 10.004697
4.1565561 -5.3862848 4.5915408
6.802701 -8.6073322 7.271543
8.6815214 -10.880595 8.2817059
5.6058421 -6.9925432 4.9451561
5.7544971 -7.110239 4.146338
11.452637 -13.820427 3.4363539
11.367767 -13.557488 1.361407
11.358393 -13.514462 0.99967402
11.393301 -13.524182 0.66152298
11.418054 -13.521727 0.34109399
7.3398108 -8.6717224 0.027231
7.485076 -8.8226175 -0.15198
7.5661411 -8.8764048 -0.471035
7.2143011 -8.4438181 -0.57657099
6.8454251 -7.9932971 -0.650612
6.9360828 -8.0613079 -0.81830198
7.063571 -8.1329594 -0.93910098
7.0099859 -7.9961519 -0.74649298
7.7069402 -8.7501774 -0.60534501
7.706614 -8.729414 -0.47026801
7.7101431 -8.7130642 -0.32022101
7.7191768 -8.7029257 -0.152807
12.038849 -13.509933 0.34876299
12.038304 -13.477881 0.67602801
12.098309 -13.513545 1.027094
12.021854 -13.303598 2.570272
11.456884 -12.619541 3.2631731
12.417333 -13.613954 4.4582362
11.271708 -12.300761 4.9078279
6.4617081 -7.0025892 3.5637059
8.7742777 -9.4866266 5.177855
9.1306458 -9.7805748 6.7447691
6.045897 -6.4612269 4.6754398
6.40593 -6.8300929 5.1669059
7.7040482 -8.195116 6.456213
6.2567768 -6.594049 5.8964801
6.1860232 -6.4892998 6.0504508
6.1979589 -6.382256 6.0912752
8.8567324 -8.9940796 7.510138
6.4993639 -6.584878 5.3107319
9.1590471 -9.2580471 7.1858401
9.1796303 -9.2573757 6.8884249
9.4498549 -9.507802 6.7573729
11.56533 -11.29079 2.700923
13.950672 -13.431292 0.72443801
9.4446964 -9.0299988 -0.17164201
9.1948977 -8.7707739 -0.349742
9.1634007 -8.7204762 -0.51086301
9.582159 -9.0978594 -0.685965
8.4967833 -8.0486174 -0.72354603
8.437604 -7.9555469 -0.89233702
8.6609898 -8.0906277 -1.033246
8.6169825 -7.9750342 -0.82422298
9.6711559 -8.9091311 -0.68264598
9.4055862 -8.6443634 -0.51590699
14.792571 -13.43804 0.74761498
9.5560789 -8.3630371 5.424891
9.6112423 -8.3134356 7.011919
9.2174215 -7.5349612 6.2904472
10.778735 -8.6457872 4.4315181
11.552009 -8.9190674 -0.40168601
10.558205 -8.0545578 -1.021842
10.51587 -7.945385 -1.149016
11.549793 -8.6427603 -1.0126669
11.785703 -8.7555285 -0.59293997
10.087168 -7.1194739 5.2744288
10.079906 -7.0968671 5.5880399
10.441904 -6.735374 4.316144
10.927684 -7.0308032 4.1673551
14.265164 -8.8312721 -0.220384
12.932407 -7.8823109 -1.165386
14.368915 -8.4860449 -0.459297
14.979552 -8.6371603 2.4786091
15.066581 -8.6408844 3.3252251
15.476032 -8.8280859 4.3107891
11.253738 -6.4023881 3.468435
10.869789 -6.1672812 3.676285
15.404121 -7.7288442 4.616817
15.410818 -7.709847 4.16922
15.378008 -7.6711488 3.7191701
5.9781122 -2.4387479 4.517642
9.1082087 -3.6297469 6.3601451
10.092993 -3.126451 4.7895708
10.060762 -3.1036439 5.0428901
9.9443045 -3.0550699 5.244031
9.9902191 -3.056478 5.5200839
9.2264118 -2.811059 5.3219862
8.3257828 -2.526093 4.9941192
6.4497061 -1.948688 4.0086789
8.4356661 -2.538027 5.4141998
8.4587202 -2.53425 5.5846529
8.5257521 -2.5435269 5.7713132
8.4675684 -2.5047579 5.959269
8.3325844 -2.4227459 6.0718708
8.3859968 -2.3960519 5.9715061
8.3816385 -2.3737409 5.7738099
8.6261921 -2.432178 5.8137612
8.548811 -2.399642 5.6156549
6.1727648 -1.724944 3.9391711
6.2518849 -1.739226 3.8609099
6.4659109 -1.790675 3.8511269
9.772418 -2.706382 5.820498
6.4689398 -1.7834131 3.7025869
6.2635021 -1.718949 3.431833
9.7579031 -2.665746 5.0990891
9.8541756 -2.6797471 4.8912668
11.688767 -3.1494761 5.1715021
12.275823 -3.292362 5.09268
12.439945 -3.305393 4.4710188
11.932532 -3.1557319 3.958468
12.403121 -3.2647729 3.772799
10.061662 -2.0442741 3.566381
11.209033 -2.263859 4.276938
11.523627 -2.313472 4.7095761
11.085186 -2.212081 4.8289351
10.996749 -2.1811759 5.0818748
8.9005756 -1.743946 4.5719848
10.85823 -2.127521 5.577579
6.5497808 -1.275454 3.5257339
6.4083772 -1.2401969 3.6016159
6.4028769 -1.231431 3.7426021
6.364645 -1.216415 3.8552859
6.247313 -1.186483 3.908278
7.6945562 -1.452099 4.9523172
6.3962631 -1.199398 4.2214122
6.519598 -1.206879 4.4746261
7.441422 -1.3775229 5.107306
7.5819969 -1.367177 5.3907852
5.7246652 -1.004861 3.9794979
6.5544329 -1.150511 4.5563102
6.421874 -1.111886 4.3197231
6.6401711 -1.141752 4.3705249
6.4156928 -1.0954961 4.1163292
6.3938131 -1.08412 3.9857731
6.3221121 -1.064422 3.8143809
6.6593699 -1.113264 3.87552
6.678442 -1.108482 3.7354391
6.2917609 -1.036805 3.3692319
11.942977 -1.925385 5.4835858
10.260952 -1.641995 4.4392262
10.19073 -1.618639 4.1345482
10.205964 -1.608927 3.8642731
10.670202 -1.669416 3.7514429
10.903898 -1.6800801 3.245358
14.351329 -2.194205 3.8891799
16.741657 -1.7695971 2.4131949
17.066231 -1.723868 4.1501722
10.752026 -1.060981 3.1781931
6.9176321 -0.65831 2.5989521
6.7446742 -0.63394803 2.7144589
6.8647442 -0.63720399 2.94521
6.8323832 -0.62620997 3.1100631
6.8012891 -0.61539602 3.2709241
9.3682814 -0.836712 4.7412338
6.9379048 -0.59531498 3.9969881
6.8369708 -0.57865697 4.0823078
6.8913441 -0.57521099 4.2501988
9.4459896 -0.78844303 5.8257632
6.8698702 -0.56539702 4.3595352
6.7891359 -0.550816 4.4184151
7.8684201 -0.546579 5.4003429
6.7908111 -0.447979 4.4146051
6.7277021 -0.43597999 4.2638569
9.4350452 -0.600425 5.8105779
6.7082548 -0.41908801 3.9989641
9.6329861 -0.57936502 5.3248839
9.4344702 -0.55644602 4.9935832
7.242332 -0.418715 3.656868
6.8136392 -0.38600299 3.268764
6.9059548 -0.38319901 3.135247
6.96491 -0.37835801 2.9797809
9.3473196 -0.49690801 3.7507
9.959878 0.083400004 3.4597399
9.3471804 0.089120001 3.4960971
9.4732237 0.101333 3.796077
9.6827259 0.114815 4.1367302
9.1381454 0.118966 4.142622
9.2668381 0.131414 4.4389882
9.2866077 0.14247601 4.6818171
9.17906 0.151483 4.8506289
11.517911 0.203473 6.3563328
6.8069501 0.12815399 3.9078779
8.4607792 0.169128 5.0348811
7.0251188 0.164915 4.5582762
8.2091722 0.211779 5.5419579
8.1167393 0.247136 5.682024
6.956481 0.24415199 4.7659059
8.2004232 0.30688599 5.4390168
8.1644688 0.31503099 5.3000302
6.769486 0.28482601 4.031177
8.4333668 0.36464101 4.8452711
8.5842619 0.38116199 4.741282
8.5136557 0.38792899 4.5030541
9.2606287 0.43275201 4.673265
9.4409332 0.45216 4.5271111
4.2182841 0.206937 1.914425
4.2661729 0.214257 1.824797
4.1317792 0.21231499 1.6577621
9.3018332 0.477983 3.7321031
4.3774061 0.230032 1.639452
9.5143099 0.499975 3.5633559
10.383244 0.54563701 3.8887939
11.156111 0.59925503 3.880724
11.978135 0.657354 3.847306
13.219992 1.34346 1.3049231
11.059726 1.1498899 1.5938981
11.405829 1.252727 3.0738239
4.2688079 0.47386801 1.263432
3.8996661 0.43747899 1.258513
3.8971629 0.44178 1.362371
10.681531 1.210851 3.7340519
4.0385871 0.46256 1.520347
3.8820491 0.44920301 1.565891
3.955862 0.46239799 1.701441
4.0630708 0.47971001 1.85456
4.1096349 0.49005201 1.982339
3.9233291 0.47707599 2.0882511
3.793323 0.46574199 2.108793
3.9583299 0.490666 2.289469
3.5363331 0.44253001 2.1204071
8.1385965 1.0184489 4.8799529
3.838222 0.484833 2.3777449
3.689667 0.47042 2.352417
3.708627 0.47721899 2.42553
3.961427 0.51910001 2.6962991
5.4202509 0.710262 3.6892309
4.0237451 0.54629302 2.8412991
3.884496 0.54577398 2.685765
3.7247601 0.532157 2.4938259
3.69768 0.53266799 2.423353
6.800808 0.979689 4.4570532
3.7210591 0.54044598 2.3780739
8.3261728 1.209291 5.321135
3.6196909 0.53002 2.2484119
6.8010402 0.99585402 4.2245421
3.665139 0.54102099 2.204262
3.5720301 0.53151399 2.0729179
3.9024861 0.58532202 2.1773951
8.5773296 1.2864881 4.7857289
3.829145 0.57886797 2.046206
3.9839611 0.60700899 2.0314431
3.3919179 0.52083302 1.64367
4.0674748 0.629399 1.865708
3.7635119 0.58684301 1.627192
3.9146931 0.61507201 1.587836
3.849395 0.60939199 1.457641
4.0308161 0.64291602 1.417824
3.9994681 0.64267701 1.29913
3.8828051 0.62855399 1.157041
9.2858582 1.536425 2.0369451
9.0637751 1.52132 1.535803
9.016613 1.5241669 1.310819
10.520667 1.790992 1.284099
8.9997902 1.542836 0.89669502
9.5015974 1.6857131 0.02313
9.3541441 1.670754 -0.124817
9.205821 1.655306 -0.25743699
8.8970509 1.610449 -0.36515
9.3626537 1.717199 -0.58847499
9.3586769 1.7389359 -0.73245198
9.4847727 1.853687 -0.67842603
8.5181837 1.6853319 -0.45079401
8.2313805 1.648453 -0.231052
8.2887182 1.6699589 -0.111066
9.7564192 1.989257 0.191907
8.7347546 1.802078 0.50503802
8.9395447 1.8551641 0.70253098
8.1824379 1.707956 0.82085401
8.808733 1.86005 1.2905281
8.7884178 1.866419 1.5013551
6.698513 1.4307081 1.311362
6.5609918 1.4093111 1.452302
6.3909359 1.380545 1.581947
8.8648472 1.91495 2.194314
6.9218268 1.503564 1.897496
4.3198051 0.94360298 1.300683
4.017837 0.88253599 1.319286
4.257813 0.94042999 1.514621
6.891274 1.522086 2.4514151
4.1694608 0.92599201 1.597415
3.6292 0.81043398 1.490014
3.589052 0.805843 1.571407
3.366292 0.75993299 1.564321
3.4608929 0.78551698 1.699826
3.2751369 0.74735498 1.6933939
3.4255769 0.78586799 1.857002
4.8130441 1.104169 2.6091461
3.5909519 0.82820201 2.033427
3.495223 0.81039703 2.0594771
3.5487151 0.82714701 2.167959
4.0313139 0.94456798 2.5447791
3.4641631 0.81592298 2.250859
4.3684602 1.0342751 2.91205
3.736527 0.89382398 2.5928111
3.5579679 0.86860597 2.5626719
3.7311101 0.92925799 2.6326599
3.7515891 0.94362003 2.5639889
3.8675799 0.97756898 2.587703
3.6075211 0.91629303 2.3540211
3.568594 0.91082197 2.2635961
3.552912 0.91121399 2.182276
3.445868 0.88802397 2.042551
3.730293 0.96594697 2.1261849
3.392765 0.88274902 1.85233
4.8927689 1.273029 2.671279
3.606035 0.94271499 1.878849
3.5633259 0.93597001 1.764623
3.3490889 0.88385397 1.570101
3.534209 0.93710399 1.5619791
3.6757939 0.979213 1.524233
3.8299711 1.025048 1.4828629
4.0886302 1.099369 1.470652
3.6100039 0.975169 1.199267
4.4173121 1.19875 1.3464
4.2607832 1.16159 1.183056
6.5564208 1.795614 1.6447361
6.169631 1.697384 1.384827
6.5851769 1.8281749 1.142045
5.544601 1.546225 0.82511503
5.6664329 1.587301 0.70805299
7.082325 1.983925 0.88497603
7.1256871 2.0049951 0.726933
5.1955199 1.468403 0.41544199
5.0721312 1.439898 0.29856801
5.0144858 1.4298249 0.19506299
5.076911 1.454008 0.101783
5.0415511 1.450215 0.012574
5.6033311 1.618857 -0.076614
5.5316472 1.6051151 -0.158528
5.371006 1.565263 -0.225934
6.1445928 1.798449 -0.33238
6.1543722 1.80908 -0.39657399
5.6762881 1.6828721 -0.455567
5.9574542 1.796384 -0.54246098
5.5563869 1.7036411 -0.40798
4.79245 1.481599 -0.26041901
5.696938 1.761224 -0.30956799
5.2436838 1.6277699 -0.221737
5.4922061 1.7119091 -0.158336
5.498497 1.720884 -0.075681001
4.8014879 1.50886 0.012063
4.5156698 1.424811 0.091260999
4.654592 1.474587 0.182652
4.9141331 1.56309 0.29201001
4.7660618 1.5220931 0.38498399
9.0542135 2.903147 0.93373501
6.2261548 2.0043299 0.78701699
4.3638568 1.410417 0.65739602
5.3961868 1.7440701 0.81291199
5.4132342 1.7565221 0.95101702
5.3538079 1.74411 1.078009
7.7286091 2.5177491 1.5561841
5.132462 1.6786031 1.1686521
6.0623431 1.9827271 1.380385
4.3171368 1.417495 1.099391
5.0429702 1.655817 1.28423
3.4750741 1.145442 0.980187
4.38696 1.446015 1.237396
3.630388 1.20131 1.124869
3.7710171 1.252709 1.274393
3.4482651 1.1499389 1.262622
3.3848701 1.133165 1.335032
3.538939 1.189319 1.495965
3.5507629 1.1978821 1.600871
3.7517509 1.270539 1.795522
3.601723 1.2244 1.822076
3.5689061 1.217867 1.900905
3.273052 1.121152 1.828037
3.6373169 1.250653 2.1223199
3.7252879 1.285738 2.262089
3.798748 1.316035 2.3919129
3.6911089 1.283545 2.4018309
3.506176 1.2237999 2.348676
3.7798891 1.324268 2.598043
3.8816271 1.370037 2.777972
3.9431579 1.4123909 2.9307339
4.9474602 1.77212 3.677177
3.873611 1.407813 2.821918
3.8886449 1.423512 2.7446451
3.786243 1.391012 2.6165459
3.462918 1.276791 2.334244
3.4676969 1.283133 2.2724979
4.4704528 1.654178 2.929637
3.604439 1.33849 2.287606
3.7066441 1.381341 2.2705519
3.5443931 1.32557 2.0880189
3.4262071 1.285904 1.9336179
3.89081 1.465438 2.0958121
3.841073 1.451798 1.9667881
3.21222 1.218375 1.557302
3.394829 1.292153 1.551765
4.170054 1.587222 1.906117
3.3576181 1.282454 1.440174
3.709147 1.421657 1.485666
3.534615 1.359476 1.31545
3.7009039 1.428367 1.272256
3.904062 1.5119849 1.2315429
4.1307731 1.60531 1.187196
3.9173639 1.527611 1.017319
4.2241192 1.652884 0.981668
4.2163701 1.6555049 0.867221
5.2119522 2.0464079 1.071992
5.137126 2.0239141 0.92266798
4.1213489 1.629249 0.635261
5.2260218 2.065948 0.80553401
3.3897581 1.344595 0.43878499
3.7143819 1.478353 0.392591
4.1186099 1.64478 0.34125301
3.4475739 1.381448 0.210315
4.4170432 1.775869 0.178091
4.34863 1.7542371 0.090374999
3.8644459 1.564135 0.009993
4.8618422 1.967832 0.012572
3.810425 1.54742 -0.054021999
3.632549 1.480105 -0.10796
4.056541 1.658356 -0.17698599
4.0312099 1.653465 -0.226201
4.0159478 1.65266 -0.26847601
3.755518 1.555691 -0.31279001
3.8140199 1.600726 -0.360598
3.5738361 1.519483 -0.27261701
3.521018 1.506694 -0.198827
3.5716341 1.5332609 -0.15697099
3.8312321 1.649972 -0.114811
3.3944249 1.466535 -0.048571002
3.787539 1.641596 0.0098940004
3.454854 1.502176 0.072608002
3.7307031 1.627267 0.15225901
3.4062321 1.490447 0.210541
3.5697141 1.566927 0.29997799
3.231591 1.422984 0.346755
3.54827 1.567348 0.466739
3.835443 1.6995291 0.60134798
4.1549692 1.8468879 0.75982499
4.3730149 1.949891 0.91667497
4.4770188 2.002507 1.061411
3.9790039 1.785298 1.05518
3.9611471 1.782763 1.163649
3.8376429 1.732538 1.238598
3.4566929 1.565394 1.21698
3.312078 1.504539 1.263606
3.4953721 1.5926991 1.436622
3.3618 1.536557 1.481088
3.546037 1.625743 1.666478
3.4158731 1.570868 1.70428
3.537885 1.631963 1.866137
3.359993 1.554637 1.866245
3.4534309 1.602739 2.0116351
3.4187491 1.591475 2.0807731
3.4576831 1.614485 2.190403
3.3854711 1.5855629 2.2242031
3.3311939 1.56486 2.2620261
3.3754439 1.590432 2.359901
3.5748589 1.689472 2.564847
3.47574 1.65251 2.597286
3.50261 1.685282 2.719758
3.21896 1.567256 2.4513121
3.5235591 1.725697 2.6004519
3.4111471 1.675555 2.4652569
3.417738 1.683719 2.409611
3.208761 1.585405 2.1997149
3.572978 1.770523 2.372484
3.161768 1.571329 2.0266211
3.3193901 1.654478 2.0464721
3.307384 1.653289 1.953706
3.1611259 1.5847729 1.7825201
3.2980199 1.658195 1.768079
3.40185 1.715349 1.726987
3.375283 1.706876 1.6158
3.3172851 1.682385 1.490386
3.3485961 1.703154 1.405095
3.246454 1.655955 1.265903
3.2095709 1.641839 1.156207
3.604687 1.849241 1.191752
2.884295 1.483909 0.86892003
3.7715721 1.940395 1.13622
2.9929409 1.544202 0.814843
3.600703 1.863071 0.877388
3.7356009 1.938377 0.80573303
3.469182 1.805248 0.65351498
3.4322031 1.7910711 0.55494797
3.785193 1.980878 0.51404601
3.24998 1.705597 0.36043701
3.129595 1.647054 0.27212799
3.0268331 1.597468 0.19380599
2.964113 1.568767 0.12545601
3.0309279 1.608642 0.066133998
2.81422 1.497815 0.0076410002
3.0486569 1.627134 -0.045393001
2.9427581 1.5750099 -0.091865003
2.9510901 1.583879 -0.135262
3.344285 1.799914 -0.19716799
3.318356 1.790936 -0.233119
3.2739251 1.776783 -0.28662801
3.0987179 1.700381 -0.30814099
3.918813 2.150398 -0.38969299
3.947124 2.189847 -0.316874
2.824847 1.5758049 -0.167927
2.8070741 1.570166 -0.129895
3.013973 1.690493 -0.095110998
2.7461979 1.5445009 -0.041386999
3.4878719 1.961629 -0.052563999
2.6705949 1.506063 0.0073489998
2.91204 1.6466891 0.064476997
2.963397 1.6802731 0.127437
3.2859859 1.868227 0.214046
3.1165359 1.776684 0.276041
3.2331431 1.848135 0.365715
3.0389531 1.741815 0.42146301
2.9137349 1.674547 0.481731
3.131206 1.804368 0.60390401
3.192445 1.844596 0.70588601
3.272845 1.896129 0.81858599
3.079381 1.7888221 0.86163998
3.2851291 1.9138221 1.018484
3.2414651 1.893427 1.104268
3.3228371 1.946142 1.234998
3.088829 1.813905 1.244247
3.2994831 1.942765 1.432068
2.9431911 1.737587 1.369504
3.0870619 1.827361 1.532515
3.1556499 1.87291 1.663407
3.0962701 1.842537 1.725745
3.0359111 1.811394 1.78207
2.97737 1.781155 1.833176
2.972604 1.782998 1.912649
3.094815 1.86119 2.0729179
3.0844021 1.859813 2.142905
2.8987999 1.752491 2.0819011
3.0861411 1.870644 2.2823949
3.101469 1.884868 2.354238
3.1752739 1.9398299 2.5111389
3.334698 2.0585611 2.7421169
2.991523 1.865958 2.4140251
3.161694 1.982318 2.4733851
3.074084 1.932363 2.3553269
2.9494131 1.858775 2.20489
3.2626481 2.0614841 2.371985
2.887985 1.82945 2.0339961
2.865484 1.81986 1.948463
2.8737049 1.829772 1.879797
2.7969711 1.7854789 1.7532901
2.8437541 1.819999 1.701947
2.98769 1.9170099 1.700258
3.0249159 1.945856 1.630378
3.0812459 1.9871579 1.5663
2.8709359 1.8562469 1.369876
3.123389 2.0246191 1.392133
3.1579909 2.0522659 1.308231
3.2176709 2.0963659 1.231639
3.2802629 2.1425731 1.1525249
3.40048 2.2267389 1.0888669
3.0615449 2.0098751 0.88609701
2.5741651 1.694194 0.66692501
2.7077661 1.7866369 0.62108201
3.335773 2.2065699 0.66834903
2.6712379 1.77145 0.459454
2.4456489 1.625945 0.353369
2.4868691 1.657515 0.29348999
3.0748229 2.054549 0.28455701
2.933085 1.964776 0.199912
2.7716751 1.861317 0.124895
3.802031 2.5532529 0.171325
2.8007891 1.885597 0.065073997
2.8040841 1.892548 0.0081089996
2.8471999 1.9264621 -0.045155998
2.7754641 1.882632 -0.092304997
3.7996149 2.5773251 -0.126366
3.3487899 2.277205 -0.16354901
2.353353 1.604298 -0.147863
2.3649991 1.616266 -0.177092
2.6595819 1.826659 -0.24826799
2.5367141 1.759672 -0.269146
3.739176 2.5937979 -0.39672801
2.413408 1.690794 -0.206861
2.314167 1.629294 -0.146929
2.694732 1.901914 -0.133204
2.826709 1.999982 -0.095303997
2.893718 2.052444 -0.046601001
2.9306941 2.0837879 0.0086190002
2.4856441 1.7717 0.058830999
2.618094 1.870694 0.120372
2.756417 1.9743659 0.19199701
3.376529 2.41854 0.235191
2.666173 1.9144191 0.25256401
2.4280231 1.7476929 0.29378399
2.4588521 1.77422 0.364838
2.6138921 1.890715 0.46243301
2.6693821 1.935576 0.55099702
2.6868639 1.953015 0.63593698
2.518259 1.834937 0.67432803
2.535145 1.85175 0.759579
2.8906529 2.116529 0.95974499
3.0726731 2.2552869 1.121201
3.0679519 2.257313 1.221561
2.9162121 2.150888 1.258684
2.9221721 2.160526 1.3592041
2.7085919 2.007488 1.350907
2.80726 2.085669 1.4940161
2.8378761 2.1135311 1.603955
2.8864529 2.1549301 1.7253129
2.8697159 2.1476271 1.806828
2.816349 2.112792 1.860272
2.900552 2.1812339 2.0025079
2.9094069 2.1931851 2.091337
2.8043201 2.1190829 2.0912621
2.8258131 2.1404819 2.1787701
2.8048401 2.1297231 2.22734
3.607857 2.7394569 2.865021
2.759089 2.100045 2.249207
2.782438 2.128036 2.364017
2.8910069 2.232435 2.555793
2.859946 2.2297299 2.482949
2.9166639 2.2848639 2.4557059
3.218647 2.5274651 2.6546409
2.823103 2.2221651 2.272239
2.8445401 2.2443981 2.226943
2.852603 2.2561369 2.1638689
2.876812 2.2807169 2.1072669
2.6932039 2.1402559 1.898156
2.8534169 2.272984 1.927544
2.8540101 2.278883 1.841038
3.091794 2.474633 1.896808
2.7798581 2.230262 1.615515
2.836365 2.2810211 1.554908
2.6862121 2.1654069 1.382522
2.627785 2.1233439 1.263569
2.736562 2.216502 1.2232471
3.1662509 2.5706251 1.307986
3.3811481 2.7516141 1.28234
3.0298901 2.471616 1.047465
2.8088491 2.2967379 0.87786698
2.523994 2.0687101 0.70626801
2.4110019 1.9807889 0.59739
2.6907189 2.215831 0.58247799
2.9833541 2.462635 0.55452299
2.3437819 1.939279 0.366032
2.3057621 1.912334 0.29417399
2.294765 1.907714 0.229625
2.2120421 1.8432961 0.16305099
2.254077 1.882761 0.109868
2.208581 1.849122 0.055516001
2.2106659 1.855237 0.0069169998
2.2205701 1.867945 -0.038116001
2.9161241 2.4530461 -0.050055999
3.0461569 2.568481 -0.109666
2.7358301 2.3122561 -0.144664
2.6989291 2.2864439 -0.18363599
2.8202879 2.394891 -0.228738
2.5243089 2.153662 -0.255326
2.7409019 2.360544 -0.31535
2.7154679 2.3606949 -0.25258899
2.383553 2.0818851 -0.164298
2.344058 2.0521901 -0.125819
2.4516411 2.1514101 -0.089773998
2.5024109 2.2011161 -0.043777
2.2300291 1.966125 0.0071259998
2.337466 2.065681 0.060121998
2.4415851 2.162746 0.122017
2.1285329 1.88986 0.161185
2.215821 1.971971 0.22824401
2.192364 1.95566 0.288506
2.1508219 1.9230911 0.347157
2.8250821 2.52596 0.45598701
2.4658 2.2098811 0.47463599
2.5380261 2.2799289 0.57011598
2.2006111 1.981447 0.56692803
2.299325 2.0751741 0.67030901
2.725306 2.465374 0.88915497
2.825124 2.561588 1.021589
2.646003 2.404778 1.051778
2.6510241 2.414974 1.1501
2.567111 2.343991 1.207497
2.644928 2.42068 1.340988
2.635577 2.417757 1.433107
2.686075 2.4698291 1.558836
2.6648779 2.456053 1.642764
2.9274671 2.704365 1.908903
2.643137 2.4473951 1.81583
2.95906 2.7463081 2.1330991
2.702069 2.5136471 2.0363259
2.858855 2.6656971 2.24367
2.8856709 2.6969769 2.3499861
2.706491 2.5354061 2.279305
2.577852 2.4205229 2.2364271
2.616612 2.462646 2.330838
2.739814 2.59062 2.544703
2.6328771 2.5127771 2.5466199
2.7959709 2.693356 2.658083
2.691159 2.604471 2.4822249
2.7182429 2.6368001 2.4565489
2.6916361 2.6170609 2.3743329
2.6504221 2.582988 2.2745919
2.610301 2.5498021 2.1710269
2.635601 2.5804999 2.117224
2.706465 2.6560509 2.0923669
2.744462 2.6996009 2.034059
2.578465 2.5422211 1.8252831
2.6724529 2.641012 1.799613
3.3716781 3.3320119 2.270467
2.6491671 2.6240859 1.690243
2.603832 2.5851829 1.567479
2.5226581 2.510411 1.4260401
2.611454 2.6048169 1.379522
2.5552189 2.554656 1.255075
2.530391 2.535713 1.148878
2.708133 2.7201359 1.129102
2.7882111 2.8070869 1.059886
2.220077 2.2403021 0.763107
2.362457 2.3895199 0.72720897
2.6057429 2.641727 0.71039897
2.728544 2.7726541 0.65005398
3.4238 3.487236 0.70053202
8.1749554 8.3264208 1.672649
2.2884929 2.3363199 0.393509
2.141695 2.1915369 0.30091801
2.0547071 2.1074131 0.22647899
2.0069971 2.063271 0.162994
2.4378941 2.5120771 0.130951
2.5753169 2.6598611 0.071355999
2.4663999 2.553292 0.0085089998
2.2058041 2.288826 -0.041754998
3.1647291 3.283843 -0.059907001
2.110352 2.1948819 -0.083803996
2.088208 2.176903 -0.121824
2.19436 2.2928851 -0.164764
3.31916 3.4681859 -0.24922
2.264214 2.3713861 -0.20269901
2.3346469 2.4565461 -0.260773
2.2611749 2.4014831 -0.28755799
2.037282 2.1839321 -0.20966201
2.020195 2.1757259 -0.154136
2.0438631 2.2063479 -0.121461
2.4302759 2.629595 -0.098550998
2.4631741 2.6714139 -0.047731001
2.1975939 2.3889401 0.0077800001
2.02811 2.2098479 0.057808999
2.0548711 2.244231 0.11383
2.06321 2.2585959 0.173227
2.2928629 2.5158639 0.261924
2.2073829 2.4277239 0.32222399
2.4027591 2.648772 0.43030301
2.26965 2.5078869 0.484853
2.294944 2.541759 0.57225901
2.751024 3.0468891 0.68598503
2.089061 2.31914 0.59757799
2.2774079 2.534148 0.73736203
2.083426 2.3237171 0.75511098
2.5103021 2.8063159 1.008651
2.0945449 2.3470089 0.92535001
2.3314569 2.618597 1.124447
2.292912 2.581332 1.199294
2.353761 2.656038 1.3273261
2.307508 2.609951 1.3959121
2.411958 2.7344811 1.557658
2.3803 2.704911 1.633268
2.3777001 2.708297 1.726177
2.406956 2.7480481 1.841488
2.4051061 2.7523761 1.931282
2.688632 3.0840659 2.257592
2.644871 3.040988 2.313364
2.4922831 2.872283 2.262552
2.3910029 2.7620299 2.24527
2.517344 2.9148059 2.435802
2.3843291 2.7672861 2.3694761
2.4950991 2.9094779 2.586657
2.519784 2.9660389 2.7231979
2.338779 2.7790339 2.486903
2.3384261 2.7917531 2.4137189
2.344975 2.806181 2.3721969
2.348213 2.816695 2.319277
2.3114979 2.7792161 2.2217071
2.316361 2.7916479 2.1582439
2.4958279 3.015053 2.2466569
2.5718579 3.1142631 2.228606
2.668834 3.239341 2.2176571
2.697247 3.2815931 2.1412749
2.32462 2.83494 1.755983
3.0217209 3.6850741 2.282562
2.3361881 2.8558021 1.67249
3.472276 4.2445769 2.485821
2.1728511 2.6624441 1.468087
2.5084159 3.0809121 1.5919271
2.0957739 2.580205 1.243251
2.2010479 2.7162571 1.2143871
2.179641 2.6962321 1.111926
2.041033 2.5307751 0.956393
1.996377 2.4813001 0.853136
2.0551879 2.560477 0.794384
2.209662 2.7594841 0.76507097
2.1516709 2.6934741 0.66000599
3.0166309 3.7762361 0.92532402
2.168097 2.720505 0.58132398
2.0446129 2.5716779 0.470947
2.1445849 2.703867 0.41525099
2.7954881 3.5245171 0.54128301
2.0230579 2.5567369 0.320171
2.0979559 2.657727 0.26054299
2.011838 2.5547309 0.184139
2.0915551 2.6623111 0.126652
2.0771971 2.6503711 0.064900003
2.0818901 2.6627181 0.0081010005
1.986378 2.5466461 -0.042424999
2.085969 2.6807461 -0.093488
2.4838769 3.1997671 -0.163589
2.09057 2.6995659 -0.177259
2.3486431 3.0401101 -0.2375
2.037096 2.6495299 -0.25716701
2.6247661 3.4138789 -0.33135599
2.1673231 2.8461781 -0.311876
2.0247991 2.684792 -0.236063
2.6320579 3.48999 -0.30686
2.1952469 2.9249079 -0.18985701
2.3708761 3.1665609 -0.159756
1.897456 2.5403991 -0.087269999
2.5273499 3.383728 -0.116241
3.0286319 4.0548682 -0.13929699
1.8747441 2.5160849 -0.041216001
1.918509 2.5810699 0.007708
2.053911 2.7699521 0.066460997
2.0662811 2.793406 0.129979
1.9485461 2.640645 0.185835
2.47363 3.3604 0.32107601
1.909108 2.599818 0.316751
2.4716499 3.3658869 0.41008499
1.970775 2.690336 0.401274
1.972299 2.698992 0.479177
2.158469 2.9609649 0.61230999
2.0656469 2.8405521 0.67241597
2.1291921 2.935102 0.784742
2.177819 3.0094781 0.89879602
2.219135 3.0740111 1.015638
2.2929561 3.1840589 1.154219
2.1405759 2.979764 1.176669
2.008924 2.8033669 1.197981
2.221807 3.108057 1.428916
2.1573861 3.025372 1.488898
2.295306 3.226706 1.69162
2.2316599 3.144963 1.7480429
2.4714279 3.4914539 2.0488629
2.367244 3.352524 2.068804
2.407279 3.4176421 2.208781
2.7141311 3.8628211 2.6049521
2.5177691 3.5922191 2.5179679
2.490243 3.5617549 2.5857
2.486506 3.565223 2.671494
2.4533861 3.5264599 2.716959
2.4327331 3.505466 2.7678361
2.429914 3.518832 2.8859351
2.352874 3.4759591 2.873893
2.299305 3.413893 2.7280719
2.403295 3.5862479 2.7303219
2.404213 3.596658 2.658927
2.434346 3.650912 2.610755
2.3486559 3.5312791 2.434334
2.1268401 3.205853 2.1228039
2.1303301 3.2192259 2.039665
2.228904 3.3767149 2.039546
2.3687229 3.59762 2.063118
2.2134089 3.3702481 1.8277251
2.1466961 3.2769699 1.6735491
2.050328 3.137809 1.501917
2.1203899 3.2532799 1.452386
2.703933 4.1486001 1.85209
2.1769049 3.3484991 1.387309
2.044378 3.1526561 1.20507
2.059634 3.1842821 1.115556
2.0250101 3.138752 1.0006289
1.941376 3.016808 0.86799002
1.989852 3.1000459 0.79722202
1.941959 3.0331891 0.68952698
2.3285501 3.6370151 0.82679302
1.646713 2.5786309 0.51127499
1.8687479 2.93383 0.49861601
2.005075 3.155951 0.44989499
1.786715 2.819489 0.32779399
1.826156 2.889147 0.26299801
2.266181 3.5853059 0.32637
1.659132 2.6316731 0.176167
1.770341 2.815315 0.124409
1.680317 2.679065 0.06095
1.69236 2.7052431 0.007648
1.592209 2.551739 -0.039508998
2.246454 3.60026 -0.055743001
1.566063 2.51635 -0.081574999
1.562457 2.5170701 -0.119645
1.762675 2.846992 -0.17383701
2.214618 3.5862651 -0.26057801
1.718089 2.796721 -0.25256401
1.9380749 3.1879621 -0.32525101
1.969499 3.2738421 -0.26820499
1.909707 3.1912251 -0.19307201
1.830709 3.0672979 -0.14426
2.3612311 3.956171 -0.186065
1.501724 2.5227489 -0.080805004
1.493101 2.514915 -0.038417999
1.4928499 2.5211599 0.0070230002
1.559804 2.641238 0.059119999
1.589914 2.6993821 0.117195
1.713793 2.9174509 0.19160099
1.701033 2.9034581 0.25893199
1.957616 3.350333 0.38105899
1.73461 2.9766071 0.414534
1.6618249 2.859349 0.474069
1.789057 3.086513 0.59615803
2.723897 4.699316 0.90767002
1.6063859 2.778801 0.614501
1.799878 3.1218901 0.77987701
1.890942 3.2886641 0.91784501
1.9235311 3.3542681 1.035821
2.139442 3.740839 1.267665
1.9701459 3.4541409 1.27531
2.2157459 3.895246 1.556621
2.542346 4.4815102 1.927057
1.977813 3.4958529 1.609409
2.395499 4.2456269 2.0825081
1.9247791 3.429965 1.883848
2.0051429 3.582922 2.0697041
1.964897 3.5205989 2.130296
1.917009 3.4442041 2.1749799
2.4395311 4.419189 3.1024311
2.365247 4.2964139 3.1018131
2.3235371 4.2322969 3.1319101
2.277633 4.1716318 3.2075889
2.185848 4.0481658 3.219106
2.2180591 4.1538949 3.2241609
2.2500579 4.2375059 3.1799879
2.2404809 4.2313318 3.105788
2.2793291 4.3168182 3.0873809
2.309267 4.3858681 3.0464039
2.3782289 4.529603 3.0438349
5.0236001 9.5950747 6.2167621
1.765502 3.381676 2.104928
1.845445 3.5448329 2.111609
1.787636 3.4435661 1.955821
1.828406 3.532131 1.905015
1.960315 3.808619 1.829904
2.0298159 3.954937 1.781248
1.971815 3.852937 1.618784
1.499373 2.9382081 1.1458091
1.469981 2.888895 1.039548
2.3414321 4.6015239 1.655826
1.479336 2.915657 0.96175498
1.804461 3.5564511 1.173126
1.605121 3.1727099 0.95249999
1.470883 2.9157791 0.790151
1.3395261 2.663075 0.64513803
1.766418 3.511766 0.85073698
1.540238 3.0709989 0.657749
1.415243 2.8299789 0.52874601
1.339747 2.686811 0.430365
1.512554 3.042227 0.40880001
1.415822 2.8559871 0.31303701
1.832624 3.707576 0.31823701
1.608775 3.264261 0.206075
1.46055 2.9722121 0.123886
1.45652 2.972743 0.063801996
1.527073 3.125927 0.0083389999
1.5986249 3.282057 -0.047954001
1.710061 3.5212409 -0.10774
1.891162 3.9056931 -0.17525101
1.552176 3.2151239 -0.18534701
1.514233 3.1458731 -0.21584199
1.495878 3.1263089 -0.26668099
1.4775341 3.1252151 -0.30136701
1.610582 3.448025 -0.26715499
1.4479049 3.1186471 -0.17850301
1.390906 3.005012 -0.133728
1.711359 3.7086401 -0.112417
2.024229 4.386651 -0.13296901
1.552084 3.3737891 -0.048781998
1.627082 3.5476651 0.0093550002
1.427672 3.1224561 0.066171996
1.432431 3.142513 0.12919401
1.508036 3.3185871 0.206414
1.482394 3.2722631 0.27642399
1.291944 2.8606961 0.30824801
1.626604 3.6017201 0.38809499
1.341385 2.9793961 0.39315
1.438913 3.205977 0.50372499
1.439696 3.2177241 0.58907002
1.565927 3.5107851 0.73597199
1.280629 2.8801529 0.68215501
1.278473 2.884325 0.76334202
1.598719 3.6180539 1.0596271
1.548456 3.515326 1.129949
1.5344321 3.4944811 1.224004
1.564009 3.5730889 1.3548239
2.2253699 5.0840158 1.927729
1.931349 4.42627 1.8062
2.134084 4.9064341 2.1438949
