# .PCD v0.7 - Point Cloud Data file format
VERSION 0.7
FIELDS x y z
SIZE 4 4 4
TYPE F F F
COUNT 1 1 1
WIDTH 1537
HEIGHT 1
VIEWPOINT 0 0 0 1 0 0 0
POINTS 1537
DATA ascii
3.8777521 4.173275 0.81660098
4.7254 5.0855222 0.99510401
3.8368559 4.138885 0.943106
5.0854101 5.485723 1.250003
3.8565609 4.1698399 1.087411
5.0262671 5.4345641 1.417226
4.9318428 5.3449192 1.573926
4.8785839 5.2995281 1.742799
4.7998619 5.2260671 1.90086
4.7572131 5.1917138 2.0713849
4.709455 5.1516018 2.2385099
4.6729708 5.1236229 2.4087591
9.432745 10.366562 5.242043
5.0299082 5.55372 3.2009571
5.539813 6.116725 3.5254531
7.1546631 7.9181972 4.8374629
6.501874 7.2125788 4.6510882
6.7361779 7.4899569 5.0779328
4.9700818 5.5391521 3.9321721
5.9138989 6.6064668 4.8924971
4.5494099 5.0940709 3.9203241
5.8862138 6.590919 5.0722761
4.4845409 5.0449772 4.1486182
3.3674009 3.7970929 3.209785
3.3755391 3.8151939 3.304424
4.1388831 4.7441611 4.4052739
5.8862209 6.7470312 6.2650752
3.239182 3.7655289 3.2921381
4.2208838 4.9067512 4.2898898
6.0051618 6.9973741 5.9813771
3.307898 3.8635161 3.2167339
3.4605601 4.051342 3.2747011
4.3613901 5.1059608 4.1271491
3.5958519 4.2196388 3.2984681
5.6810579 6.6822701 5.0344419
4.0674758 4.795599 3.4697261
4.0801482 4.8218741 3.3374641
4.105278 4.8630242 3.208087
4.1266518 4.8998699 3.068327
4.1224189 4.9063911 2.9048719
4.1547461 4.956552 2.7629271
4.2005339 5.0230069 2.6237049
4.2511668 5.095561 2.4819479
4.3383098 5.212317 2.355603
4.3944521 5.2922511 2.2061391
4.5013232 5.4337759 2.075618
4.5892491 5.5530419 1.929841
3.536099 4.288847 1.344902
4.688623 5.6867151 1.7832479
4.8608532 5.9095702 1.655996
3.5251479 4.2958579 1.063907
3.425736 4.1846061 0.903714
3.5221319 4.3125591 0.79815501
3.5451829 4.3510952 0.67532003
3.7651639 4.6320529 0.58619899
3.412544 4.2082171 0.41690001
3.4392591 4.2512522 0.30964899
3.475704 4.3065138 0.20702501
4.7917452 5.951273 0.147259
3.814414 4.7487168 0.014599
3.333369 4.1597242 -0.070019998
3.3662591 4.2107878 -0.148376
3.3711171 4.2269149 -0.218347
3.5086739 4.409883 -0.29256299
3.331557 4.1972771 -0.33129099
3.4969549 4.4267192 -0.43408501
3.766283 4.8134642 -0.53281999
3.4127769 4.4036589 -0.391103
3.236161 4.195858 -0.27509099
3.3402431 4.341217 -0.221213
3.525341 4.592803 -0.159354
3.5435219 4.6276159 -0.076560996
3.438889 4.5017872 0.013578
3.316067 4.3514791 0.105444
3.534894 4.6498179 0.218502
3.811677 5.0259981 0.357196
3.5865369 4.7405672 0.45740801
3.221298 4.2680931 0.52511603
3.425447 4.5495558 0.68523502
3.317826 4.4172921 0.79191202
4.5189729 6.0456529 1.445055
4.5393171 6.1023812 1.840157
3.990792 5.3778868 1.793991
4.4461098 5.9914608 1.9986711
3.8793809 5.2532082 2.0943661
4.0855579 5.5458598 2.3926809
7.4945431 10.198086 4.7333918
5.5571489 7.5987358 4.0216241
3.782809 5.1851592 2.9094141
3.7058671 5.092114 3.01649
3.746762 5.1608858 3.214839
3.647397 5.036304 3.2856081
3.4081631 4.717504 3.2112601
3.536334 4.9069028 3.4717889
3.178473 4.4211721 3.2396669
3.656549 5.0861621 3.7269471
3.28935 4.5866222 3.4689629
3.0881701 4.3166709 3.3567779
3.009342 4.2168331 3.360477
2.8695381 4.0407381 3.3446419
2.9163661 4.1473632 3.54761
2.9029081 4.1692438 3.4783881
3.0708079 4.4323101 3.573895
2.9691939 4.2962871 3.387687
3.502934 5.068584 3.996655
3.255722 4.72259 3.627779
3.4882951 5.0725551 3.7836571
3.5381031 5.1577969 3.7213221
3.1942589 4.6681528 3.2467749
3.4349649 5.0324659 3.3619909
5.4154491 7.9538269 5.0842142
3.4913149 5.1406288 3.1324649
3.4336729 5.0684042 2.932255
3.899091 5.8279982 2.4356649
3.271348 4.9020081 1.8900599
4.0827088 6.1178069 2.358834
4.3339 6.5434651 1.898948
3.0983319 4.7016511 1.078009
3.8295441 5.8112512 1.332422
3.2468369 4.9394741 0.987773
3.196347 4.8749809 0.83561498
3.7000329 5.643189 0.96729302
3.3099811 5.061111 0.72764403
3.2228291 4.940361 0.57925999
3.2132511 4.9381962 0.45334199
3.2107589 4.9469328 0.33396
3.2003019 4.943378 0.220296
3.1679921 4.9059601 0.112555
3.145546 4.8836288 0.013923
4.1581421 6.455739 0.018406
3.15853 4.9163132 -0.076757997
3.965457 6.1723118 -0.096368
3.326637 5.1912341 -0.169698
3.23629 5.0631738 -0.24268
3.192189 5.0069761 -0.308272
3.7113359 5.8212628 -0.35840601
3.628577 5.7060752 -0.41804799
3.4521589 5.4565849 -0.49684301
3.3768589 5.3928561 -0.55470598
3.4881239 5.6284952 -0.46484199
3.288662 5.3342748 -0.32532901
3.2240231 5.243042 -0.24857201
2.8258059 4.6074219 -0.148761
3.057641 4.9984512 -0.076967999
3.2078209 5.2576561 0.014762
3.8140719 6.2513099 0.017552
3.0914559 5.080204 0.114616
3.0507891 5.0265059 0.21995901
3.124934 5.1621661 0.34170499
3.153887 5.22369 0.46952999
3.1533079 5.2364578 0.600272
3.3395951 5.5604048 0.78044701
3.4279909 5.7226419 0.95622498
3.6250529 6.0675802 1.181108
3.4273551 5.812921 1.9850301
3.332366 5.7429008 3.009738
4.2543669 7.3318491 3.842474
5.5780339 9.6388083 5.3340421
5.3104548 9.2010517 5.3552141
3.870069 6.7234101 4.0989518
3.5164549 6.1255388 3.8972819
4.9662652 8.6743593 5.7373619
2.830338 4.9569812 3.3961279
2.9055181 5.1023941 3.6087689
2.6606829 4.6850772 3.407557
3.019012 5.359437 4.1512942
2.8151901 5.0523572 4.0469589
2.954381 5.3605642 4.1907878
2.732326 4.9850168 3.7678101
2.6102569 4.7754502 3.5302689
2.6721139 4.9021282 3.5310309
4.6612349 8.5749722 5.9985571
2.9942861 5.523664 3.7381959
3.633935 6.722259 4.386282
3.8264959 7.0981789 4.449481
3.4731519 6.4606662 3.875644
3.5254281 6.5762239 3.7612979
3.411778 6.3820028 3.466177
3.464566 6.4988799 3.3383739
3.22928 6.074523 2.938925
6.1637878 11.659784 4.9327192
4.1298442 7.8563752 2.8465419
4.8980522 9.3440857 3.1034091
3.786875 7.2447429 2.1898961
3.904815 7.5128078 1.832405
3.2282181 6.2287259 1.34314
3.8631749 7.4750762 1.406088
2.9769139 5.776629 0.93153602
2.8792391 5.603076 0.75798798
2.826503 5.516192 0.60867703
2.867955 5.613133 0.485028
2.9414389 5.773509 0.36691999
3.097151 6.0966282 0.25580901
2.78262 5.493289 0.118682
2.9805319 5.9009752 0.015845999
2.8115151 5.5824409 -0.082103997
2.7916441 5.5590591 -0.171212
2.9521849 5.895803 -0.26628599
2.8911369 5.7906642 -0.336009
2.8472011 5.7192869 -0.39497
3.064476 6.1917229 -0.53159702
3.055908 6.2472548 -0.60629499
3.005266 6.216711 -0.48473001
2.9024429 6.0397768 -0.347882
2.9353931 6.1265488 -0.27435699
2.781765 5.8232441 -0.17762201
2.5367501 5.3262458 -0.077494003
2.5535109 5.3775082 0.014269
2.6238 5.5421472 0.118181
2.7013309 5.7230802 0.236744
2.7475231 5.83849 0.365394
2.701885 5.7588739 0.48947799
2.8795531 6.1561332 0.66741401
2.795059 5.9936109 0.79573798
2.76685 5.951169 0.940759
3.4662819 7.4555669 1.178574
3.5231769 7.601006 1.39999
3.5094121 7.5944018 1.601689
4.229701 9.2395802 2.722167
4.9346519 10.812625 3.496238
4.6075091 10.158152 3.8744891
3.9684651 8.8035116 3.8693509
2.946954 6.557713 3.071316
3.369132 7.4971662 3.5113101
3.4347529 7.6669559 3.808207
4.048439 9.0650063 4.7551942
3.4150579 7.6706591 4.2325859
3.0867491 6.9549308 4.0204668
2.5059569 5.69976 3.7044489
3.9803979 9.0819216 6.0943789
4.0251489 9.2130737 6.3586359
3.610697 8.5606108 6.361321
3.5871501 8.5602112 6.1516962
2.6501451 6.3448172 4.460319
2.635047 6.329299 4.3360171
2.9469531 7.101717 4.7256441
3.1481471 7.7382922 4.0013962
2.940541 7.252068 3.5472801
3.7361281 9.2759399 4.0069699
3.7586479 9.3631687 3.7735419
3.639782 9.0976048 3.403631
2.913883 7.307785 2.523134
4.1020679 10.357467 2.984293
4.0991058 10.38515 2.7013271
2.468806 6.2975178 1.2950031
2.3100541 5.9127378 1.060788
2.359632 6.060359 0.93224502
2.7884459 7.1863761 0.92750502
2.4052119 6.2200851 0.65490502
2.4554911 6.3720679 0.52546
2.3594141 6.1440001 0.37268701
2.357981 6.1616082 0.24680001
2.2950301 6.0180392 0.124136
2.421329 6.3714008 0.016337
2.6807499 7.078742 -0.099427998
2.542218 6.736547 -0.198174
2.6672969 7.0928788 -0.30603299
2.3499811 6.2711358 -0.34767401
2.363029 6.32831 -0.41761601
2.3854091 6.4337368 -0.527991
2.5621679 7.0101342 -0.650675
2.3324859 6.4747438 -0.48311901
2.4108281 6.741241 -0.37167901
2.3452599 6.5819578 -0.28218499
2.2941661 6.4622579 -0.188737
2.486387 7.0295901 -0.097943999
2.2564211 6.4030318 0.016271999
2.218102 6.317688 0.129049
2.348876 6.7150669 0.26612699
2.155973 6.1865978 0.37099099
2.3221481 6.6884251 0.54479301
2.487421 7.19136 0.747262
2.8092401 8.1523571 1.037529
2.1727209 6.3290448 0.95920497
3.58461 10.481381 1.851105
3.5871551 10.528682 2.1295049
2.3518741 6.9293499 1.583656
2.4211271 7.1606641 1.828869
3.199023 9.497344 2.6846471
2.4091821 7.2077508 2.43732
3.3082581 9.935935 3.637584
3.3855641 10.207629 4.0222631
3.371762 10.205699 4.3067589
2.2830729 6.9374609 3.120029
2.858387 8.7197132 4.1595492
2.621815 8.0612507 4.273098
2.633321 8.1286964 4.5147328
3.1234159 9.6799088 5.6123371
3.1172571 9.6993322 5.847878
2.2958951 7.4391632 5.4475422
2.292382 7.5520778 5.4037328
2.9094579 9.789155 6.276597
2.8391271 9.6343613 5.7652402
2.3818481 8.117403 4.6678491
3.1688819 10.84622 5.9704361
2.474309 8.5056009 4.4653039
2.0013471 6.9397869 3.273968
2.856149 9.9472771 4.421155
2.8435559 9.9469299 4.1453338
2.8152671 9.8914022 3.8464069
2.283808 8.0596952 2.9098051
2.7682281 9.7692451 3.5270059
2.0634069 7.3142452 2.43732
2.7394891 9.7107811 3.2359149
2.649024 9.4319878 2.8818779
2.3726611 8.485858 2.360419
2.695497 9.6838169 2.432065
2.7138331 9.7936811 2.199393
2.603384 9.4377041 1.874341
2.4686439 8.9899426 1.557889
2.449327 8.9603157 1.3315361
2.4412439 8.9717293 1.118764
2.377058 8.7760382 0.892883
2.0566709 7.6282558 0.607934
1.962846 7.3140659 0.42882699
1.8813291 7.0429578 0.272706
1.886435 7.095139 0.141498
1.887751 7.1334229 0.017687
1.885426 7.1582208 -0.097235002
1.824338 6.9591231 -0.198009
1.886097 7.22891 -0.301716
1.9095891 7.3538799 -0.39443901
1.84111 7.3347769 -0.65927303
1.73453 7.1198959 -0.38044
1.781083 7.3480611 -0.305347
1.698807 7.0804262 -0.095646001
1.735306 7.2697358 0.017914001
1.803696 7.5953212 0.15045799
1.837841 7.779263 0.29902399
1.824421 7.7627158 0.45155501
2.0206399 8.6426954 0.68296701
2.1042881 9.0478373 0.91223401
2.081629 8.9977322 1.111238
1.983528 8.6193066 1.267825
2.1374321 9.3376627 1.600742
2.3137021 10.216783 2.2670801
2.2848101 10.143849 2.5157831
2.0242541 9.0355396 2.480485
2.1031001 9.4388285 2.8446269
2.1647589 9.7690296 3.2090411
1.659922 7.5322061 2.6791329
1.999521 9.1235743 3.493294
2.127871 9.7634745 4.0039949
2.2401659 10.336374 4.518189
2.1301761 9.9403658 4.869236
2.0238931 9.6076431 5.4176421
2.0059819 9.5777168 5.61689
1.679417 8.1123867 5.0916519
1.514814 8.0697498 5.1928501
1.6985281 9.1658154 5.5461922
1.759908 9.558959 5.5790558
1.859558 10.301708 5.2768912
1.798923 10.168306 4.4113331
1.378855 7.8469849 3.192409
1.9242949 11.026117 4.1862078
1.722074 10.004568 3.255765
1.576845 9.2898827 2.524215
1.706658 10.125896 2.4845059
1.562629 9.6115656 1.171685
1.3839329 8.5752602 0.85300797
1.3749419 8.5828724 0.66885
1.282348 8.1256819 0.30773401
1.30651 8.3417368 0.162733
1.365257 8.7835035 0.021306001
1.325224 8.5916462 -0.114192
1.302754 8.5116186 -0.236995
1.123311 8.7631168 0.33050001
1.151504 9.1515741 0.70974201
1.23356 9.8964434 0.97937602
1.119493 9.4269886 2.054502
1.138106 9.8764277 2.9244909
1.138278 10.18995 3.834847
0.96297902 8.8060274 3.7843421
1.21876 11.389821 5.4865298
0.89496797 8.7476997 5.0473862
0.6692 8.4825201 5.0624909
0.775056 10.124215 5.602675
0.80242801 10.811719 5.4650459
0.68914902 9.5868835 4.3568959
0.70316797 10.11026 4.0609031
0.739465 10.813471 4.053791
0.66159499 10.016555 3.219424
0.57204503 10.51632 0.81040001
0.222789 12.966528 1.8589571
0.070568003 10.455404 3.9105141
-0.047731001 9.8561373 6.057725
-0.199898 8.5455761 5.4061232
-0.39969599 11.055358 4.1375151
-0.44386199 6.5720448 -0.57424802
-0.98028898 12.75454 -0.35207999
-1.050294 6.0471892 -0.535079
-1.685421 6.0479889 -0.48311001
-1.586166 5.5913248 -0.506679
-1.124573 -3.3112199 1.929558
-1.1198879 -3.3099561 2.005712
-1.081488 -3.2086611 2.0145659
-0.99523503 -2.964047 1.921674
-1.0584331 -3.164355 2.11028
-1.014679 -3.045228 2.082135
-0.97111899 -2.937068 2.0876739
-1.0456769 -3.2122331 2.3637359
-1.007906 -3.1454411 2.2614889
-1.081044 -3.400676 2.3651021
-0.91976601 -2.9049389 1.976559
-0.96386403 -3.0564561 2.026895
-0.91419101 -2.910656 1.875073
-1.038353 -3.3193569 2.0692761
-1.0133179 -3.2524841 1.955433
-0.977162 -3.1492331 1.8194081
-0.99928802 -3.233712 1.7883281
-0.82856101 -2.7257781 1.217055
-1.124362 -3.6988931 1.651549
-0.82565397 -2.7275119 1.141873
-0.86696798 -2.8759501 1.123445
-0.90171498 -3.0037611 1.089372
-0.83756 -2.801779 0.93785298
-0.973324 -3.2696669 1.003521
-0.80462801 -2.7144279 0.75842899
-0.83620501 -2.832938 0.71466303
-0.77308702 -2.6302731 0.59331602
-0.83451402 -2.851433 0.56880802
-0.74754697 -2.5652471 0.4465
-1.0016969 -3.4373741 0.59829998
-0.71610397 -2.4679389 0.368357
-0.95623398 -3.3097849 0.414534
-0.83088601 -2.8884101 0.29515201
-0.80876899 -2.8237779 0.226019
-0.98565799 -3.4564509 0.20353
-0.79232299 -2.790673 0.108522
-0.81126201 -2.8699889 0.057482
-0.74768901 -2.6567869 0.0066149998
-1.007754 -3.5808871 0.0089159999
-0.75265503 -2.686311 -0.036644999
-1.005429 -3.5884881 -0.048951998
-0.95506501 -3.4239471 -0.097834997
-1.712456 -6.139226 -0.175421
-0.74296898 -2.675493 -0.11214
-1.608117 -5.7909651 -0.24271999
-0.88078898 -3.1860421 -0.171608
-0.76564997 -2.782057 -0.178388
-0.78047502 -2.861711 -0.22824401
-0.74291098 -2.7743609 -0.25038701
-0.74476498 -2.8335481 -0.205671
-0.69475698 -2.6683221 -0.14314499
-0.67299801 -2.597029 -0.108347
-0.90309501 -3.484952 -0.14539
-0.73295498 -2.841892 -0.080776997
-0.67817801 -2.6421161 -0.035831001
-0.74250799 -2.9066529 0.007191
-0.837551 -3.294574 0.065517001
-0.71298099 -2.8181751 0.108746
-0.72761703 -2.890038 0.168761
-0.75334799 -3.006901 0.238524
-0.70299399 -2.8197091 0.28537899
-0.91509598 -3.67045 0.371481
-0.84868503 -3.4208741 0.42409101
-0.70343 -2.849458 0.42071599
-0.723508 -2.945384 0.50682497
-0.72127098 -2.9509599 0.581595
-0.81552303 -3.353364 0.74687999
-0.62382603 -2.5780661 0.64176202
-0.88396299 -3.653126 0.90937901
-0.981938 -4.0785441 1.1238
-0.993137 -4.1460829 1.254119
-0.71985698 -3.0206211 0.99587798
-0.65922803 -2.7804379 0.99257499
-0.71196002 -3.018364 1.1598769
-0.71209902 -3.0346489 1.248993
-0.71976 -3.083293 1.352589
-0.89785397 -3.866364 1.799237
-0.572644 -2.478936 1.218605
-0.81272101 -3.536823 1.829334
-0.78589797 -3.4382689 1.863542
-0.77372599 -3.4031241 1.925693
-0.78796399 -3.484345 2.0505159
-0.71363002 -3.1726849 1.934801
-0.79421502 -3.550087 2.2358451
-0.75664598 -3.400573 2.2032869
-0.73776197 -3.3338759 2.214922
-0.78441 -3.583869 2.4758971
-0.73669702 -3.441937 2.4629171
-0.68803197 -3.288713 2.3004701
-0.76282299 -3.6887 2.4965889
-0.67884803 -3.3018429 2.1866231
-0.69306201 -3.3908119 2.1888549
-0.62190801 -3.060719 1.91958
-0.71633899 -3.546433 2.1526201
-0.62214601 -3.0985301 1.814052
-0.688559 -3.4499471 1.941153
-0.66670501 -3.3606551 1.810285
-0.67286801 -3.4123809 1.753262
-0.53043002 -2.706476 1.3209831
-0.56977999 -2.9251461 1.350873
-0.54198903 -2.799706 1.2182339
-0.610116 -3.1712401 1.293999
-0.57235402 -2.993582 1.13991
-0.87910998 -4.5980091 1.750851
-0.60778302 -3.1989291 1.131044
-0.95290202 -5.0471482 1.647275
-0.53174198 -2.8343711 0.84830803
-0.73269302 -3.9055109 1.168893
-0.741144 -3.975908 1.083433
-1.091625 -5.8560848 1.59578
-0.50677902 -2.7361741 0.67327398
-0.704853 -3.805604 0.93642199
-0.551534 -2.9971261 0.659522
-0.56523901 -3.0916729 0.60171503
-0.58308703 -3.2102339 0.545228
-0.603971 -3.3471799 0.48754901
-0.61538202 -3.433125 0.419671
-0.53210598 -2.9883959 0.29808399
-0.65188301 -3.6857309 0.28800899
-0.49077901 -2.7936749 0.16061901
-0.49847099 -2.8568101 0.108484
-0.65615398 -3.760514 0.142802
-0.53042001 -3.0608039 0.059870999
-0.50730801 -2.947655 0.0071689999
-0.688793 -4.0021482 0.0097340001
-0.51430798 -3.0091009 -0.040100001
-0.64991897 -3.802526 -0.050673001
-0.55182898 -3.2512529 -0.090764001
-0.466135 -2.765707 -0.11327
-0.53456497 -3.194217 -0.168134
-0.53744602 -3.2343919 -0.20269901
-0.46979401 -2.8681879 -0.22364099
-0.490897 -3.0863509 -0.27244601
-0.49157199 -3.1853609 -0.22625899
-0.66318798 -4.2974281 -0.30524999
-0.465547 -3.063657 -0.16087601
-0.46463901 -3.0816281 -0.12586001
-0.83214903 -5.5190678 -0.225409
-0.44590199 -2.98069 -0.082951002
-0.46255001 -3.11659 -0.041386999
-0.91027302 -6.1332841 -0.081446998
-0.447483 -3.0392251 0.007363
-0.57785302 -3.9246759 0.0095079998
-0.90035498 -6.1150551 0.014815
-0.431896 -2.9570711 0.057597
-0.77521598 -5.3076901 0.103382
-0.44559899 -3.0757151 0.11626
-0.42375699 -2.948936 0.168704
-0.45579401 -3.1981339 0.248575
-0.58662403 -4.116117 0.31992501
-0.40405199 -2.8586991 0.28352201
-0.40379199 -2.880857 0.35002401
-0.45091599 -3.244333 0.46952799
-0.43384901 -3.148181 0.53105301
-0.410184 -3.0020781 0.58008999
-0.38662601 -2.8542531 0.62335199
-0.76682299 -5.6610489 1.236339
-0.575755 -4.2876911 1.0467139
-0.76176602 -5.6729312 1.3848799
-0.55097502 -4.139255 1.118625
-0.44358999 -3.36218 0.99759501
-0.44804201 -3.4264641 1.108261
-0.64755702 -4.9522738 1.601772
-0.40740499 -3.1439071 1.101184
-0.63708597 -4.9163361 1.721995
-0.50939202 -3.9668541 1.4958251
-0.49009699 -3.8518341 1.555849
-0.480167 -3.8446541 1.7563
-0.467747 -3.7807381 1.824668
-0.44837099 -3.658778 1.858143
-0.37777001 -3.1124151 1.6565861
-0.38714299 -3.2207561 1.789938
-0.41875499 -3.518008 2.0335901
-0.423291 -3.5914791 2.151597
-0.41995901 -3.5989399 2.226943
-0.43440601 -3.760448 2.39411
-0.42261299 -3.6958251 2.413013
-0.34975299 -3.568902 2.2679629
-0.338718 -3.4979479 2.15992
-0.28706101 -3.0375609 1.751327
-0.28584799 -3.0625219 1.69718
-0.33021 -3.5824909 1.900916
-0.30272099 -3.3693991 1.620343
-0.358906 -4.047174 1.8417619
-0.35805401 -4.0913038 1.754476
-2.001858 -23.182283 9.3235607
-0.39227301 -4.604672 1.728431
-1.946375 -23.16394 8.0744781
-0.44122401 -5.324698 1.713545
-0.420679 -5.1489649 1.5196739
-0.45619199 -5.6642919 1.522292
-0.24372301 -3.0704701 0.74523401
-0.45629901 -5.7485318 1.395227
-0.300964 -3.8478961 0.83529598
-0.47366199 -6.055881 1.314602
-0.25450701 -3.3030419 0.63424498
-0.24653199 -3.2484851 0.54440397
-0.240486 -3.2180409 0.46257499
-0.244904 -3.328927 0.40163201
-0.24415299 -3.3719101 0.33199701
-0.24403501 -3.4251671 0.26422599
-0.22295 -3.181088 0.180577
-0.218308 -3.1672649 0.118765
-0.27532399 -4.0629258 0.078486003
-0.35414299 -5.2260418 0.100954
-0.23978101 -3.600013 0.0086479997
-0.20295499 -3.1010981 -0.040821999
-0.247858 -3.8555779 -0.106337
-0.35290101 -5.4895849 -0.151402
-0.31210601 -4.9441199 -0.200068
-0.22439601 -3.6211679 -0.188354
-0.221965 -3.6502759 -0.22608501
-0.24574199 -4.2013779 -0.323838
-0.19437 -3.609061 -0.31508899
-0.176856 -3.592797 -0.25251901
-0.189567 -4.0411081 -0.210025
-0.26458001 -5.6401939 -0.29313299
-0.177009 -3.8687961 -0.156406
-0.17778499 -3.986527 -0.109831
-0.23853099 -5.3486562 -0.147358
-0.168411 -3.8770089 -0.050974999
-0.233805 -5.3824601 -0.070768997
-0.14810801 -3.5028601 0.0084030004
-0.148757 -3.61727 0.069775999
-0.15999199 -4.0030022 0.149867
-0.206285 -5.1612659 0.193231
-0.142105 -3.6613729 0.207488
-0.133147 -3.5360341 0.27228099
-0.144363 -3.955327 0.38868201
-0.136694 -3.867671 0.465664
-0.116712 -3.414088 0.48967701
-0.103705 -3.1397281 0.52495497
-0.098814003 -3.1000941 0.593817
-0.112321 -3.656584 0.791722
-0.173099 -5.8554192 1.417333
-0.163303 -5.7479291 1.540405
-0.142243 -5.2188668 1.53576
-0.208712 -7.657599 2.253407
-0.61065602 -23.397779 7.5064921
-0.583682 -23.399822 8.1305866
-0.50309598 -23.424212 10.00908
-0.47636601 -23.439939 10.62739
0.081364997 -3.144135 0.68067402
0.104553 -3.8673241 0.74067301
0.14530499 -5.1544518 0.86168402
0.219152 -7.7740722 1.299614
0.113501 -3.8677831 0.55466503
0.111059 -3.641032 0.43830699
0.111507 -3.522284 0.34606999
0.119416 -3.6392779 0.280184
0.13175499 -3.878546 0.21975601
0.120534 -3.4314821 0.128447
0.128914 -3.5530021 0.068522997
0.150894 -3.4910691 -0.21602701
0.22393399 -3.7679219 -0.103888
0.23395801 -3.7887721 0.0090990001
0.23220401 -3.691016 0.071278997
0.226823 -3.5402601 0.132708
0.230636 -3.535809 0.200647
0.231434 -3.4859979 0.26882899
0.26332799 -3.8983221 0.383697
0.34967199 -5.0892072 0.61379701
0.34525001 -4.9413218 0.71003902
0.41643 -5.862731 0.98216897
0.388951 -5.3878708 1.034197
1.004493 -9.4787807 6.5262861
1.055226 -9.1493378 5.0818782
0.72235298 -5.4821882 1.058642
0.64658397 -4.8211141 0.69726801
1.030535 -7.6839571 1.111316
0.67607301 -4.9971008 0.606749
1.045198 -7.6588268 0.75908703
1.052731 -7.648066 0.59404802
1.058621 -7.625535 0.43595099
0.75567502 -5.3975458 0.203885
0.76566499 -5.4232001 0.10556
0.70681602 -4.9649258 0.01202
1.081013 -7.5934162 0.018384
0.74985802 -5.2240019 -0.069324002
1.08799 -7.5796518 -0.100584
1.092285 -7.547483 -0.209895
1.102255 -7.55479 -0.30833399
1.110829 -7.5524659 -0.39630499
1.1183521 -7.5429869 -0.47142199
1.130138 -7.502934 -0.58384401
1.2024291 -7.5106382 -0.53395897
1.2230721 -7.5280209 -0.395942
1.234359 -7.5424328 -0.30865601
1.248492 -7.5738811 -0.21127
1.258276 -7.5785909 -0.100913
0.82826501 -4.9532132 0.012037
1.267797 -7.5817099 0.018425001
1.280319 -7.6025138 0.148589
1.29128 -7.6138768 0.28889301
1.302938 -7.6291399 0.43826899
1.3135411 -7.6379652 0.596349
1.328076 -7.6694198 0.76436502
1.334428 -7.653502 0.93479198
1.487186 -7.5464468 4.5762339
1.673092 -8.0475616 5.7513938
1.598911 -7.3491259 4.7566829
1.981795 -9.1089849 5.8957419
1.407891 -6.3998618 3.898747
5.3035669 -23.588076 12.187309
2.012444 -8.9024477 4.3715992
5.398922 -23.503948 9.6631479
5.4385958 -23.551924 9.0404568
5.474081 -23.581116 8.4088364
5.5163288 -23.516287 7.1053581
5.5642881 -23.476456 5.837472
1.8666 -7.7162929 1.137992
1.879252 -7.729454 0.95713103
1.881356 -7.6993489 0.778341
1.8937449 -7.711401 0.61100298
1.894472 -7.6760082 0.44771099
1.9038531 -7.6758852 0.29584599
1.9076689 -7.6533661 0.15201899
1.916618 -7.6515861 0.018906999
1.913336 -7.6012149 -0.102962
1.921077 -7.5948372 -0.215617
1.941808 -7.639657 -0.31834099
1.955528 -7.6565771 -0.41025099
1.974447 -7.6935172 -0.49104401
2.003144 -7.7310972 -0.61453199
2.111593 -7.8499508 -0.57065398
2.1300149 -7.846067 -0.42207199
2.1504669 -7.8853621 -0.330084
2.1628959 -7.8949881 -0.225302
2.1960869 -7.944015 0.019755
2.2263319 -7.9815178 0.30997699
2.2351539 -7.9775181 0.469138
2.2394609 -7.9574418 0.63609099
2.266161 -8.0167847 0.81811798
2.272434 -8.0036402 1.001093
6.9197478 -23.7442 6.6253209
7.036427 -24.04113 7.3686552
7.0668068 -24.041721 8.0366497
7.1001711 -23.849257 9.970747
2.688633 -8.8807011 4.6773162
2.1951799 -7.1908059 4.1485009
2.9112279 -9.5363798 5.5017042
2.62468 -8.5622911 5.1404781
2.7097361 -8.8034029 5.4802318
2.180377 -7.0546222 4.5381889
1.9974329 -6.4101291 4.3552871
2.3475969 -7.4730301 5.2863131
3.1708131 -9.7764273 7.0369992
2.460907 -7.528245 5.2495208
2.5002961 -7.6189232 5.2015281
2.1272719 -6.4570498 4.2996688
2.3474641 -7.097775 4.594739
3.1402309 -9.4216967 5.7005239
2.88311 -8.6170053 5.0137591
2.9471309 -8.7746449 4.8908048
8.2098551 -23.983446 10.157464
2.887114 -8.0966511 1.034304
2.906075 -8.1201582 0.84694898
2.9208441 -8.1318007 0.66486102
2.9680271 -8.2034883 0.32635
3.010098 -8.2897797 0.16997799
3.045563 -8.3573389 0.02132
3.045002 -8.3258848 -0.116451
3.0544281 -8.3218012 -0.243983
3.0620129 -8.3127632 -0.35776499
3.0710239 -8.30762 -0.45981601
3.0813341 -8.3059492 -0.54768902
3.0882089 -8.2658606 -0.67897701
3.1290891 -8.2585859 -0.76991898
3.1771669 -8.2698851 -0.62191403
3.2066829 -8.2894068 -0.46142301
3.2233901 -8.3040705 -0.359743
3.2343919 -8.3039608 -0.245276
3.2456729 -8.3045034 -0.117121
3.260283 -8.3135433 0.021404
3.2755251 -8.3240633 0.172406
3.2948301 -8.3448153 0.335621
3.3077431 -8.3492661 0.50854403
3.3206561 -8.3536243 0.69171298
3.3374319 -8.3676519 0.88467401
3.345753 -8.3604307 1.083522
3.3660851 -8.3831091 1.294927
3.3805881 -8.3911772 1.511739
3.39254 -8.3928556 1.733126
3.4084339 -8.4041786 1.962702
3.9468551 -9.6358366 3.0630529
3.5357411 -8.5195017 3.6960239
2.4220519 -5.7792859 3.0013709
3.951695 -9.4291859 4.8968821
4.4102511 -10.321767 6.898654
4.2494359 -9.486311 6.742722
4.5077229 -10.0008 6.7420931
3.978826 -8.8002138 5.7461138
4.4633369 -9.8415041 6.2028232
3.295722 -7.2003779 3.991766
4.2079058 -9.1373816 4.5600219
4.2407632 -9.1807337 4.3201919
4.3616199 -9.4137659 4.1572361
4.3626318 -9.3874722 3.871629
4.126699 -8.8529568 3.392803
4.19277 -8.9676027 3.1748371
4.3099518 -9.1905184 2.986011
4.3634138 -9.2765617 2.746232
3.945128 -8.3371716 1.996122
3.9547851 -8.3326082 1.765844
3.968497 -8.3365974 1.54289
3.9818239 -8.3397293 1.324725
3.995254 -8.3429966 1.113029
4.003273 -8.3349838 0.908032
4.0129719 -8.3304796 0.71150702
4.0215392 -8.3235979 0.52346897
4.033926 -8.3246469 0.34605101
4.0552549 -8.3440266 0.178804
4.052062 -8.3129902 0.022166001
4.0644078 -8.3138943 -0.12156
4.4504209 -9.0768452 -0.278236
4.1331329 -8.405118 -0.37826401
4.215301 -8.5472393 -0.49475899
4.2905269 -8.6744356 -0.59828597
4.2794318 -8.6018848 -0.73927999
4.2813668 -8.4096756 -0.66246003
4.5718608 -8.9291039 -0.52078599
4.364172 -8.4992332 -0.385851
4.5067902 -8.752059 -0.27094501
4.6384468 -8.9821644 -0.13279
4.641861 -8.963335 0.024194
4.6983891 -9.0468197 0.196474
4.6962762 -9.0172396 0.38033101
4.7015338 -9.0019131 0.57508701
4.7134581 -8.9993324 0.78170598
4.747539 -9.0389528 1.002637
4.7989211 -9.1111717 1.239062
12.754003 -23.945118 5.8713942
2.8090301 -5.1018081 3.07725
2.766664 -4.9164972 3.8072641
2.7737939 -4.8240452 3.8100131
5.2668319 -8.8255453 4.1181822
5.1981988 -8.6876688 3.786504
5.2498388 -8.7509384 3.5447249
5.33709 -8.8730803 3.3208139
8.8410778 -14.394926 2.03265
5.8326941 -9.3745527 0.212796
5.5554008 -8.8829651 -0.137624
5.4378972 -8.6504383 -0.41264501
5.4854822 -8.7037592 -0.53411001
5.6801491 -8.9895191 -0.657399
5.7281351 -9.0191584 -0.82213801
5.7553658 -8.9699345 -0.92911398
5.8007531 -8.9492044 -0.74866301
5.6142569 -8.6176796 -0.53395402
5.685679 -8.7052612 -0.41990799
6.1049728 -8.9127426 4.0404792
5.6903028 -8.2050447 5.03337
5.1222939 -7.3677859 4.7413111
5.1459479 -7.3835349 4.96593
5.7736859 -8.2029753 6.3442039
5.7711992 -8.1792831 6.493475
5.7058802 -8.0470982 6.6573982
5.633955 -7.8681459 6.7713032
5.7954569 -8.015007 6.772038
6.0408368 -8.3137341 6.8113389
5.0895381 -6.9874811 5.6075072
5.1009388 -6.9861279 5.4707999
5.0026889 -6.834918 5.2058001
4.140161 -5.6291022 4.0109272
10.26296 -13.819262 8.2446976
6.447577 -8.6398926 4.605402
7.2353439 -9.2631521 -0.154396
7.2938738 -9.3158073 -0.32564101
6.6981511 -8.5345736 -0.43814799
6.8075819 -8.6533651 -0.571594
6.7859678 -8.6053476 -0.67751497
6.8161049 -8.6025295 -0.84454101
6.907424 -8.6352854 -0.96402699
6.9653492 -8.6254959 -0.77828503
6.983017 -8.6065102 -0.57537901
7.555264 -9.2897997 -0.483585
7.5914192 -9.3122158 -0.33067501
12.01639 -14.567166 1.069327
7.1150742 -8.3265858 4.6788659
6.242301 -7.2201262 5.266427
5.6059022 -6.4086528 5.5231552
5.3002 -5.8645501 4.9993539
6.3535452 -6.981144 5.4182611
7.3766289 -8.0115957 4.9365492
9.2960472 -9.6607523 0.032134999
8.5203695 -8.772954 -0.63489699
8.4825792 -8.7138109 -0.75180697
8.5802975 -8.7734661 -0.94427699
8.7354403 -8.8497028 -1.084053
8.6683054 -8.700717 -0.86217803
9.6431036 -9.5899153 -0.374311
14.363482 -14.087071 1.548069
13.840037 -13.510983 2.3272431
13.870443 -13.509304 2.7754519
7.9843569 -7.5279641 5.5316648
10.473738 -8.7237787 -0.84269702
11.75757 -9.4964666 -0.61037201
13.468216 -9.0206957 -1.002142
6.5573959 -3.902607 5.1498199
7.5460229 -3.5156381 5.2650099
8.8024158 -4.1009822 6.1416211
7.4977078 -3.482538 5.3626142
8.547699 -3.946162 6.3536448
7.5874958 -3.460237 5.8350959
8.4552345 -3.8559639 6.5024228
7.3426738 -3.3075161 5.5138979
7.4199228 -3.32162 5.3881898
8.7659788 -3.9120021 6.2268138
8.8230276 -3.9251981 6.1074119
8.7755251 -3.8918641 5.9001169
11.396651 -4.0573988 5.1679659
12.215795 -4.3330731 5.8753891
8.7798147 -3.1028211 4.460155
8.6131239 -3.032681 4.603044
8.262846 -2.8878109 4.8296919
8.3502235 -2.9074869 5.075263
9.0838919 -3.1511221 5.7205491
8.8461914 -3.057178 5.7524571
8.7239847 -3.003624 5.8353419
8.0594807 -2.764374 5.5269642
7.755795 -2.6401229 5.5290918
7.3847542 -2.4756279 5.4498348
7.5235939 -2.483398 5.4246359
8.347518 -2.733892 5.8218751
8.7662373 -2.8597741 5.9813771
8.5329933 -2.7727399 5.6744518
8.6624088 -2.8036759 5.5958948
8.3315611 -2.6859241 5.2082152
8.2385607 -2.6454 4.9667392
8.4170141 -2.6919229 4.876071
8.4726028 -2.698875 4.6983309
8.5413151 -2.709842 4.5170689
8.8155842 -2.78561 4.4281878
11.089196 -3.489903 5.2697258
12.71621 -3.969532 5.3377919
15.028274 -4.5767131 3.8009529
14.729008 -3.730341 2.9089141
14.186747 -3.5231731 4.2999582
14.029018 -3.466712 4.6346021
9.3382416 -2.296087 3.3403029
9.3609505 -2.2901621 3.604342
12.975645 -3.1426001 5.703423
11.501129 -2.771368 5.3626189
10.471785 -2.5104699 5.1577959
11.545404 -2.753701 5.9831471
9.7452555 -2.3124061 5.2921038
8.5891924 -2.0170441 5.064311
9.7408342 -2.2874899 5.7433362
7.0706611 -1.651778 4.3200679
6.8976388 -1.602926 4.3523049
6.9037342 -1.595906 4.4814062
6.9104772 -1.5890141 4.5996361
6.994566 -1.591278 4.841032
6.4476891 -1.435418 4.6219831
6.8344288 -1.488265 4.7890692
7.0827532 -1.525131 4.8020248
7.0066671 -1.500248 4.6480699
7.0767741 -1.506678 4.5760159
6.8162231 -1.442934 4.2821398
7.234859 -1.522792 4.398809
7.227468 -1.512485 4.23843
9.6833134 -2.026418 5.6786199
9.7609453 -2.0308361 5.5012212
6.9275742 -1.432953 3.737829
10.463715 -2.1390841 5.1154618
10.522284 -2.1383481 4.8671889
9.1472874 -1.8368241 3.738426
9.7766809 -1.951417 3.728703
13.043826 -2.572072 4.2638588
13.040888 -2.5557849 3.9091041
13.642799 -2.6408851 3.362138
9.856493 -1.4022681 2.408783
9.7014523 -1.368825 2.624614
9.8411341 -1.376896 2.92308
14.017755 -1.944663 4.5387101
9.9393587 -1.3553849 3.7518229
9.9301844 -1.3423899 4.0151529
7.1886449 -0.96329403 3.098423
7.181396 -0.95384598 3.2838759
6.806427 -0.89600003 3.288203
6.5886989 -0.85956699 3.3494279
7.5795279 -0.98883098 3.8531251
6.412549 -0.82902402 3.4164159
7.5668979 -0.96932799 4.209374
6.9965992 -0.888026 4.0482631
6.8333869 -0.859249 4.0976472
7.1006832 -0.88449699 4.3978591
7.2639699 -0.89628297 4.628933
6.7020168 -0.81904501 4.379776
6.8762379 -0.82415497 4.6737719
6.6671758 -0.76772302 4.69594
6.7530222 -0.74587399 4.6517859
6.7697158 -0.73181897 4.5130858
7.1782541 -0.76756197 4.682899
7.100287 -0.750898 4.515615
6.8447518 -0.71583802 4.2297778
6.8070688 -0.70391703 4.0715699
7.0118418 -0.71687597 4.045774
7.026453 -0.71012598 3.8967991
7.9013829 -0.78929502 4.1956558
6.6754832 -0.65900803 3.381387
6.8210459 -0.66539198 3.2825871
7.2826719 -0.70189798 3.3164921
7.4921408 -0.71330702 3.2151
13.159295 -1.191273 4.2375951
12.274953 -1.096867 3.625206
12.750205 -1.1244119 3.428844
7.1530962 -0.27246201 1.549178
7.3313251 -0.27073699 1.775017
12.783166 -0.427636 4.1020021
11.878254 -0.36978599 4.444737
11.421685 -0.34229699 4.578651
11.255854 -0.32426301 4.8104711
7.3318319 -0.202709 3.324749
11.591815 -0.32048801 5.2565141
7.5821939 -0.20082 3.63292
7.119092 -0.18029299 3.589798
6.9669728 -0.168357 3.682236
6.4747849 -0.14894 3.573595
6.4492979 -0.140871 3.7027769
6.3272371 -0.130854 3.765295
6.2768512 -0.12253 3.8585341
8.3458529 -0.162919 5.1304002
8.5278826 -0.15658 5.3943639
8.9353724 -0.132953 6.0308719
9.881568 -0.101157 6.914629
9.8163719 -0.054937001 6.7211928
9.8881874 -0.032389 6.5538912
8.5564432 -0.018104 5.550365
8.6552448 -0.0082759997 5.4740071
6.215003 0.001274 3.8197861
6.5640578 0.0089579998 3.9053941
6.65029 0.016787 3.817275
6.9037228 0.025443999 3.809355
6.718709 0.032554001 3.5500269
6.9310479 0.041630998 3.4939201
7.8137312 0.055994999 3.7426419
7.8790159 0.0656 3.5716391
6.9914179 0.066329002 2.9868529
8.4240932 0.079921 3.5989161
6.9296699 0.081817001 2.5919459
6.7176771 0.087116003 2.3336191
6.8658261 0.097001001 2.2021689
6.5842371 0.100659 1.937055
6.8987861 0.113481 1.848331
6.7968049 0.119688 1.6447361
6.7202139 0.12613501 1.4546289
6.9876781 0.139272 1.338063
7.2547679 0.15301199 1.212588
12.489467 0.29242 1.503193
12.055779 0.73069102 1.18608
9.5923948 0.59255302 1.156394
7.037004 0.44290099 1.010713
6.729681 0.43139401 1.126882
6.5351529 0.42653501 1.253823
6.465734 0.42954499 1.402383
6.500185 0.43940499 1.576303
6.6647158 0.458231 1.789592
6.8369331 0.478053 2.016073
6.5880222 0.46835101 2.118187
6.9042811 0.49889699 2.4044931
6.7349982 0.49453101 2.525737
7.3508449 0.54834902 2.95362
7.1340551 0.54051298 3.0563869
9.167387 0.70528102 4.1678061
7.0340238 0.54938602 3.3793499
6.951335 0.551054 3.5150759
7.0223622 0.56489497 3.7224121
7.8015442 0.63670999 4.3190408
8.6786823 0.71844703 4.9985991
7.25456 0.61754102 4.4748311
7.2203832 0.62308198 4.583499
6.7546139 0.59080601 4.3982792
6.5451689 0.58781397 4.4349089
6.9898028 0.660528 4.9126492
6.5080118 0.64553702 4.4777818
6.5388112 0.66394901 4.3561859
7.016149 0.72065502 4.5751462
7.3967252 0.76842999 4.7032309
7.374814 0.774827 4.5575628
7.5938559 0.80676198 4.5435109
8.0506258 0.864748 4.6476369
7.0610118 0.766761 3.9190221
8.6913471 0.94379997 4.823895
6.982769 0.76647401 3.711668
7.201313 0.79894203 3.6523659
7.329689 0.82180601 3.532702
7.4092779 0.83944702 3.3800721
7.284411 0.83388501 3.1322081
7.130662 0.82467902 2.876256
7.4461708 0.86993599 2.8038831
6.9768348 0.82333201 2.440259
6.532701 0.77861601 2.109941
7.6493602 0.92072302 2.2663889
6.6613688 0.80966502 1.797614
6.7163649 0.824269 1.637211
6.4705782 0.80173701 1.411055
6.6933289 0.83724397 1.29143
6.8156261 0.86058599 1.147979
7.1259332 0.90817899 1.029727
7.262352 0.93415302 0.88103402
8.7925787 1.141371 0.87069798
8.6661291 1.135196 0.67253298
6.7157378 0.887658 0.383598
6.591989 0.87909502 0.248781
7.248333 0.97520798 0.140958
6.6539731 0.90311301 0.016094999
7.1467099 0.97844702 -0.094751999
7.0533671 0.974029 -0.19597299
6.9333682 0.96566802 -0.28270999
6.9562531 0.97709501 -0.36467999
6.87116 0.97329497 -0.42903101
6.6988759 0.96477503 -0.52078003
7.3903251 1.099462 -0.65136999
6.6958771 1.027987 -0.47555599
6.8114309 1.061945 -0.35788801
7.007278 1.100819 -0.28646299
6.7572818 1.069591 -0.188297
6.4400539 1.027059 -0.085662998
7.5935869 1.220073 0.018433999
6.378777 1.0325021 0.12454
6.917737 1.12799 0.26220199
7.2717581 1.1943901 0.417294
6.1106248 1.010976 0.47658899
7.4149852 1.226776 0.57832003
6.0589051 1.009652 0.60320401
7.1781058 1.204728 0.87577802
6.5765362 1.111632 0.956083
6.7237072 1.144545 1.139738
6.5226679 1.118122 1.2669851
6.4491148 1.113239 1.416343
6.4599562 1.12284 1.5864151
6.418694 1.123278 1.745603
6.4322019 1.1333309 1.921252
6.3427911 1.125172 2.0659649
6.468533 1.1552171 2.2824309
6.8779492 1.236567 2.6136651
6.6377878 1.2013479 2.702929
6.8649411 1.250683 2.9809599
6.908844 1.266961 3.183965
7.0242701 1.296561 3.421252
6.8839259 1.2789119 3.5294809
7.4508362 1.393175 4.0050502
7.2243729 1.359514 4.0562258
7.9836431 1.5119849 4.6640649
7.510848 1.431482 4.5491352
7.2082071 1.382466 4.5109611
7.0154972 1.353943 4.5188222
6.796061 1.3197809 4.4907942
6.8026829 1.337447 4.6788068
6.7252712 1.354681 4.800281
6.625731 1.366652 4.6320128
6.7855091 1.4160351 4.5942979
6.7877002 1.424708 4.4989572
7.143856 1.5081151 4.6177082
7.476222 1.587351 4.6973681
6.9209652 1.4862421 4.0631981
7.7180371 1.65741 4.531147
6.5522151 1.415017 3.6987219
6.6089382 1.43529 3.573385
6.4915309 1.417688 3.3494279
6.3274598 1.389546 3.102885
6.366107 1.405773 2.955241
6.705205 1.488822 2.9342101
6.3126669 1.409346 2.591717
6.1349549 1.377141 2.3516331
6.2677541 1.414598 2.2319
6.0332451 1.3690259 1.98412
6.1001801 1.391654 1.840541
6.0867691 1.396033 1.672891
6.1533418 1.418815 1.52786
6.2631049 1.451775 1.391384
6.0902638 1.419165 1.197224
6.4207559 1.504029 1.101994
6.4094052 1.509213 0.94388098
6.3707519 1.507921 0.78773397
5.8614068 1.394542 0.591672
6.0626221 1.449846 0.47965699
6.038064 1.451387 0.35165501
5.9534278 1.4383481 0.229118
5.6934562 1.382538 0.112921
5.451962 1.330593 0.013451
5.5412459 1.359194 -0.074946001
5.2915211 1.304456 -0.14999899
5.4360871 1.346783 -0.22617599
5.435513 1.353333 -0.29080001
5.7078061 1.42817 -0.36374801
6.1460919 1.552991 -0.48778999
5.9176021 1.5245121 -0.53273398
5.6549158 1.484853 -0.410431
5.6818771 1.506037 -0.305161
5.3732061 1.430892 -0.224562
5.8431969 1.56331 -0.16647901
5.3448148 1.4366241 -0.072700001
5.3957238 1.457019 0.013396
5.4625182 1.481863 0.109086
5.811831 1.583863 0.225343
5.6150508 1.537233 0.32966301
5.7027812 1.5683711 0.455107
6.144177 1.69743 0.62597603
6.2423549 1.732347 0.77949101
6.3771782 1.777741 0.94898897
6.0102711 1.682973 1.0429879
6.0207849 1.693449 1.197412
6.1813431 1.746357 1.390115
6.1899419 1.7565399 1.556785
6.0073342 1.712814 1.673408
6.0243368 1.725226 1.843363
6.041647 1.737784 2.016186
6.1557312 1.778337 2.225666
6.280549 1.822297 2.4458661
6.060955 1.766222 2.5296021
6.335155 1.854107 2.819891
6.6786809 1.963066 3.155477
6.593781 1.94644 3.2929549
6.4860668 1.9228311 3.4101961
6.5826731 1.959785 3.628978
6.547349 1.957556 3.7707059
6.5729141 1.973514 3.9392409
7.623311 2.298558 4.7372971
7.629663 2.310138 4.8994851
14.129581 4.2961168 9.3401823
8.382513 2.559361 5.685328
7.823041 2.408411 5.5240569
5.8270488 1.823604 4.2722669
8.0016594 2.565505 5.5693979
7.8078651 2.5133691 5.3207102
7.5216918 2.4308879 4.9993539
7.5177441 2.439266 4.857595
7.7668581 2.5300641 4.8600121
8.5605536 2.7996061 5.1698489
6.438663 2.11396 3.7393041
6.3827748 2.103821 3.550961
6.4005561 2.1179321 3.3984921
5.8825822 1.954114 2.9689729
6.0420871 2.014889 2.8871191
5.9821591 2.002634 2.6949639
5.9542661 2.0009849 2.5169561
5.7083559 1.925722 2.253196
6.876297 2.3197291 2.7142041
5.881012 1.991585 2.15676
5.9674201 2.0285699 2.021378
6.3247638 2.1582389 1.96584
5.9809442 2.0486791 1.693592
5.9036522 2.0298631 1.510457
5.8556552 2.0209639 1.340619
5.8727002 2.0344889 1.189891
6.008862 2.0894749 1.063096
5.9486618 2.0762839 0.903157
5.4880109 1.92266 0.69968998
5.5833902 1.963354 0.58121502
5.648778 1.993717 0.46093699
5.9223018 2.098001 0.35578299
5.410172 1.923647 0.214801
5.5670242 1.986709 0.113923
5.2108121 1.8664089 0.013267
5.6852741 2.0438011 -0.079359002
5.4969368 1.983313 -0.16083901
5.441503 1.970454 -0.233722
5.3199391 1.933421 -0.293859
5.3803401 1.962455 -0.35405999
5.1998248 1.910302 -0.42625999
5.1277561 1.910911 -0.477063
5.4596829 2.0635359 -0.409731
5.276144 2.0081861 -0.29308099
5.2840781 2.0182309 -0.22843599
5.4669852 2.095366 -0.16114201
5.2916231 2.0352111 -0.074473001
5.2617102 2.03072 0.013518
5.2537231 2.034657 0.108585
5.2905769 2.055995 0.21233299
5.9726849 2.3290551 0.36301899
5.4020271 2.1137631 0.44636101
5.2830729 2.0742919 0.55736798
5.300396 2.0881979 0.68547398
5.2996778 2.0950339 0.81688499
5.6137609 2.226733 1.009199
5.5847611 2.2227349 1.150779
5.7718911 2.3049879 1.3450609
5.7092628 2.2876649 1.488117
5.6614561 2.276072 1.634594
6.206531 2.503581 1.968662
5.7020721 2.307802 1.972821
5.5821772 2.2668209 2.0927761
5.8983269 2.403183 2.3821101
5.8969202 2.410605 2.5526631
5.7668562 2.365253 2.66275
5.4949698 2.261194 2.6934891
5.8120742 2.3995869 3.0117381
8.4000196 3.47947 4.5832381
9.0421286 3.7700779 5.4055638
8.6058731 3.5999141 5.3545399
5.755486 2.415436 3.7136531
5.6416178 2.3753541 3.762188
5.579855 2.356977 3.8308959
5.5261202 2.3418519 3.893255
5.551352 2.3677621 4.072978
6.7753801 2.9271131 5.16433
5.4948769 2.404253 4.1066108
6.9538279 3.042609 5.1969619
5.4834352 2.414439 3.971117
5.4770942 2.419241 3.8840041
5.5186372 2.44525 3.817533
5.5905142 2.484875 3.7600939
5.7094321 2.5456719 3.7192769
9.5884762 4.3019571 5.7988191
6.2472548 2.8203399 3.455209
5.7456412 2.6180191 2.6973209
5.9519739 2.7203829 2.6222169
5.677269 2.602798 2.3358691
5.9510012 2.7366681 2.275212
5.593555 2.5801599 1.975569
6.3350329 2.931107 2.053324
5.7144561 2.652046 1.68764
5.4869928 2.5542259 1.464365
5.353415 2.499609 1.278643
5.5021329 2.5768421 1.1631891
5.3938842 2.5337839 0.99584901
5.435462 2.5610199 0.86129802
6.4733028 3.050019 1.025754
5.3463769 2.526644 0.71151698
5.118803 2.426367 0.55629301
5.2389002 2.490746 0.44636101
4.838449 2.3072569 0.303543
5.0916462 2.4352541 0.211137
5.0851159 2.4393971 0.108701
4.9976039 2.404557 0.013293
4.813385 2.3228049 -0.070203997
4.9847312 2.4126389 -0.15242
5.119978 2.4854391 -0.229848
4.7606058 2.317817 -0.27488399
4.6547871 2.2729931 -0.32024601
4.637485 2.2778921 -0.39756599
4.6033678 2.2877431 -0.44814199
4.7253509 2.3757961 -0.371286
5.0467901 2.5521121 -0.29359999
6.7043972 3.390348 -0.39003199
5.1275959 2.6004541 -0.232188
4.7828851 2.4326169 -0.147688
4.8108459 2.453881 -0.070940003
4.6944399 2.401376 0.012639
5.022603 2.5766129 0.108797
4.6260481 2.379966 0.19461399
4.87465 2.5150239 0.31061
4.5773458 2.3683741 0.39656901
5.040524 2.615449 0.557661
4.7665319 2.480305 0.64652997
5.0513458 2.6359761 0.81674302
5.1987972 2.7206039 0.98052001
5.3354759 2.8000231 1.1536
5.3295722 2.804831 1.303391
5.6062398 2.95875 1.533739
5.9830852 3.1664391 1.813398
5.4386592 2.8863981 1.811192
5.9833379 3.1843879 2.173768
7.159327 3.8102601 2.6010089
5.9186249 3.1587679 2.330337
5.7748432 3.0906489 2.4497199
5.7785058 3.1012549 2.6277959
8.4640532 4.5678959 4.359786
5.7779889 3.1356289 3.313868
5.6514602 3.0754609 3.3995979
5.5813541 3.0457239 3.5083749
5.6156278 3.072892 3.674401
7.8830819 4.3255649 5.3498478
7.5742922 4.2597198 6.080471
7.8640008 4.4950571 6.0036359
5.5705481 3.2271681 3.6953089
5.51998 3.2064481 3.5223849
5.5368819 3.2248681 3.3855829
5.6560259 3.303071 3.3017139
10.98146 6.464488 5.443748
5.6924858 3.359915 2.6486249
8.0799589 4.7944341 3.2635219
5.2030559 3.0955269 1.941671
5.1955309 3.099221 1.779585
6.2024598 3.7096519 1.936051
5.3598309 3.214134 1.512104
5.412756 3.2544191 1.366847
5.4161248 3.265022 1.210763
5.0714488 3.0652709 0.99024498
4.9100852 2.975527 0.82298702
4.9704928 3.0200379 0.69981003
4.4570069 2.7151361 0.51250899
4.6637478 2.8485069 0.420506
4.5662651 2.7962589 0.303204
4.4819708 2.7517979 0.19674499
4.9110422 3.0230999 0.111148
4.6633458 2.8780949 0.013135
4.5720329 2.829073 -0.070624001
4.6124272 2.861486 -0.14939401
4.763207 2.9626901 -0.226539
5.9781899 3.7184031 -0.28432399
4.5860658 2.8598969 -0.28058699
4.4472971 2.780545 -0.32425699
4.54003 2.853204 -0.41260299
4.8383298 3.0721221 -0.49964401
4.4089222 2.828285 -0.36771399
4.7941618 3.091157 -0.29613999
4.8300371 3.122231 -0.232269
4.5214911 2.930227 -0.148294
4.4925709 2.918906 -0.070375003
4.7736082 3.1093869 0.013655
4.7749791 3.1181901 0.109915
4.5013661 2.9469731 0.201268
4.5506482 2.986788 0.308236
4.659307 3.06586 0.42917499
4.4535918 2.937911 0.52394301
4.8196712 3.187439 0.69527
4.7026181 3.1178889 0.808797
4.8159962 3.2011139 0.96634603
5.1115479 3.4061229 1.175976
5.545114 3.7043481 1.443206
5.2783222 3.5349891 1.5370311
5.7436419 3.8562009 1.853247
5.0442238 3.3951299 1.788615
5.6224589 3.831995 2.9067111
5.5378819 3.7837811 3.0402901
5.5492859 3.8010499 3.221679
5.6106758 3.9105411 4.325326
8.0644464 5.8037801 6.585381
5.4656329 3.962482 4.1491408
5.5441828 4.0292649 4.0777059
5.6057472 4.0839682 3.9810579
7.3225141 5.360795 4.7950349
5.462481 4.0284009 3.0766211
5.4854202 4.0551791 2.914175
5.5449529 4.1091599 2.7654159
5.6067262 4.1650381 2.6122639
10.172089 7.5748649 4.4053941
9.6406202 7.1965222 3.8583
9.7619524 7.30477 3.586544
10.426998 7.8213568 3.4917231
4.8638382 3.657233 1.472361
5.743228 4.3184681 1.738566
4.6228662 3.4844561 1.252838
5.9653158 4.4963188 1.616653
5.0622492 3.8248811 1.214711
4.7458568 3.5944941 0.99485999
4.3212218 3.2807851 0.777722
4.6518521 3.5403471 0.703394
4.6200781 3.5246489 0.57065898
4.5690732 3.494143 0.442601
4.3810081 3.358407 0.31258899
4.501492 3.459079 0.21237101
4.1480942 3.195199 0.100916
4.6730738 3.6082399 0.014151
5.942656 4.5885272 0.017996
4.306334 3.33306 -0.071530998
4.253808 3.3003261 -0.148184
4.3198919 3.3596449 -0.221011
4.2774649 3.3346319 -0.28157201
4.2106271 3.2904091 -0.33036599
5.067853 3.96029 -0.397623
4.1178112 3.2333169 -0.40285999
4.1078982 3.2565269 -0.457001
4.2570319 3.407099 -0.38277
4.2343702 3.4051449 -0.28209001
4.3221192 3.4839859 -0.224199
4.370492 3.531363 -0.154649
4.2806301 3.466994 -0.072357997
4.4260168 3.5932701 0.013665
4.2000132 3.417902 0.104365
4.041338 3.296587 0.19509999
4.1443939 3.388679 0.30314699
4.3577189 3.5715711 0.433548
4.114068 3.379874 0.52286798
4.4429231 3.6586959 0.69252199
4.3292561 3.5735519 0.80468202
4.7259941 3.9102781 1.025022
4.481534 3.7167909 1.114676
5.6782732 4.7093148 1.4123369
4.2847681 3.5620241 1.20588
5.5494251 4.6242752 1.747738
5.4571581 4.5580382 1.904741
5.3698182 4.4956698 2.060097
5.2970238 4.445199 2.2177441
5.2417188 4.4091568 2.3792281
5.1686182 4.3579121 2.5285399
5.1131072 4.3212762 2.682472
5.0674939 4.29281 2.8371761
5.0237508 4.2657709 2.9874439
4.9841189 4.2420888 3.134851
4.947598 4.2209082 3.278307
4.94912 4.2321339 3.4407091
4.9631982 4.2541599 3.60693
4.9567828 4.2586422 3.751065
4.9367681 4.25142 3.87625
4.920083 4.2469988 3.994674
4.9232359 4.2596931 4.1173978
4.9436531 4.2874069 4.244813
4.9533248 4.3159652 4.4337902
4.9255791 4.3321738 4.5898781
4.835772 4.2931461 4.4275022
4.8177528 4.2971849 4.2788401
4.8115101 4.3016448 4.186583
4.7904582 4.2928309 4.068223
4.789731 4.302218 3.956974
4.8092899 4.3298731 3.850173
4.8747458 4.3990488 3.7689869
4.889482 4.4226599 3.63785
6.8378091 6.2138858 4.6575098
6.0330791 5.5210452 3.4936321
9.2430687 8.4783173 5.0257301
6.065567 5.5766802 3.0816801
5.2924118 4.8999419 2.1216171
5.3074422 4.9253159 1.939674
5.3717451 4.9965959 1.775017
3.8724639 3.6104059 1.145808
5.4401798 5.072031 1.609673
5.4070921 5.0529318 1.41685
4.2838621 4.012588 0.98084998
4.0240178 3.7779689 0.79120201
4.0381432 3.8000629 0.66719598
3.9731531 3.747602 0.53635502
3.811677 3.6036539 0.40362701
4.0865731 3.872545 0.31880799
3.948096 3.7500191 0.20369799
3.8545251 3.6696661 0.102573
3.733047 3.5622759 0.012368
3.779907 3.615376 -0.068706997
4.0747809 3.906486 -0.15536401
4.968101 4.7629108 -0.18942501
3.819912 3.6706541 -0.21394899
3.7949259 3.655118 -0.273536
3.813683 3.681731 -0.327712
4.1876478 4.061564 -0.448892
4.007947 3.9235411 -0.48896199
3.841727 3.795891 -0.37912899
3.9945149 3.965219 -0.2922
4.6564879 4.6223369 -0.34062299
3.6683359 3.649888 -0.208986
3.6543739 3.644439 -0.142048
3.8315401 3.830008 -0.071162999
3.848608 3.8560021 0.013058
3.871644 3.8881021 0.105752
3.6813271 3.70556 0.195399
3.8473139 3.881633 0.309479
4.2933068 4.3416762 0.46983701
5.5482092 5.6107149 0.60716701
3.7792101 3.830662 0.52843899
3.844461 3.9058509 0.65943098
4.0122819 4.0858312 0.820858
4.176743 4.263185 0.99733198
