# .PCD v0.7 - Point Cloud Data file format
VERSION 0.7
FIELDS x y z
SIZE 4 4 4
TYPE F F F
COUNT 1 1 1
WIDTH 1544
HEIGHT 1
VIEWPOINT 0 0 0 1 0 0 0
POINTS 1544
DATA ascii
0.218372 -3.574749 0.27557999
0.246823 -3.965215 0.39014801
0.239182 -3.772162 0.45479301
0.355014 -5.4982328 0.789783
0.36692399 -5.5823808 0.934865
0.35993299 -5.3810282 1.032505
0.48951799 -5.650291 3.485719
0.62645203 -4.8676891 0.70351201
0.99211502 -7.7089739 1.114154
0.67833602 -5.223146 0.63374698
1.004142 -7.7318311 0.93813699
1.007213 -7.685998 0.76123798
1.016655 -7.6891532 0.59680998
1.020064 -7.6469049 0.436856
0.71635401 -5.3232589 0.200932
0.73323298 -5.4014478 0.105059
0.67530102 -4.9319682 0.011932
0.72429901 -5.2447672 -0.069546998
1.049858 -7.6021881 -0.100807
1.055163 -7.5759759 -0.210527
1.063026 -7.568481 -0.30865601
1.070912 -7.561255 -0.39646101
1.077916 -7.547863 -0.47136
1.088608 -7.4989972 -0.58307701
1.15247 -7.4538708 -0.52947801
1.189589 -7.5212998 -0.30752701
1.197534 -7.515305 -0.209454
1.212595 -7.5536289 -0.100492
1.222533 -7.5597649 0.018355001
1.232491 -7.565846 0.147741
1.242204 -7.5703959 0.28698701
1.253396 -7.5838079 0.43527299
1.265368 -7.6016231 0.59297401
1.274423 -7.6018362 0.75693703
1.285095 -7.6115999 0.928819
1.295348 -7.6186728 1.1077681
1.107414 -5.8561311 3.288558
1.797147 -9.2686224 5.9711099
1.644645 -8.129509 5.8035641
1.222994 -5.9046969 4.128644
1.94022 -9.1542187 5.9181919
1.2884769 -5.9435639 3.355711
5.259171 -23.600201 10.329254
5.280364 -23.567017 9.6772823
5.3003349 -23.5287 9.0204897
5.370513 -23.585718 7.7578282
5.3910608 -23.55024 7.1067691
5.444078 -23.531559 5.843822
1.831516 -7.7531781 1.141965
1.838413 -7.7423301 0.95749003
1.845998 -7.734508 0.780882
1.854176 -7.7292132 0.61161703
1.858147 -7.7064509 0.44889799
1.864732 -7.694737 0.29618299
1.871519 -7.683898 0.15242399
1.875271 -7.6607938 0.018904001
1.882769 -7.6531291 -0.103526
1.893948 -7.6603541 -0.21718501
1.89257 -7.617003 -0.31696901
1.905683 -7.6320848 -0.40838501
1.90955 -7.6101022 -0.48505899
1.933444 -7.6305919 -0.60570902
2.045799 -7.7714601 -0.56414098
2.076318 -7.8139582 -0.41973901
2.0856791 -7.8128061 -0.32657301
2.1020911 -7.8379369 -0.22334801
2.124522 -7.8850989 -0.10727
2.1311951 -7.8736439 0.019551
2.144634 -7.8871002 0.15752999
2.1610651 -7.911417 0.30679899
2.1777599 -7.9364491 0.466028
2.1892869 -7.9424372 0.63394201
2.19945 -7.9434738 0.80941999
2.214798 -7.9631162 0.99452299
6.726635 -23.654593 5.9501162
6.7704129 -23.704847 6.6041021
6.8876739 -24.010323 7.3477721
6.922863 -24.028076 8.0195484
2.5767779 -8.8664932 3.4533589
6.9366512 -23.765846 9.9201622
3.30843 -11.190678 5.5893402
7.2090449 -24.178768 13.33117
2.102546 -7.0221529 4.044632
2.5916569 -8.6194477 5.1663642
2.6654129 -8.8276968 5.4863682
2.185235 -7.207274 4.6287751
2.099504 -6.8958139 4.5589108
1.953177 -6.388669 4.333519
3.10655 -9.9147911 7.2700782
2.362241 -7.4188881 5.3308539
1.948182 -6.0699048 4.2252512
2.424783 -7.554841 5.258913
2.020386 -6.2699652 4.2731118
2.0930941 -6.469986 4.3007379
2.2959011 -7.0689511 4.5680351
2.8545959 -8.7205038 5.2669239
2.8277841 -8.6049109 4.9978161
7.9414902 -24.072054 13.393304
3.5854471 -10.784243 5.4433322
8.0955143 -23.617748 6.6882
2.7890811 -7.9565029 1.014473
2.809257 -7.9844971 0.83121401
2.8223619 -7.99224 0.65220201
2.850111 -8.0411758 0.48310199
3.014956 -8.3225069 -0.357483
3.0202341 -8.3070936 -0.458882
3.030194 -8.3045588 -0.546516
3.0444729 -8.284194 -0.67913097
3.0808761 -8.2649994 -0.76896399
3.124254 -8.26443 -0.620233
3.1479189 -8.2691717 -0.45934901
3.1648531 -8.2848539 -0.35816899
3.18189 -8.3006716 -0.244671
3.198168 -8.3143444 -0.117015
3.218122 -8.3374577 0.021421
3.2253699 -8.3275442 0.17211699
3.2431021 -8.3446875 0.33491099
3.257427 -8.352952 0.50769502
3.266674 -8.3481197 0.68979502
3.277909 -8.3483963 0.88076401
3.2862611 -8.3413248 1.0787441
3.3031969 -8.3559532 1.287974
3.3311231 -8.3982048 1.509761
3.3354449 -8.3808355 1.726921
3.3531139 -8.3969431 1.956779
3.4200931 -8.3399048 3.850734
2.378943 -5.7630291 2.9862521
2.5048251 -6.0481391 3.2999139
9.9744358 -24.005659 13.735272
3.8516331 -9.2395868 5.5234442
4.2440791 -10.115034 6.5263748
3.651283 -8.646101 5.9358311
4.4826741 -10.089479 6.785553
3.934669 -8.8285141 5.7507162
4.4316721 -9.9128323 6.2326918
3.1016741 -6.894999 3.9947729
4.1757302 -9.1971617 4.5786009
4.3746562 -9.5763607 4.2186079
4.0621452 -8.8380775 3.3786941
4.152935 -9.0081444 3.1812501
4.3468742 -9.3717089 2.767451
4.3139129 -9.272541 2.4743941
3.89411 -8.3449478 1.992949
3.9054101 -8.343936 1.7637759
3.9194889 -8.348855 1.541242
3.9264481 -8.3385983 1.321177
3.934715 -8.33111 1.108609
3.9465351 -8.3311749 0.90529501
3.9673319 -8.3501043 0.71135402
3.971637 -8.3342543 0.52279103
3.984863 -8.3371687 0.34567699
3.993541 -8.3305178 0.17805199
3.9991381 -8.317503 0.022120999
4.0079851 -8.3112783 -0.121205
4.0168681 -8.3051033 -0.25391501
4.0316911 -8.3112173 -0.373059
4.078475 -8.3829613 -0.48397499
4.144536 -8.4937267 -0.584279
4.267014 -8.693656 -0.74518698
4.2701859 -8.5002871 -0.66778201
4.1455531 -8.2047949 -0.477236
4.262023 -8.41113 -0.38080701
4.374598 -8.608592 -0.265773
4.5697241 -8.9668484 -0.132199
4.5913949 -8.983676 0.024181999
4.608706 -8.9918365 0.19474
4.6203852 -8.9889984 0.378088
4.6252308 -8.9728918 0.57163799
4.6398911 -8.9757938 0.77748698
4.672832 -9.0139503 0.99706602
4.7302418 -9.0989265 1.233925
4.8438048 -9.2910671 1.501951
12.633652 -23.961899 6.5540171
2.78281 -5.1191769 3.0786519
2.7280531 -4.9095969 3.790482
2.7371249 -4.8202891 3.7953241
5.2052722 -8.7841101 3.5466931
5.2315679 -8.8052521 3.2847769
5.2878518 -8.8765917 3.0393479
5.3602619 -8.974493 2.800313
6.1122112 -9.9955463 0.66345298
5.5165319 -8.928319 -0.13786
5.4926138 -8.8666306 -0.28706801
5.3897591 -8.6781597 -0.41256401
5.4095931 -8.687664 -0.53131002
5.5471601 -8.885644 -0.64758801
5.684834 -9.0594645 -0.82298201
5.698463 -8.9885015 -0.92781103
5.8181009 -9.0839882 -0.75727701
5.5255961 -8.5834846 -0.529962
5.606185 -8.6865854 -0.41752699
5.6463709 -8.7266855 -0.28607699
5.8682151 -9.023695 0.025800001
9.5435658 -14.491241 1.703964
6.0525379 -8.9405174 4.0380268
5.6535368 -8.2477493 5.0405722
5.144125 -7.4859738 4.7992401
5.103622 -7.4086022 4.9639978
5.697679 -8.270957 5.5418019
5.7226119 -8.2456303 6.1687322
5.6941509 -8.1843615 6.3057179
5.6526461 -8.1046314 6.409667
5.5996509 -7.989131 6.5841169
5.5593438 -7.853878 6.732892
5.7191658 -8.0007524 6.7336221
5.9877849 -8.3356104 6.8024998
5.088634 -7.0493698 5.4985952
5.11133 -7.0635281 5.3586969
5.014863 -6.9133391 5.0814099
5.7965279 -7.932735 5.191196
8.9493418 -11.925244 3.607414
11.082307 -14.485703 1.032804
7.404212 -9.6316986 0.234147
6.740797 -8.6850748 -0.44399899
6.6583538 -8.5583639 -0.56293601
6.646121 -8.5222206 -0.668136
6.856298 -8.7498417 -0.855358
7.0029249 -8.8521004 -0.98400301
6.8583941 -8.5872879 -0.771492
6.9278178 -8.6330853 -0.57465303
7.4903588 -9.2899132 -0.32844701
7.4687562 -9.2411575 -0.156078
11.804873 -14.502827 0.69954097
11.926713 -14.583315 1.449636
7.519691 -8.9383659 4.3687191
7.0553708 -8.3471537 4.669044
10.388943 -12.204901 8.0794086
6.2130342 -7.2649231 5.2746401
7.7955651 -9.0940685 6.8753762
6.1536279 -7.0127711 6.5282221
7.9933 -8.8788004 6.8574548
8.1270313 -8.8610125 4.496933
8.9743576 -9.40658 -0.170775
8.9681187 -9.3565874 -0.523413
8.4158335 -8.7600756 -0.63064599
8.361702 -8.6835823 -0.74526602
8.6496191 -8.941102 -0.95724303
8.7247314 -8.9356031 -1.088743
8.5297632 -8.6554337 -0.85307401
8.7005119 -8.7879238 -0.64200002
9.5772934 -9.62887 -0.373788
14.31882 -14.164601 1.977908
13.784477 -13.573036 2.7730391
13.744928 -13.502822 3.219779
13.695463 -13.423142 3.6713991
10.992255 -10.625077 5.31036
7.5713482 -6.9054918 6.7920032
6.9764342 -6.3039012 5.594255
10.449749 -8.8021593 -0.84467202
10.579153 -8.7035608 -0.96168703
13.369928 -9.0629683 -0.99856299
6.5106592 -3.8421321 5.1760588
13.352146 -7.467721 3.701479
17.441387 -9.5173101 0.74327898
7.4198508 -3.49651 5.3207102
8.6424532 -4.0726461 6.1974268
7.6894951 -3.6017849 5.7304749
8.5925083 -4.0247598 6.4034309
7.5949898 -3.5145831 5.8557348
8.5114527 -3.8907831 6.4076462
7.4659448 -3.391911 5.4351492
8.7235804 -3.9510679 6.2121201
8.831234 -3.987479 6.1282582
8.6532192 -3.111464 4.4044299
8.6190901 -3.08792 4.6151981
8.2213345 -2.9239261 4.8147159
8.308013 -2.9439149 5.0593328
8.9522276 -3.1605051 5.6484542
8.7867098 -3.090626 5.7247052
8.5343122 -2.990742 5.7193508
8.0212364 -2.8004961 5.5111818
8.6073627 -3.0051341 5.9138951
7.9377828 -2.750742 5.6695008
7.388114 -2.521945 5.4624481
7.3933048 -2.4855089 5.3404589
8.2793922 -2.7620471 5.7848601
8.6452961 -2.872988 5.9095411
8.516819 -2.81934 5.6739168
8.6031713 -2.836854 5.5676198
8.4799604 -2.785337 5.3104768
8.2799368 -2.7090139 5.0005908
8.5144596 -2.7748129 4.9412918
8.5728369 -2.782855 4.7623329
8.6817589 -2.8070829 4.599443
8.770071 -2.8244181 4.4130688
11.114911 -3.565371 5.291194
11.21166 -3.5820651 5.028111
12.460775 -3.9493539 4.8889298
16.627602 -4.3096828 3.288558
9.1670752 -2.307198 3.2835381
13.018079 -3.2282929 5.729744
11.267397 -2.7802839 5.260643
10.459661 -2.568089 5.1586599
11.543194 -2.8199329 5.9898992
9.7152891 -2.3614509 5.2827611
8.4262619 -2.0274329 4.9747038
8.5692806 -2.051321 5.2424731
6.9061799 -1.6447411 4.3633008
6.9352069 -1.643158 4.507597
7.243835 -1.7074 4.8276582
6.9454041 -1.620064 4.8130622
6.49087 -1.482307 4.6586752
7.067802 -1.562376 4.797605
7.064734 -1.553107 4.6921511
6.7381721 -1.4731261 4.3622079
6.8049059 -1.4794379 4.280046
7.2339888 -1.563941 4.4034109
7.3072772 -1.570917 4.2902031
9.6313953 -2.0705559 5.6547251
9.7582626 -2.085978 5.506052
10.053845 -2.1369741 5.4308538
10.424566 -2.2031231 5.3709679
10.42186 -2.189929 5.1007748
9.2334738 -1.906683 3.7778521
9.3474903 -1.918928 3.5689609
12.988169 -2.6192379 3.8975339
12.828475 -2.5715351 3.50492
9.8217611 -1.452132 2.402199
9.6403065 -1.413972 2.6101241
9.8287163 -1.429966 2.921669
9.8789454 -1.402179 3.7318549
9.8454876 -1.385769 3.9839101
7.4492192 -1.039682 3.213135
7.421474 -1.027037 3.396174
6.8532529 -0.94029301 3.3132579
6.8635049 -0.93359202 3.4916699
6.369369 -0.85885698 3.39586
7.6925321 -1.028181 4.2823238
6.973587 -0.92385697 4.0378089
6.8728971 -0.90239799 4.1242352
6.9859152 -0.908997 4.3297892
7.129878 -0.91932201 4.546617
6.8946691 -0.88085598 4.5087528
6.7408609 -0.845321 4.5848279
6.5197148 -0.78686798 4.5950379
6.8119569 -0.790088 4.6952872
6.6314468 -0.75355703 4.4235859
6.958025 -0.78249598 4.5419502
7.1015639 -0.78195202 4.3910518
6.8526721 -0.74650502 4.1012259
7.0164428 -0.75611299 4.0507522
7.0181141 -0.74804997 3.894383
7.1776881 -0.75664097 3.8135109
6.6433611 -0.69251603 3.3669829
6.9213762 -0.71338397 3.3326969
7.2606049 -0.73983997 3.3082349
7.5183258 -0.75728101 3.2280641
12.661922 -1.260538 5.0986309
13.092323 -1.272706 4.569128
7.249145 -0.31580201 1.57033
12.479974 -0.51479602 3.346041
13.549328 -0.55890602 3.6327479
12.449133 -0.49906299 3.6649971
12.372507 -0.467233 4.3007231
11.995865 -0.43907899 4.4895768
11.239675 -0.398332 4.5064931
11.294353 -0.38715601 4.8277559
7.3597441 -0.243738 3.337961
7.5386162 -0.240899 3.612617
6.8564858 -0.211142 3.4579101
6.8218932 -0.202159 3.606087
6.5648961 -0.186913 3.6238389
6.3894792 -0.174503 3.668925
6.3753958 -0.16671 3.79444
8.2792578 -0.20688701 5.0900812
6.3537741 -0.151399 4.0195808
8.4074411 -0.171058 5.6750951
9.0526152 -0.142151 6.3350182
8.5956459 -0.065163001 5.575943
8.486042 -0.054490998 5.3671031
8.3192129 -0.043759 5.1131201
6.4986959 -0.026645999 3.8665349
6.7855768 -0.019954 3.8949349
6.5377769 -0.011633 3.6074131
7.4930081 -0.013333 4.134491
6.9230289 -0.0042900001 3.657943
6.917778 0.0037459999 3.4871681
7.8300738 0.022399999 3.5493441
11.071581 0.031674001 5.0187082
11.522517 0.046344001 4.9224339
7.0639491 0.044794999 2.64204
6.7964549 0.050992001 2.360853
11.163494 0.096703 3.580395
6.6863761 0.065674998 1.966969
6.8664632 0.075418003 1.839533
7.283299 0.088443004 1.762318
6.9719658 0.092749 1.508989
6.8577209 0.099193998 1.313054
7.1756139 0.112116 1.1992379
6.9628382 0.116868 0.99822599
12.331057 0.221294 1.48396
12.269814 0.57646602 -0.338076
12.179497 0.64305699 0.69064701
12.282182 0.67706698 1.207972
6.85254 0.39370701 0.983895
7.3315802 0.42976099 1.227258
6.7148409 0.40142301 1.2878571
6.4240842 0.39152801 1.392864
6.4665961 0.401647 1.567602
6.4444332 0.40771401 1.729818
6.4727721 0.41705 1.907988
6.8603358 0.45002899 2.2049179
6.8663769 0.45842999 2.390384
6.8347869 0.46428999 2.5621691
6.9694252 0.48157501 2.799263
7.0662699 0.49650899 3.0261381
9.1238689 0.65172797 4.146338
6.9685631 0.50591397 3.3465199
6.8607411 0.50609201 3.467813
7.5376148 0.56481999 3.9938381
7.8206291 0.59516901 4.3277369
9.5186481 0.74663699 5.680666
7.4676042 0.59447598 4.6041651
7.0973282 0.573291 4.5033212
6.7619319 0.55410999 4.401
6.4037499 0.53972799 4.3370142
7.1132932 0.63282698 4.9969249
6.7768149 0.63463002 4.6602612
6.4046259 0.61478698 4.2644758
6.9473572 0.67502397 4.5278001
7.3343902 0.721223 4.6610041
7.2780781 0.72422802 4.4952521
7.6537571 0.77058399 4.576746
8.0820084 0.82317799 4.6630688
6.9710612 0.71821201 3.8668461
7.0273342 0.73225403 3.7331569
6.703855 0.70642501 3.398042
7.358315 0.78402603 3.5443649
7.3277602 0.78937399 3.3408511
7.0667419 0.769566 3.0367451
6.8610601 0.75522602 2.7657881
7.129693 0.79317302 2.6830261
7.1690102 0.80598402 2.5058839
6.6854372 0.75947702 2.157887
7.379828 0.84703797 2.1851139
6.8883381 0.79873902 1.857646
7.005589 0.82057703 1.706584
6.3623118 0.752716 1.386519
6.5388842 0.78131402 1.26078
6.6009259 0.79649901 1.111059
6.7181382 0.818555 0.97013098
7.2930188 0.89720398 0.88414001
8.6476393 1.074043 0.85574502
7.5691881 0.94902098 0.58698899
8.6307144 1.0821151 0.66931099
6.765111 0.85619402 0.386143
6.6086402 0.84418601 0.24923
7.4529228 0.96083999 0.144831
6.6767111 0.86865002 0.016138
7.3036938 0.95884299 -0.096762002
7.6482692 1.013124 -0.21234301
7.0911212 0.947698 -0.28892401
7.39009 0.996387 -0.38712901
7.564775 1.028893 -0.471977
8.9095173 1.232865 -0.69209701
7.0679049 1.011518 -0.62244898
9.4110527 1.346856 -0.828803
6.6531181 0.983711 -0.47212499
6.6987062 1.006358 -0.351666
6.58254 0.99672103 -0.26886901
6.558557 1.000878 -0.182602
6.5879669 1.013203 -0.087554999
7.1733379 1.111755 0.017399
6.323163 0.98751903 0.123346
6.6790781 1.051047 0.252931
7.1027541 1.126168 0.407231
7.357687 1.175357 0.57333302
6.0536108 0.974244 0.60212898
7.3171959 1.177601 0.72781301
7.4512591 1.208051 0.90827101
6.6099648 1.07954 0.96005601
6.6667042 1.096753 1.129024
6.448359 1.068522 1.2513781
6.537148 1.091043 1.434323
6.3290329 1.063861 1.5527869
6.529604 1.105301 1.774067
6.5017662 1.108354 1.94016
6.4643831 1.109714 2.103528
6.4655452 1.117641 2.27915
6.9142418 1.2034709 2.6248751
6.8573961 1.20179 2.789592
6.6571522 1.174662 2.8878541
6.9301209 1.231124 3.1905701
8.0256939 1.435375 3.9050651
6.8812518 1.238939 3.524529
7.606288 1.3694789 3.8958881
7.4810739 1.355901 4.0171971
7.2886539 1.329778 4.0881119
8.1275377 1.492578 4.7432179
7.7231822 1.4276021 4.6728721
7.1696959 1.3339 4.482162
7.436594 1.392488 4.7850118
6.8848929 1.2974679 4.5446711
6.7578812 1.289785 4.6430049
6.6787949 1.30688 4.7618699
6.824121 1.368255 4.7653408
6.8136592 1.38263 4.608109
6.7708149 1.38212 4.4826312
7.3259401 1.504297 4.7299571
7.23875 1.495164 4.542901
7.9936452 1.670446 4.6874619
6.5924911 1.385643 3.7170801
6.6937542 1.415042 3.6149631
6.3368011 1.347279 3.2657039
6.4038272 1.369301 3.136579
6.4913068 1.395888 3.009738
6.6252351 1.4327461 2.8957109
6.4228449 1.3967839 2.6337471
6.6283288 1.44953 2.537648
6.1712079 1.3570811 2.1948221
6.2898798 1.390834 2.0659649
6.0506339 1.3453 1.8233269
6.135849 1.371733 1.684276
6.138309 1.379765 1.522216
6.1118031 1.3812619 1.35606
6.0903282 1.3838511 1.19572
6.383749 1.458317 1.094247
6.191864 1.4220459 0.91067702
6.4544139 1.490244 0.79705203
5.6508708 1.311627 0.569682
6.5127029 1.511667 0.65656602
5.7122211 1.3328561 0.45134699
6.0780349 1.4256639 0.35352099
5.6655712 1.335857 0.21775401
5.6659508 1.3429 0.112227
6.7146969 1.591465 0.133
5.4504418 1.2985049 0.01343
5.5204349 1.321954 -0.074565001
5.2714 1.268798 -0.149229
5.5084758 1.3326271 -0.228879
5.4467492 1.324388 -0.29100701
5.781496 1.412902 -0.367944
6.2881122 1.552189 -0.498377
6.0485702 1.522908 -0.54376298
6.0320659 1.548579 -0.437181
5.9800591 1.5500439 -0.32071501
5.4979649 1.431897 -0.229444
6.2096262 1.6172431 -0.25914401
5.4861259 1.4356149 -0.15607999
5.2955489 1.392323 -0.071924999
5.3059731 1.401651 0.013154
5.4773149 1.4537261 0.109221
5.9990439 1.599653 0.23225801
5.7632179 1.543937 0.337861
5.6891341 1.53118 0.45334199
6.114944 1.653397 0.62206697
6.1147261 1.660957 0.76240802
6.3247328 1.725898 0.93976599
5.8957238 1.6161849 1.021561
6.051733 1.6665061 1.201737
6.0485549 1.673196 1.358175
6.1132941 1.698746 1.5351501
5.9721069 1.666918 1.660988
5.9968882 1.68134 1.832075
6.4132638 1.806121 2.136816
6.1927929 1.751793 2.2355089
6.0995789 1.7330739 2.3716011
6.2956219 1.7966861 2.623333
6.3268032 1.813529 2.811641
6.1967311 1.784031 2.923038
6.6235628 1.915255 3.302458
6.4889412 1.884493 3.4061451
6.5374479 1.906811 3.598145
6.553091 1.919641 3.767807
7.9424772 2.336657 4.7521791
7.7464142 2.2887621 4.8058128
7.710999 2.288033 4.9434681
8.415905 2.518481 5.6983891
7.949791 2.399117 5.6040511
5.8825312 1.805114 4.3055191
7.141943 2.2461419 4.9622388
8.1287107 2.5564799 5.6478481
7.3981352 2.3456011 4.9084859
7.6919308 2.4485929 4.9612708
7.7898121 2.489713 4.8656368
8.5652542 2.7485149 5.1633768
6.6169939 2.1318209 3.8359261
6.523087 2.1099279 3.622438
6.4861231 2.106302 3.437654
5.9610968 1.943457 3.003099
6.0038581 1.965111 2.8635859
5.9364161 1.950678 2.6694281
5.8806739 1.939927 2.4812491
6.0977521 2.0193889 2.4024279
5.8247671 1.9365 2.1321499
5.9740911 1.993848 2.019851
6.2875462 2.1065769 1.950601
5.878716 1.977206 1.661505
5.8227592 1.965912 1.486941
5.9232669 2.007508 1.3535219
5.8727641 1.998005 1.187634
5.7749062 1.972194 1.019748
5.9104872 2.02616 0.89563602
5.0489268 1.737371 0.64246798
5.925776 2.0391009 0.75404602
5.282856 1.824728 0.54886502
5.3912959 1.8691911 0.43907201
5.9442492 2.068646 0.35640401
5.619843 1.963066 0.222688
5.4779739 1.920657 0.11188
5.5154171 1.940977 0.014015
5.3769341 1.899259 -0.074905999
5.5125909 1.954386 -0.16097701
6.0962682 2.169286 -0.261323
6.0218568 2.150686 -0.331965
5.3855319 1.930486 -0.35369
5.3247781 1.9226691 -0.43562001
5.1673012 1.8929909 -0.479756
5.3345542 1.982412 -0.39950699
5.63516 2.1090331 -0.31236801
5.162395 1.938929 -0.222706
5.7002382 2.148489 -0.16766299
5.1990461 1.966488 -0.073014997
5.3907199 2.0461431 0.01382
5.3518491 2.0385079 0.110377
5.2552562 2.0087039 0.210464
5.6956348 2.1846089 0.34543601
5.765429 2.21907 0.47536099
5.3474441 2.06532 0.56293899
5.2971139 2.0529511 0.68356299
5.563108 2.16348 0.85562199
5.5341721 2.1596251 0.99271703
5.6272149 2.2034631 1.156984
5.824645 2.288583 1.354368
5.6992898 2.2469699 1.4822381
6.3059578 2.5030069 1.995754
5.9970188 2.388453 2.07024
5.885921 2.3521249 2.2017131
6.04461 2.4236801 2.4357071
5.7931142 2.330658 2.5020781
5.8464341 2.359998 2.693392
5.7927928 2.346168 2.833035
5.8086171 2.3604391 3.003099
8.3282833 3.3956211 4.5337238
9.133523 3.736305 5.214087
9.0078754 3.6971331 5.3727131
8.6883097 3.5777619 5.3933702
8.0690527 3.3337319 5.1944098
5.652379 2.342967 3.760617
5.5788288 2.320071 3.821275
5.5282178 2.3065641 3.8856361
5.5109358 2.314389 4.0338211
8.3069849 3.534116 6.3166718
5.5134659 2.375946 4.1105661
6.8797078 2.9647081 5.129168
5.4875989 2.37993 3.964488
5.4804611 2.3843961 3.876929
5.536797 2.416553 3.82074
5.5909781 2.4479411 3.7511921
5.714057 2.509737 3.713141
8.9491701 3.955493 5.3988008
8.4780073 3.770808 4.6773162
8.5253496 3.8037241 4.471386
5.4768119 2.451195 2.7199121
5.6107798 2.518986 2.627393
5.7858829 2.6056731 2.5426199
5.6216612 2.5395689 2.3071439
5.640029 2.555763 2.1508529
5.6632962 2.574234 1.995114
6.213316 2.8329511 2.0087349
8.8440247 4.0448408 2.605207
5.5762029 2.5581241 1.484354
5.523499 2.5417099 1.315871
5.3041401 2.4482441 1.1184371
5.4839702 2.538974 1.009859
5.536705 2.571197 0.87506199
6.5197911 3.027734 1.030436
5.4242439 2.5266399 0.71999902
5.403614 2.524668 0.58570999
5.3104501 2.4886529 0.451271
4.9072251 2.306649 0.30704799
5.234364 2.4678431 0.216483
6.1969948 2.921694 0.256295
5.0705829 2.3978331 0.108103
5.0072842 2.375015 0.013284
4.8659558 2.314904 -0.070781998
5.2822561 2.5204861 -0.16108701
4.8777552 2.3344281 -0.21838801
4.7455111 2.2779119 -0.273276
6.7369881 3.2338481 -0.38795799
4.6763482 2.251404 -0.32086301
4.6545668 2.2542419 -0.39794999
4.5265608 2.2182701 -0.439457
4.7000599 2.3304279 -0.368274
4.6560669 2.3221059 -0.270114
4.7764812 2.389087 -0.215684
4.7463021 2.380883 -0.146148
5.0164652 2.5237069 -0.073762998
4.7496819 2.396405 0.012751
5.2563128 2.6596899 0.113537
4.6151509 2.341995 0.19360501
5.1181278 2.6047101 0.325196
4.590445 2.3428841 0.39656901
4.5881162 2.348412 0.50615603
4.7360868 2.431092 0.64055598
5.3290792 2.7433131 0.85917002
5.174407 2.6712921 0.97310299
5.6440239 2.922035 1.2167799
5.4231548 2.8156841 1.322428
5.6605392 2.947279 1.544086
5.9869008 3.125967 1.809258
7.4168382 3.872587 2.241389
5.4316788 2.844095 1.8035721
5.7952452 3.0430501 2.0992529
5.8934708 3.1033599 2.3136029
5.7836571 3.0541151 2.4462171
5.7628479 3.051698 2.6129179
5.6869369 3.0199571 2.7507491
8.3156776 4.4282889 4.2706079
8.0359039 4.2912998 4.3633919
5.6661382 3.042733 3.398196
5.575078 3.002187 3.4938819
5.5654731 3.005353 3.6305931
7.876029 4.264884 5.3288841
8.3162193 4.5282459 5.988749
6.3134031 3.504539 5.0525351
6.6859789 3.7725301 5.088201
7.8990378 4.4569931 6.0113702
7.924696 4.4836049 5.9062762
8.7094154 4.9677138 5.965467
5.588407 3.196142 3.6953089
5.5278511 3.1700411 3.5161049
5.589221 3.2138619 3.406605
5.6797209 3.2746899 3.3048649
5.5940881 3.2513371 2.764106
5.5907812 3.2581019 2.592833
11.265152 6.5824461 4.8798218
5.7444782 3.365572 2.312619
5.3113241 3.1200831 1.975569
5.331718 3.140393 1.820222
6.1722569 3.6451421 1.920267
5.7606611 3.4110911 1.619809
5.521534 3.2781579 1.3896919
5.3734331 3.1986821 1.197224
5.3967018 3.2210231 1.05024
4.7328911 2.832283 0.79063499
4.791399 2.8748651 0.672333
4.6417408 2.792402 0.53195697
4.6163368 2.784421 0.414828
5.5665832 3.357579 0.50021797
4.4006271 2.661293 0.29121801
4.4826779 2.718025 0.196109
4.9628038 3.0170391 0.111938
4.6895251 2.8583641 0.013164
4.6354742 2.832804 -0.071359999
4.594173 2.814903 -0.148294
4.7498102 2.9178519 -0.225127
4.5891442 2.8264959 -0.279809
4.5756378 2.8255179 -0.33246401
4.5532842 2.8263359 -0.41237301
4.595397 2.882139 -0.47289401
5.3330231 3.344764 -0.548801
4.429637 2.8069279 -0.36813399
4.4928842 2.861656 -0.27654299
4.8927999 3.1243629 -0.234448
4.5469761 2.9109681 -0.148596
4.50705 2.8927989 -0.070349
4.7084131 3.0297639 0.01342
4.8250108 3.1127281 0.110666
4.4664989 2.8887911 0.19898801
4.816823 3.1233051 0.32508299
4.8426371 3.1480451 0.44444299
4.4565201 2.9044061 0.52237999
4.5871439 2.997129 0.65931201
4.7877831 3.136168 0.82043302
4.869998 3.1981061 0.973598
5.0409918 3.318778 1.15548
5.4571371 3.6018491 1.415074
5.4997301 3.6391339 1.595587
5.7424588 3.809252 1.846002
5.4824138 3.645931 1.9367729
5.1783938 3.4524469 1.996031
5.666564 3.816081 2.9184959
5.5716701 3.761591 3.047308
5.5568919 3.761034 3.213903
7.8465509 5.3373542 5.0141382
5.5305762 3.8186891 4.3596401
5.4689622 3.909065 4.2515631
5.8515401 4.2341218 3.816314
6.2228112 4.5138092 3.8751819
5.4649248 3.9834771 3.065474
5.4900651 4.0115919 2.904747
5.5692148 4.07936 2.76616
10.295001 7.5962229 4.1032228
9.8224316 7.2828689 3.2756579
4.8263731 3.587225 1.454959
5.6907048 4.2296438 1.71552
4.6727371 3.4814689 1.2610869
4.803299 3.5874441 1.147771
5.1471281 3.8535631 1.074468
4.8920169 3.671443 0.87676501
4.3263431 3.254782 0.65142697
4.4195051 3.332916 0.54358798
4.590023 3.4698839 0.44275501
4.240469 3.213393 0.30128199
4.4776869 3.4013519 0.210352
4.1936388 3.1932831 0.10159
4.4697008 3.4117041 0.013478
6.0046449 4.5833211 0.018106
4.529685 3.465826 -0.074919
4.4458022 3.409852 -0.154209
4.4597039 3.428751 -0.227185
4.4612622 3.4382031 -0.29240701
5.2657132 4.058177 -0.34513399
4.2493958 3.282809 -0.33197001
4.1412401 3.214648 -0.40339699
4.3941059 3.4438021 -0.48670301
4.2993798 3.4019439 -0.38487101
4.987781 3.946651 -0.446495
4.2532401 3.381546 -0.28209001
4.325016 3.446821 -0.223351
4.391623 3.5082531 -0.154704
3.9759309 3.1837609 -0.066907004
4.2876201 3.4415319 0.013178
4.4051299 3.5442879 0.10897
5.9771109 4.8090758 0.147857
4.0456052 3.2627709 0.194427
4.1165881 3.32792 0.29975501
4.0118799 3.2509971 0.39733601
4.4626508 3.6248729 0.56459999
4.2199059 3.4358439 0.65477198
4.5415511 3.706521 0.840298
4.8186622 3.942018 1.04035
4.5689659 3.7466171 1.131223
5.873734 4.816546 1.4542691
4.8836288 4.0141559 1.368117
5.7451348 4.722281 1.609462
5.6013079 4.6149759 1.755969
5.5099769 4.5503802 1.914315
5.4331579 4.4975572 2.0747709
5.3494978 4.4387922 2.2293489
5.2755828 4.3878102 2.3834929
5.2064219 4.3405209 2.5351951
5.136322 4.2922091 2.6821001
5.0750451 4.2510161 2.82814
5.0236459 4.217895 2.973407
4.9441109 4.160924 3.0951099
4.9477448 4.1738029 3.2630031
4.9779339 4.209168 3.4444461
4.9860601 4.2259879 3.606447
4.976367 4.2277079 3.7480781
4.9589648 4.222858 3.875227
4.9487438 4.2240729 3.998863
4.9615488 4.2449679 4.1296921
5.0068278 4.293797 4.278554
6.435698 5.5974669 5.9681029
4.8904538 4.2935448 4.455749
4.8583241 4.2853618 4.293757
4.8339648 4.2738628 4.1854939
4.8229728 4.2741289 4.075706
4.8446488 4.3034019 3.982631
4.8716559 4.3375182 3.880851
4.8905649 4.3645411 3.7625151
4.828352 4.3191118 3.5745621
4.9300141 4.4203639 3.4986379
4.9698758 4.466537 3.3683341
6.946403 6.2428851 4.7079248
8.7024822 7.8393898 5.610075
5.5472879 5.0087972 3.387917
10.111443 9.1512527 5.8259931
5.2727842 4.8168139 2.290427
5.2500072 4.807198 2.093961
5.3039098 4.8678999 1.928547
5.3705878 4.9405942 1.76561
3.9052329 3.600939 1.149616
5.4148731 4.992949 1.594021
5.4564848 5.043066 1.422491
4.5866389 4.2490072 1.044801
3.971498 3.6877229 0.77687103
3.8482411 3.5816121 0.63255203
4.0046382 3.735857 0.53782099
3.9254 3.6704681 0.413524
3.8229899 3.583046 0.296702
3.9300649 3.6919789 0.201717
3.9052229 3.677196 0.103382
3.7903969 3.577384 0.012493
3.7503331 3.547812 -0.067814
4.1368151 3.922544 -0.156905
3.9754651 3.7783251 -0.221495
3.7968769 3.6169901 -0.272239
3.784044 3.6131639 -0.32345501
4.2768049 4.102695 -0.456027
4.0122399 3.8848569 -0.48687699
4.1820979 4.0871248 -0.410501
3.937803 3.8663039 -0.286497
3.758074 3.6984141 -0.21294001
3.613796 3.5646939 -0.13970999
3.755049 3.7126479 -0.069362998
3.7283199 3.6947899 0.012581
3.8964219 3.8703671 0.105849
3.829735 3.8129671 0.20216499
3.732815 3.7251091 0.29862401
4.117506 4.1185689 0.448125
5.5922232 5.5936661 0.60862499
3.7691889 3.778924 0.52413899
3.804842 3.823535 0.64903802
3.994118 4.0230818 0.81262797
4.1416879 4.1814189 0.98348701
4.8510571 4.897593 1.151934
5.8552222 5.938921 1.804907
5.8513479 5.9487872 2.018882
5.9632692 6.07654 2.2807209
6.042449 6.171524 2.5406921
5.8129911 5.9647951 2.89307
5.724247 5.8873768 3.0711701
5.8103862 5.989872 3.343791
7.6724248 7.90943 4.4153671
5.6975379 5.8871832 3.499917
5.5982509 5.7980309 3.6533849
6.795095 7.0539598 4.6912618
6.429565 6.6900139 4.6773162
6.1982188 6.4793291 4.9475722
5.8543448 6.1340842 4.8671751
5.7401261 6.0284081 4.952559
5.6406512 5.9377098 5.0335302
5.4934669 5.7962198 5.0506678
4.591383 4.8783169 4.5210562
4.3310599 4.6447358 4.443686
4.352201 4.7110472 4.391345
5.8544469 6.3371549 5.9071021
4.4644909 4.855154 4.371655
5.918427 6.436316 5.7953572
3.3671441 3.6703179 3.2309561
5.9646721 6.5017238 5.723423
5.3215852 5.8142552 4.9849219
6.1675868 6.7543111 5.621552
5.6828341 6.237956 5.0205641
5.872921 6.4616461 5.0120401
6.0254869 6.6449928 4.9495049
8.2758102 9.1479769 6.5179591
6.4561892 7.1532698 4.857368
7.0639129 7.844882 5.056282
6.2096748 6.9123039 4.2119818
5.0850248 5.6736379 3.2547779
4.531621 5.0679879 2.7241299
4.5198312 5.0666151 2.5393989
4.5254979 5.0848422 2.3644619
4.542016 5.115334 2.193924
4.6056552 5.1991372 2.043164
4.6894069 5.3060808 1.896978
4.7355518 5.3708329 1.732452
4.8131351 5.471602 1.577099
4.8789172 5.5593882 1.416098
3.891228 4.4443302 0.987113
3.8369241 4.3925748 0.83604097
4.0252552 4.6189928 0.73720098
3.549571 4.0826941 0.53127301
3.4226861 3.9459839 0.401939
3.64485 4.2119861 0.31541601
3.7385881 4.3304482 0.21401601
5.076643 5.8803329 0.290613
3.693063 4.2877722 0.109067
3.5727561 4.1578321 0.01314
3.5500629 4.141129 -0.071649
3.516927 4.1121302 -0.148926
3.6610889 4.2907529 -0.22779
3.606915 4.2372041 -0.28888199
3.4791529 4.0967441 -0.33227801
3.4344821 4.0632062 -0.409381
3.759383 4.4896898 -0.51050001
3.5116589 4.2335982 -0.38613099
3.52543 4.2703309 -0.28748199
3.4048281 4.1340008 -0.216289
3.4395919 4.1860929 -0.149119
3.647455 4.4495931 -0.075576
4.6648631 5.6907458 -0.096657
3.8204851 4.6717138 0.014465
3.52931 4.3259048 0.107602
3.481478 4.2773938 0.206315
3.4016371 4.1892142 0.30557799
3.921252 4.84061 0.47935
3.3579299 4.155057 0.52462697
3.60746 4.4744258 0.691567
3.4171989 4.248528 0.78155398
3.4858069 4.344131 0.93074399
3.416364 4.2677188 1.046607
3.3484199 4.1928129 1.161249
4.274363 5.390522 2.0236919
4.4041662 5.5675001 2.276684
4.0661278 5.1647668 2.458478
4.1057892 5.2276349 2.6635029
4.0025172 5.1083412 2.772356
3.9650431 5.0726299 2.9184971
3.885473 4.982759 3.0264249
3.8413041 4.9379239 3.153621
3.7902031 4.8839221 3.266454
3.749279 4.8427992 3.379384
3.7305329 4.8301582 3.5031509
3.6847551 4.7823658 3.5919609
3.4619889 4.5040469 3.491478
3.535634 4.6109262 3.6748171
3.572145 4.6697712 3.8138011
3.2796309 4.308063 3.6539891
3.4291699 4.5481839 3.985615
3.4552701 4.6273541 3.9540751
3.275286 4.4076381 3.6396389
3.512239 4.7379889 3.825774
3.5417199 4.7893691 3.7672889
3.543855 4.803925 3.6689849
3.5661271 4.845881 3.579689
3.55211 4.8385892 3.4454041
3.722589 5.0831852 3.4764891
3.7010779 5.0661368 3.3150401
3.766654 5.1685009 3.223841
3.7436061 5.1494222 3.04932
3.8638501 5.3278108 2.983315
3.9763551 5.50983 2.7226419
3.9992261 5.5550981 2.5600679
3.8020561 5.2941871 2.264056
4.2944622 5.994513 2.3649421
4.4445372 6.219234 2.24861
4.4666519 6.2655611 2.061291
4.4916492 6.3161221 1.8751971
4.5098758 6.3573642 1.686878
4.1205969 5.8229461 1.3657041
3.2336841 4.5808878 0.93700802
3.1305859 4.4457822 0.77942502
3.135323 4.463521 0.65632498
3.209583 4.580534 0.54925603
3.1959081 4.5723009 0.429252
3.2240269 4.6239672 0.319204
3.6471601 5.2308321 0.36109701
3.3425269 4.8058009 0.218988
3.3164251 4.7801161 0.112131
3.1965261 4.6187372 0.013463
3.385747 4.9043031 -0.078281999
3.265666 4.7421422 -0.158473
4.0939879 5.9449668 -0.198669
3.3079579 4.8155122 -0.23594099
3.3429501 4.8785758 -0.307028
3.1011031 4.5369339 -0.33974499
3.0368719 4.4651771 -0.415519
3.0803499 4.574667 -0.48079801
3.090246 4.6356921 -0.391103
3.5101409 5.2921739 -0.32968399
3.2814691 4.959897 -0.240178
3.187392 4.829875 -0.159271
3.524123 5.3536501 -0.084192
3.148267 4.7947812 0.013748
3.328913 5.0827699 0.117102
3.21965 4.928412 0.220221
3.2399199 4.972034 0.33605099
3.0879531 4.7508879 0.436003
3.519069 5.4279461 0.635261
3.4774301 5.3773842 0.770531
3.415231 5.2946892 0.903157
3.008848 4.6765752 0.92926103
4.3222022 6.8406749 2.8107109
6.7150021 10.682542 5.0558572
5.049098 8.0530558 4.0605168
3.5195429 5.627984 3.008913
3.251492 5.226294 3.102756
5.004364 8.0437775 4.775444
3.0899229 4.9794621 3.0964041
3.1273711 5.052896 3.2788961
5.2797141 8.5304394 5.535522
2.9229839 4.7349291 3.194006
2.9274549 4.7545152 3.3219881
4.9350281 8.0358953 5.795917
3.2556911 5.3151798 3.942076
3.209038 5.2526979 3.9928451
3.164139 5.2063098 4.111577
3.1375189 5.216917 4.259655
3.0930581 5.197443 4.1410732
3.1204569 5.2712831 4.0600638
2.8617251 4.8728261 3.4731519
5.012897 8.5812674 5.7045059
3.726789 6.517817 2.8080871
3.147362 5.5342212 2.0418389
4.0299702 7.124598 2.1927421
4.2463622 7.527514 2.0910771
3.430836 6.1149549 1.342388
4.1958289 7.498806 1.435921
3.178689 5.6964598 0.93508297
3.0058141 5.4013848 0.74377197
2.968569 5.3490462 0.600761
2.9422519 5.3161449 0.46753499
2.963686 5.3695812 0.34730199
2.801589 5.089839 0.217343
2.82213 5.1412802 0.113036
3.2488339 5.9349451 0.016217001
2.948462 5.4010882 -0.08083
2.88254 5.29494 -0.165929
3.1201811 5.7473249 -0.26410699
3.270189 6.0403309 -0.356592
2.8341129 5.2494111 -0.36880699
2.9265189 5.4507699 -0.476051
2.892694 5.4483008 -0.53777099
3.16471 6.0280018 -0.47793701
3.2221539 6.172183 -0.36146501
3.044148 5.847724 -0.26624599
2.817167 5.4270558 -0.168295
3.027261 5.8483849 -0.086503997
2.795527 5.4160719 0.014609
3.1042049 6.0141058 0.016222
2.8225839 5.4841089 0.118875
3.250845 6.3161922 0.136911
2.8476291 5.548573 0.23330501
2.866832 5.6019731 0.35634801
2.8832021 5.6501288 0.48809701
2.8654721 5.631505 0.62050301
2.859308 5.6355491 0.76037699
3.8108239 7.5326042 1.2100739
3.141171 6.226862 1.16545
3.809298 7.5513139 1.413341
3.828196 7.610713 1.631023
5.0374718 10.014835 2.1462409
3.808183 7.5928769 1.8383271
4.5769358 9.1784897 2.7475259
4.6931629 9.4390144 3.1008689
2.7472451 5.5577102 2.1534779
3.4239841 6.9470668 2.8967161
3.2621109 6.6380992 2.9636631
4.294621 8.7391644 3.90171
4.64713 9.4843102 4.5119038
3.4778659 7.1188831 3.5914559
3.276475 6.7264848 3.5836749
3.265368 6.7434368 3.958801
3.553623 7.3824358 4.7028952
2.603272 5.4242792 3.579689
2.909483 6.08041 4.142858
2.6529081 5.5607882 3.896642
2.5052049 5.2669439 3.783325
2.631979 5.7738409 4.0131669
2.7344921 6.0172648 4.0622211
3.355607 7.4298191 4.6794968
3.0546701 6.7845292 4.105504
3.283118 7.31461 4.2363
3.4035599 7.6303902 4.0018282
2.9440119 6.641603 3.1035299
3.078727 6.9673548 3.052186
4.3235669 9.8153362 4.0114031
4.7519379 10.821931 4.1054888
4.6583238 10.642308 3.7257609
4.1059971 9.4102201 3.0201581
4.3776588 10.129034 2.3880701
3.2859781 7.6274562 1.590031
2.5371361 5.9081149 1.074468
3.0699389 7.148828 1.300108
2.576405 6.0188351 0.93848902
2.600455 6.0946069 0.79729098
2.6089211 6.1341839 0.654612
2.6194451 6.1788502 0.51640701
2.4568419 5.8141088 0.35742199
2.3859639 5.6647239 0.229941
2.447937 5.830812 0.121881
2.556643 6.1096201 0.015875001
2.743331 6.5771961 -0.093610004
2.8933599 6.959672 -0.20744599
2.58758 6.2446079 -0.27298501
2.5656109 6.211988 -0.348919
2.604058 6.3259258 -0.42292199
2.7534561 6.7332578 -0.55975401
2.5513461 6.3227892 -0.59439701
2.4699299 6.2039781 -0.46876401
2.4273829 6.1386051 -0.34269699
2.54023 6.4458742 -0.27980399
2.5612509 6.5214181 -0.192837
2.5653429 6.554234 -0.092454001
2.4205761 6.2055998 0.015966
2.4136381 6.2091408 0.12839399
2.315665 5.9776592 0.23981
2.371721 6.1435409 0.372913
2.3982539 6.2338462 0.513951
2.5643721 6.6888208 0.70347798
2.658927 6.9596338 0.89644402
2.389699 6.2768359 0.96275198
2.3220611 6.1205511 1.093917
3.193634 8.4474449 1.728989
3.737541 9.8861294 2.023453
3.2540779 8.6376905 1.997602
3.327513 8.8638191 2.290731
3.8227279 10.218687 2.9227071
3.8626289 10.361948 3.2529769
2.5739951 6.9543109 2.575774
3.565763 9.6682549 3.8541141
3.042836 8.3097382 3.7804129
3.1515009 8.6375027 4.1678061
2.994874 8.2379198 4.1983771
4.0336132 11.175805 6.2778339
3.1421471 9.3820601 6.2576122
3.237983 9.743247 6.108634
3.161164 9.5490837 5.7737031
3.8022871 11.530616 6.6993442
2.6121271 7.9523959 4.4227009
3.5047259 10.669835 5.9339962
2.773453 8.4767246 4.495913
2.8076551 8.6490822 4.1219792
3.231705 10.034629 4.2241869
3.2004981 9.9773664 3.918921
3.1034541 9.7136049 3.5421
3.178256 9.987668 3.3614299
2.261405 7.135088 2.2017641
2.8222151 8.9405661 2.5115359
2.2346821 7.1080089 1.802766
3.309792 10.570514 2.3971651
2.9888239 9.5844526 1.922102
2.5280509 8.1735163 1.226392
3.136445 10.140532 1.5215321
2.210876 7.2072592 0.74032301
2.0816209 6.8140731 0.54824603
2.0369909 6.695797 0.396319
2.120873 7.0006728 0.27364099
1.988211 6.590344 0.132672
1.991287 6.6283288 0.016589001
2.0473421 6.8437071 -0.093832999
2.0225301 6.7894711 -0.19498301
2.1044209 7.09443 -0.29885101
2.0795209 7.040422 -0.38111401
2.059761 7.003449 -0.45130599
2.0070491 6.8831582 -0.55169803
2.2418251 7.8232622 -0.709472
1.989993 7.0681348 -0.51547199
1.886935 6.7622142 -0.364472
1.895869 6.824791 -0.28605899
2.0398469 7.376245 -0.210637
1.903688 6.9151301 -0.094214
1.9082479 6.9632392 0.017305
1.968227 7.2149639 0.14413799
1.9832079 7.3032231 0.283099
1.965924 7.272912 0.426622
2.081512 7.7361832 0.61645001
2.385766 8.9496555 1.114463
2.211663 8.3354273 1.236183
2.3916531 9.0137806 1.336786
2.568408 9.817667 2.1962199
2.5626841 9.8423901 2.4607551
1.842599 7.1131349 1.9683959
1.870217 7.2543988 2.2037389
2.470871 9.5842791 2.911509
1.874229 7.3050389 2.4186909
2.490274 9.7531242 3.49649
2.6185091 10.305193 3.976722
2.456701 9.7156467 4.0155249
2.484123 9.8722525 4.3488698
2.7503059 10.98391 5.1326571
2.1868 8.7766743 4.3322902
2.0803061 8.3907299 4.3577218
2.3696461 9.6536217 5.4847951
2.3375959 9.570982 5.6552219
2.4636159 10.138018 6.2073169
2.2201991 9.1827269 5.8063889
1.914199 7.9575009 5.17628
1.892728 7.908618 5.2749958
1.778002 8.0011568 5.183763
2.095037 9.5852671 5.631825
2.138082 9.9481382 5.1292481
2.1926429 10.318436 4.7817268
2.097759 9.9286127 4.3351202
2.4810569 11.810449 4.8356652
1.985616 9.5068083 3.6323669
2.334265 11.241291 3.9880199
1.973905 9.5615644 3.131166
1.880877 9.1646032 2.752063
1.910495 9.3641176 2.560183
1.963239 9.6799326 2.389735
2.065577 10.369664 1.7668819
2.0353889 10.280324 1.502234
2.0155001 10.242283 1.256026
1.596312 8.2125664 0.64376301
1.551805 8.0333853 0.46331501
1.610382 8.388854 0.319547
1.539449 8.0699511 0.15833899
1.521057 8.0240822 0.019575
1.511995 8.0271358 -0.107296
1.600782 8.6082878 -0.353609
1.467308 8.671895 -0.45660099
1.386582 8.3119488 -0.231932
1.434813 8.7257957 0.021196
1.3884979 8.5058146 0.166105
1.310788 8.0887499 0.30653799
1.385066 8.6103392 0.493844
1.383114 8.662343 0.67498797
1.40465 8.8632183 0.881253
1.720739 11.107649 1.878301
1.4803129 9.7044859 2.1245151
1.436188 9.4890213 2.3220079
1.441125 9.5962391 2.599515
1.505481 10.104627 3.0052011
1.467881 9.9314413 3.2197289
1.671255 11.398899 4.001802
1.7395509 11.961428 4.5207539
1.4678251 10.17603 4.1196699
1.126038 8.355134 5.0159621
1.206652 11.207091 5.6820092
1.2541029 11.907454 5.4274378
1.1642359 11.178911 4.801435
1.073856 10.428563 4.2007542
1.031494 10.132587 3.809274
0.980914 9.8630762 3.178807
0.85005498 9.8194847 0.55812597
0.814331 9.8042107 0.02358
0.78960699 10.073494 -0.52456999
0.59485197 12.082624 2.0215299
0.45457101 11.060836 3.8452859
0.41661301 10.432341 3.9049089
0.39615801 10.217975 4.097353
0.25289401 8.5816374 5.1079979
0.113219 9.4016056 6.2318039
0.071970001 8.4093285 5.1686239
0.032827999 8.388032 4.432044
-0.020067999 10.600648 4.2476192
-0.154686 12.530285 2.0940509
-0.55755001 12.750983 -0.351282
-0.748492 11.169261 4.782186
-0.76964599 10.737189 5.687798
-0.74522603 10.068477 5.7951088
-1.128428 10.80337 4.9237499
-0.864079 6.1802182 -0.54402399
-1.419351 5.7171049 -0.51354003
-0.72150201 -2.6166451 0.72711903
-0.90429401 -3.2944019 1.004932
-0.79640901 -2.914566 0.96900302
-0.78151399 -2.873095 1.034247
-0.76793402 -2.836091 1.098923
-0.84550601 -3.1369431 1.30181
-0.930071 -3.4666071 1.533301
-0.69066101 -2.5861919 1.2133909
-0.97571498 -3.653579 1.714188
-1.006935 -3.7880449 1.877369
-0.97665501 -3.6912889 1.924762
-0.90157098 -3.4234819 1.87055
-0.952142 -3.6325541 2.072077
-0.80281299 -3.0773239 1.825502
-0.85851002 -3.3064611 2.0324619
-0.72494102 -2.805341 1.780822
-0.95216399 -3.684639 2.3389969
-1.002027 -3.8961561 2.5443101
-0.901788 -3.523277 2.3591361
-0.863392 -3.4059751 2.371289
-0.77086699 -3.101059 2.235889
-0.81950599 -3.362994 2.3699591
-0.886078 -3.673053 2.504323
-0.85526001 -3.5633371 2.377095
-0.87000501 -3.643297 2.3689871
-0.78709602 -3.313046 2.0928969
-0.70807701 -2.9958129 1.831516
-0.78175598 -3.3246789 1.960411
-0.90000498 -3.8475289 2.180294
-0.81138802 -3.4868331 1.891572
-0.57494003 -2.483731 1.285125
-0.79968101 -3.4546051 1.787472
-0.59296799 -2.575134 1.26569
-0.77976298 -3.3863461 1.664404
-0.63568097 -2.775274 1.290596
-0.706002 -3.0987351 1.3576961
-0.641536 -2.830869 1.163074
-0.66895002 -2.9677269 1.137808
-0.640827 -2.8583579 1.017513
-0.816688 -3.6427701 1.296746
-0.81466103 -3.6534801 1.200489
-0.93054199 -4.195961 1.264279
-0.94785899 -4.2975411 1.178916
-1.2855181 -5.8284688 1.5988851
-0.63223499 -2.8823321 0.71395701
-1.265303 -5.7684622 1.428856
-1.661803 -7.5760908 1.876608
-0.71177697 -3.262954 0.722767
-1.202126 -5.5108309 1.220687
-0.66046101 -3.044606 0.59644997
-0.71567798 -3.3176241 0.56714898
-0.575104 -2.6809831 0.393047
-0.62963498 -2.9518249 0.36316499
-0.69793099 -3.2906189 0.33033499
-0.63986403 -3.034097 0.238601
-0.66795099 -3.1855099 0.18430801
-0.60287303 -2.8917589 0.110503
-0.60896897 -2.937995 0.057828002
-0.56290102 -2.731596 0.0066849999
-0.62612599 -3.0562539 -0.04098
-1.543843 -7.53582 -0.101044
-0.55857402 -2.7426369 -0.077036001
-0.60057098 -2.966347 -0.122228
-1.053564 -5.2348409 -0.277217
-0.64886999 -3.2434161 -0.20448899
-1.042226 -5.2096272 -0.328453
-0.62911099 -3.182831 -0.249649
-0.59653097 -3.0930541 -0.27461699
-0.624129 -3.3185079 -0.23704299
-1.033198 -5.5642672 -0.293807
-0.54656303 -2.962548 -0.121663
-1.0510679 -5.6971331 -0.233964
-0.540856 -2.9507051 -0.082566001
-0.97087401 -5.2967172 -0.148211
-0.53545302 -2.9403861 -0.039259002
-0.62182498 -3.4371951 0.0083720004
-0.51569599 -2.869487 0.056191001
-0.72349602 -4.0257449 0.078832
-1.023434 -5.6946921 0.111514
-0.55848598 -3.1283159 0.118877
-0.725568 -4.091507 0.235304
-0.53324002 -3.0273089 0.23653001
-0.49995399 -2.85764 0.28489
-0.66255301 -3.8129499 0.465664
-0.52656502 -3.0512481 0.443845
-0.52766001 -3.0787971 0.52198797
-0.49437401 -2.904716 0.564107
-0.461748 -2.7321091 0.59966099
-0.685929 -4.0872622 1.002739
-0.46906501 -2.8165309 0.764898
-0.64856797 -3.922303 1.169458
-0.859384 -5.1972408 1.549588
-0.52386397 -3.1910491 1.037105
-0.51891899 -3.183917 1.120544
-0.50310099 -3.109462 1.178093
-0.612652 -3.8145089 1.548038
-0.480818 -3.0159099 1.304661
-0.494688 -3.1261151 1.434683
-0.60829198 -3.8730161 1.8778009
-0.414381 -2.6583929 1.356246
-0.50890797 -3.2897601 1.758896
-0.475609 -3.098202 1.7295491
-0.50453198 -3.312099 1.923074
-0.52504897 -3.4737539 2.09024
-0.516527 -3.4442711 2.1405461
-0.53818899 -3.6171739 2.3128631
-0.50142002 -3.3970201 2.227438
-0.48111001 -3.3123369 2.2588501
-0.46043 -3.276309 2.3150051
-0.46907601 -3.5455539 2.319953
-0.46754301 -3.565618 2.2743781
-0.41126701 -3.164809 1.9614691
-0.46408001 -3.6037669 2.161823
-0.377635 -2.95945 1.712497
-0.407767 -3.22527 1.793803
-0.46065301 -3.6776919 1.958378
-0.458303 -3.693542 1.876148
-0.44317299 -3.60566 1.74
-0.38016999 -3.1228311 1.426013
-0.47310501 -3.924031 1.688477
-0.35160199 -2.9448581 1.1883661
-0.47111401 -3.945833 1.592299
-0.39214399 -3.316936 1.2492059
-0.38657501 -3.3025661 1.154997
-0.38244101 -3.300236 1.0655071
-0.62014103 -5.406004 1.600667
-0.49441999 -4.354497 1.173999
-0.313894 -2.7933149 0.680094
-0.61509001 -5.4736218 1.332674
-0.30548799 -2.7470789 0.59818101
-0.37018201 -3.3642261 0.64797097
-0.36240599 -3.3288989 0.55956697
-0.32275799 -2.99686 0.43206799
-0.36410499 -3.4178679 0.413578
-0.30022499 -2.8494451 0.28137201
-0.412848 -3.9183581 0.38692299
-0.36630201 -3.5155201 0.27197501
-0.33254299 -3.227716 0.183743
-0.34136701 -3.3513031 0.126017
-0.286681 -2.8470719 0.055149999
-0.38555399 -3.8738489 0.009331
-0.30685699 -3.119674 -0.041177001
-0.49243999 -5.0064058 -0.066079997
-0.30316201 -3.1191151 -0.086251996
-0.33935499 -3.533849 -0.143372
-0.53645903 -5.6549621 -0.29489601
-0.308855 -3.296241 -0.20467401
-0.49843201 -5.319499 -0.330304
-0.32950801 -3.6062729 -0.278649
-0.454344 -4.9725261 -0.38421699
-0.30440599 -3.510462 -0.30718601
-0.29248801 -3.564218 -0.251048
-0.42359799 -5.161902 -0.363583
-0.279172 -3.501158 -0.18234
-0.282556 -3.5959761 -0.14567301
-0.27466899 -3.5480371 -0.097944997
-0.277109 -3.634136 -0.047874998
-0.25871 -3.4452901 0.008281
-0.252691 -3.418036 0.066056997
-0.37306499 -5.046289 0.097524002
-0.23324201 -3.205277 0.120223
-0.30121699 -4.2064729 0.238809
-0.27059099 -3.8410981 0.29629499
-0.23815 -3.437186 0.33835
-0.27607 -4.05231 0.48872
-0.23830201 -3.558574 0.51124501
-0.206863 -3.143518 0.526438
-0.208143 -3.219682 0.61769801
-0.201876 -3.179836 0.68955803
-0.359992 -5.7758169 1.400166
-0.345617 -5.6498551 1.51634
-0.32661599 -5.4422169 1.603771
-0.31369999 -5.329915 1.712323
-1.344902 -23.308823 8.1099148
-0.18863399 -3.5543859 1.613451
-1.2145931 -23.396761 11.221446
-0.14658301 -3.0258801 1.671575
-1.024853 -23.388393 14.806171
-0.45618799 -23.317928 11.756533
-0.42947 -23.327812 11.175225
-0.40213001 -23.30287 10.564636
-0.29426 -23.28055 8.0872746
-0.087791003 -7.643024 2.4513669
-0.267463 -23.285183 7.468318
-0.057879001 -5.6013699 1.647795
-0.053971 -5.880403 1.575338
-0.061266001 -7.6344671 1.847212
-0.022109 -3.217438 0.69632602
-0.052372001 -7.6213789 1.649439
-0.018557001 -3.2459929 0.62145799
-0.016173 -3.543823 0.59220201
-0.025729001 -5.6377659 0.94211698
-0.012379 -3.6298759 0.52032602
-0.0084159998 -3.7310791 0.448939
-0.003726 -3.37974 0.33189899
0.000199 -3.925396 0.30204901
0.00028199999 -5.5695362 0.428561
0.0041700001 -3.459455 0.195898
0.0090960003 -3.856292 0.14426
0.013601 -3.8712571 0.074611999
0.017066 -3.65695 0.0087649999
0.022159999 -3.8076069 -0.050016001
0.026354 -3.778477 -0.103998
0.029894 -3.67788 -0.14853799
0.033523001 -3.61198 -0.18752401
0.037558999 -3.598933 -0.222506
0.052722 -4.1374331 -0.318391
0.065016001 -3.7452281 -0.32655299
0.085212 -3.8775189 -0.27226701
0.087865002 -3.6180589 -0.187887
0.104092 -3.601486 0.0086359996
0.104176 -3.465791 0.066826999
0.107712 -3.4509039 0.12915701
0.11608 -3.5863731 0.203191
0.118522 -3.535557 0.272205
0.12947799 -3.733784 0.366887
0.129447 -3.612607 0.434962
0.14116099 -3.816354 0.54742801
0.19776399 -5.3466549 0.76693797
0.206543 -5.4149241 0.905527
0.141774 -3.6076441 0.69121999
0.25118601 -6.2090621 1.344849
0.233455 -5.459341 1.463812
2.4776521 -26.381269 7.7945032
0.54328197 -5.4460778 0.91459203
0.53724903 -5.3232689 0.76693797
0.513574 -5.0303788 0.60842103
0.800219 -7.7493181 0.76504898
0.37727299 -3.6126161 0.279493
0.502271 -4.8095498 0.37209499
0.58723402 -5.4998698 0.20691299
0.56450701 -5.2296438 0.101378
0.53464699 -4.8999038 0.011814
0.84248298 -7.7211499 0.018617
