# .PCD v0.7 - Point Cloud Data file format
VERSION 0.7
FIELDS x y z
SIZE 4 4 4
TYPE F F F
COUNT 1 1 1
WIDTH 1541
HEIGHT 1
VIEWPOINT 0 0 0 1 0 0 0
POINTS 1541
DATA ascii
-0.177195 -3.908716 -0.20313001
-0.229928 -5.0719538 -0.26358101
-0.157692 -3.5696969 -0.220902
-0.166476 -3.9767511 -0.30626899
-0.145234 -3.9004929 -0.340276
-0.115942 -3.555356 -0.249718
-0.111055 -3.66538 -0.190376
-0.1033 -3.5446041 -0.14321101
-0.112116 -4.0059142 -0.110298
-0.106659 -3.9752259 -0.052235998
-0.10308 -4.0146651 0.0096260002
-0.093741 -3.8231411 0.073706999
-0.13407999 -5.4683409 0.105425
-0.083283 -3.564533 0.13338099
-0.078942001 -3.5544281 0.201326
-0.082875997 -3.9364891 0.30296999
-0.078879997 -3.964143 0.389366
-0.072880998 -3.8882661 0.46793401
-0.060888998 -3.4620709 0.496346
-0.089367002 -5.0812669 0.72848499
-0.051389001 -3.1272099 0.52264798
-0.054104999 -3.5412641 0.67805701
-0.044757999 -3.169306 0.68596202
-0.080504 -5.7004509 1.233801
-0.108272 -7.6667309 1.659381
-0.077055998 -5.9420381 1.4377919
-0.067068003 -5.6754751 1.520481
-0.090443999 -7.653585 2.0504229
-0.081391998 -7.6341062 2.2457881
0.218592 -5.4348211 1.4570839
0.152476 -3.584697 0.77649301
0.159191 -3.643292 0.69817698
0.236707 -5.4173479 1.038146
0.23926701 -5.3345919 0.89234102
0.169563 -3.6853909 0.52884001
0.17401899 -3.6892581 0.444399
0.20191 -4.1780028 0.41076899
0.174546 -3.5272441 0.27174401
0.19438501 -3.6701729 0.070836
0.195905 -3.6196921 0.0086890003
0.29536101 -3.762414 0.0090460004
0.60630602 -7.6104689 0.147144
0.47494301 -5.7113452 0.44099
0.41701701 -4.9455752 0.487391
0.33462101 -3.914386 0.47271201
0.66269201 -7.6478758 1.10039
0.52640402 -5.9944911 1.005573
2.4790559 -26.475567 7.8221588
0.61158198 -5.6812992 3.399708
1.073964 -9.4624701 6.4269261
0.72017097 -5.5937648 3.4663451
0.72932601 -5.6136608 3.368006
0.77800602 -5.1882458 0.876683
0.76389998 -5.0543489 0.73274201
1.153542 -7.6324191 1.106491
0.73840702 -4.8477159 0.59002399
1.161358 -7.6244292 0.92798299
1.165414 -7.5921249 0.75429899
1.169497 -7.5604668 0.58867699
1.176453 -7.547626 0.43255901
1.18221 -7.5274 0.285043
0.78805 -4.9800992 0.097176999
1.203124 -7.5466762 0.018316999
1.2119 -7.545639 -0.100387
1.223305 -7.5607762 -0.210802
1.229574 -7.5442271 -0.30869699
1.239735 -7.5516081 -0.39728999
1.250049 -7.5597162 -0.47370499
1.266191 -7.5489202 -0.58898401
1.360456 -7.6751761 -0.547194
1.380263 -7.683496 -0.405274
1.393967 -7.708591 -0.31636399
1.407064 -7.7300072 -0.21625
1.4193031 -7.7463698 -0.103448
1.4318171 -7.7640562 0.018923
1.436703 -7.7403321 0.15173
1.449674 -7.7602339 0.29532301
1.4658099 -7.7966981 0.44923699
1.4730231 -7.7854528 0.60969901
1.486914 -7.8094659 0.78068602
1.5024559 -7.841774 0.960715
4.8433342 -23.64838 9.6724463
4.8749781 -23.663767 10.321397
1.390469 -6.7102742 3.1063471
1.327987 -6.2628288 3.532531
1.585654 -7.3937039 4.4990258
1.809034 -8.2038031 5.6695008
1.397404 -6.0060802 4.0871348
2.142988 -9.0680389 5.726799
1.365387 -5.718554 3.3747139
1.429841 -5.9579802 3.3808329
5.8059559 -23.591013 10.378753
5.935781 -23.880594 9.203352
5.994513 -23.880871 7.8964758
5.9491458 -23.584711 7.155026
1.995308 -7.68504 1.138134
2.0169511 -7.7316141 0.96143198
2.02669 -7.732357 0.78498697
2.0447171 -7.7645488 0.61783099
2.0564749 -7.7726722 0.455286
2.065263 -7.7695732 0.30074301
2.0925989 -7.8358879 0.156316
2.1056631 -7.8484192 0.019477
2.1155939 -7.8491879 -0.106784
2.1331961 -7.8782129 -0.224641
2.1473949 -7.894484 -0.33040601
2.1656351 -7.9253778 -0.42653099
2.1717329 -7.9116821 -0.50721002
2.1938441 -7.9204898 -0.63240802
2.2364299 -7.9314718 -0.71841699
2.2725151 -7.919107 -0.57835698
2.2892039 -7.9082489 -0.427412
2.3020699 -7.9184322 -0.333029
2.320631 -7.9480081 -0.227888
2.3364141 -7.9677911 -0.109069
2.348356 -7.9743838 0.019925
2.349493 -7.9443178 0.159669
2.366564 -7.9681749 0.310949
2.373913 -7.9592142 0.47032499
2.3841929 -7.9600482 0.63938999
2.396138 -7.9664302 0.81694502
2.4030471 -7.9560652 1.000018
7.2981238 -23.667706 5.992445
7.5764618 -24.075464 9.4398108
2.3451071 -7.2464571 4.20261
2.7799449 -8.5901222 4.981873
2.3393281 -7.171896 4.4882889
2.14886 -6.5622101 4.243916
2.5274999 -7.6884289 5.1185522
2.5098901 -7.6051669 5.1949978
3.348834 -9.6567574 6.6300712
2.1599619 -6.1593609 3.8834081
2.5572691 -7.265408 4.4211292
8.4033775 -23.786692 13.919968
3.0854459 -8.7016449 4.8781919
3.0999651 -8.7105551 4.6606612
3.852519 -10.785646 5.4856658
3.11221 -8.40481 1.939646
3.1184199 -8.3917255 1.713946
3.1141491 -8.350646 1.489323
3.1225829 -8.3437767 1.277048
3.1353159 -8.3483391 1.07301
3.140204 -8.3320656 0.874412
3.1556611 -8.3438272 0.68641901
3.1685369 -8.3486423 0.50566
3.171097 -8.3263502 0.33330399
3.1827281 -8.3278809 0.171828
3.188643 -8.3145132 0.021344
3.1958339 -8.3045282 -0.116884
3.2048719 -8.2993279 -0.244863
3.211982 -8.2892027 -0.359016
3.231075 -8.3099394 -0.462874
3.2348859 -8.2912998 -0.55021799
3.2645099 -8.3104143 -0.687033
3.291712 -8.2670116 -0.775738
3.334728 -8.2635803 -0.62555498
3.3605831 -8.2724295 -0.463548
3.3783491 -8.2886581 -0.361478
3.3935721 -8.2985382 -0.24676199
3.403795 -8.2961025 -0.11779
3.4193809 -8.3067236 0.021531001
3.433332 -8.3132544 0.173351
3.447679 -8.3207073 0.33693001
3.471046 -8.3497839 0.51204902
3.4829221 -8.3510561 0.69624001
3.4999609 -8.3646698 0.89043999
3.5051031 -8.3498287 1.089615
3.5300429 -8.3820314 1.3037241
3.5404451 -8.3796263 1.5201451
3.5596859 -8.3980637 1.746289
3.570364 -8.396183 1.974547
3.7927561 -8.7501802 3.566859
10.418606 -23.960447 10.469154
4.0761828 -9.3153276 4.6091518
10.666585 -24.072397 14.528209
4.418817 -9.9413509 6.2446399
4.4988871 -10.089994 6.5729041
4.2580452 -9.4907608 6.5788569
3.941375 -8.7039204 6.4481831
3.9698589 -8.6599226 6.6658149
4.048614 -8.7249174 6.5856051
4.0605502 -8.6978607 6.362185
4.0881562 -8.7306395 6.25348
4.1228142 -8.7782078 6.1336031
4.1382599 -8.7846432 5.9681869
4.16189 -8.8083687 5.7962232
3.913965 -8.258913 5.2460151
4.2040401 -8.8710041 5.6348119
4.0000591 -8.4153862 5.1413012
4.0929761 -8.5852461 5.0253501
4.1340971 -8.6457119 4.830811
4.2050009 -8.7679281 4.657568
4.2844172 -8.9070883 4.48034
4.3526378 -9.0221548 4.279335
4.3944178 -9.0819063 4.0426769
4.4397731 -9.1486406 3.803319
4.4892068 -9.2232981 3.5631001
4.515152 -9.2494068 3.3009629
4.4411802 -9.0712481 2.971055
4.4886341 -9.1413546 2.7281189
4.513905 -9.1660137 2.4720421
4.1285958 -8.3591938 2.0176971
4.5380359 -9.1881905 2.2177961
4.1393661 -8.3566151 1.7854
4.5495968 -9.1847963 1.962342
4.539165 -9.1371546 1.704909
4.5634942 -9.1595278 1.466903
4.5575848 -9.1211891 1.226877
4.5531921 -9.0861053 0.998043
4.547956 -9.0495138 0.77932799
4.5412278 -9.010107 0.57135499
4.5557499 -9.0129709 0.37778899
4.566721 -9.00875 0.194663
4.572535 -8.9944124 0.024185
4.5952678 -9.0133114 -0.13289499
4.4023061 -8.6101761 -0.26615801
4.6063709 -8.9836473 -0.407722
4.5887318 -8.9238138 -0.52094102
4.289988 -8.3191366 -0.578664
4.4038682 -8.4917021 -0.736058
4.5319691 -8.6406107 -0.85060197
4.5335722 -8.5472813 -0.679196
4.5029502 -8.4422903 -0.49672899
4.6206679 -8.6389179 -0.39565599
4.679451 -8.7245464 -0.272486
4.9372931 -9.0537901 0.79352099
4.9424491 -9.0383635 1.011628
4.9382191 -9.0058718 1.235837
4.959661 -9.0201826 1.475558
4.9760342 -9.0252237 1.7222151
5.0034461 -9.0501738 1.979829
5.0297561 -9.0729351 2.2450819
5.0519738 -9.088212 2.5157831
5.0804801 -9.1147842 2.795397
5.3469481 -8.6722918 4.6182351
5.187819 -8.3924093 4.2149081
5.3716178 -8.6672955 4.0858231
5.6286769 -9.0352583 3.6976299
6.328815 -9.8765688 0.90261799
9.2526159 -14.402595 0.96937001
6.2277861 -9.6449471 0.221274
5.6620102 -8.70224 -0.28574699
5.6057358 -8.5939732 -0.41438001
5.575532 -8.5260849 -0.52887303
5.8602672 -8.9388647 -0.66079301
5.9850721 -9.0833044 -0.83702201
5.8901448 -8.849719 -0.92676902
6.0051789 -8.9325809 -0.75559598
5.7479858 -8.5073795 -0.53302097
5.8471799 -8.6326361 -0.42107901
10.012768 -14.491618 1.729766
6.3848572 -8.9938898 4.1252542
6.2600231 -8.7964268 4.3260999
6.6493802 -9.2299652 6.010612
5.0147781 -6.9102159 5.0798759
5.0549579 -6.948648 5.2812009
5.1336522 -7.03968 5.510354
5.1268301 -7.0132351 5.6352611
6.111455 -8.3196573 6.9667449
5.105556 -6.8170209 5.831399
4.9605041 -6.5756102 5.3430219
5.8634148 -7.735167 5.965569
6.5966849 -8.5370522 4.6089382
11.624202 -14.549645 1.432988
7.4739761 -9.2446537 -0.156156
7.5271831 -9.2884254 -0.329052
7.0482922 -8.6769295 -0.451464
7.0463872 -8.6540956 -0.57937098
6.9969149 -8.5730228 -0.68411702
7.2686291 -8.8639727 -0.88205701
7.2571521 -8.76682 -0.99216598
7.2926612 -8.7271109 -0.798383
7.1887159 -8.5623312 -0.58040798
7.7132759 -9.1655579 -0.48378599
7.8221159 -9.2513037 -0.15913799
6.7900939 -7.5220318 6.4088812
6.4816651 -6.8861961 5.4282169
7.653316 -8.0000162 4.4361959
10.668386 -11.100078 5.3477669
9.6054258 -9.6304464 -0.17866901
9.6229582 -9.6256838 -0.37461299
9.5591669 -9.5397654 -0.54540497
8.9855261 -8.9465532 -0.658279
8.8003578 -8.7418985 -0.76686299
8.8645391 -8.7649775 -0.95923799
9.1253538 -8.9396296 -1.113669
9.0564356 -8.7902842 -0.88598698
9.4007359 -9.0822668 -0.67860299
9.873971 -9.4953747 -0.37703401
14.382941 -13.703762 0.74316698
14.826857 -14.028771 2.0044911
8.7981863 -7.4952712 5.2391739
11.897952 -10.08848 6.2505469
13.736776 -11.430382 3.4213109
11.863151 -9.6180162 -0.42033899
12.623454 -10.210214 -0.65568799
10.981916 -8.8404474 -0.871575
11.227434 -8.9952936 -1.107002
11.221397 -8.9053307 -1.248893
11.924034 -8.1599474 6.1724882
14.230302 -8.9589901 -1.1804529
13.476295 -7.1484098 3.690897
8.8567257 -3.9726319 5.775259
8.937026 -3.9962189 6.0168829
8.8185911 -3.9310069 6.1063428
8.7890291 -3.9056129 6.2387862
7.4278688 -3.28016 5.4798651
7.190455 -3.135551 5.4888201
8.3838577 -3.6559601 6.3998008
7.4626722 -3.213165 5.5630479
8.5693169 -3.6661179 6.1776619
8.7125998 -3.715481 6.144094
8.7479296 -3.718575 6.0117331
8.8085079 -3.7322659 5.8796959
8.9238501 -3.7689481 5.7634988
11.41102 -3.8503261 5.1447878
11.313934 -3.802932 5.4105101
8.7642689 -2.9345729 4.4268918
8.6157045 -2.873702 4.5782871
11.670579 -3.8775699 6.4978709
8.4642782 -2.8013411 4.9195509
8.4056072 -2.7710919 5.0802422
8.6622372 -2.844527 5.4245
8.5386744 -2.7929649 5.5215421
8.6569786 -2.820533 5.7583709
7.9526958 -2.5808401 5.4235649
7.8427982 -2.525048 5.5604181
8.1435003 -2.580127 5.9772758
7.8703108 -2.453371 5.6444011
7.9905119 -2.47047 5.5434332
8.0116291 -2.466805 5.4377141
8.504447 -2.6077321 5.6258101
8.730711 -2.666003 5.6105561
8.4063826 -2.556293 5.2276449
8.2374887 -2.494483 4.9403539
11.905993 -3.590266 6.86167
8.4096947 -2.5252981 4.6394682
8.7136145 -2.6055131 4.584589
8.743227 -2.6033051 4.3694401
11.315229 -3.354815 5.3498201
11.586443 -3.420567 5.1608949
12.547292 -3.6883881 5.2403421
12.876115 -3.7688019 5.0178442
15.165452 -4.3242922 3.4128881
14.751265 -3.4737599 2.901392
12.899989 -2.990521 3.5473571
14.119546 -3.2387309 4.6459022
9.2336206 -2.1067331 3.289772
9.1413879 -2.0745389 3.5059049
9.1471052 -2.064671 3.757395
13.084865 -2.9375539 5.7289591
9.4588537 -2.111995 4.3932271
10.719333 -2.380373 5.2593112
11.512375 -2.5424731 5.9430852
9.9035807 -2.1751339 5.3575082
9.754034 -2.130419 5.5089512
7.3115568 -1.5880671 4.294683
7.2477431 -1.565395 4.411592
7.0360098 -1.511126 4.4229932
6.9328432 -1.480561 4.4835439
7.2939692 -1.548828 4.8369098
6.9886422 -1.467062 4.8192158
6.4162841 -1.315847 4.5829992
7.7599001 -1.591395 5.5427108
6.4927392 -1.300162 4.5337119
7.0509238 -1.394925 4.763905
7.006979 -1.377789 4.632288
6.9417982 -1.356613 4.4733882
7.1422229 -1.3871731 4.4716892
6.8163838 -1.3156869 4.1303711
7.4094009 -1.42124 4.3305259
9.8709669 -1.893407 5.7692232
9.8770704 -1.882689 5.5480828
7.1836662 -1.352023 3.6847761
9.3323612 -1.745221 4.5474138
7.029428 -1.306121 3.2409389
9.33531 -1.723359 4.0554099
9.2973356 -1.705202 3.7875221
9.3943081 -1.711729 3.571413
10.034596 -1.244506 2.7087121
12.645859 -1.493919 5.1023502
7.2585969 -0.848961 3.121994
9.953969 -1.16421 4.2813001
6.6562519 -0.770688 3.0374
6.9611769 -0.79780197 3.3560231
6.7556911 -0.766316 3.4273009
7.0564251 -0.79214197 3.7518439
7.0791168 -0.78636599 3.9301341
7.7343822 -0.859155 4.2939191
7.043273 -0.77411699 4.0671802
6.8075399 -0.74020898 4.0741272
6.987463 -0.75157499 4.3193169
7.1645288 -0.76221597 4.5567732
6.7272282 -0.66048098 4.7297649
9.0328655 -0.84455001 6.2116089
8.2312174 -0.75033098 5.4782419
8.4451551 -0.75995898 5.500298
7.242372 -0.64325798 4.598465
7.2580829 -0.636159 4.477973
7.0157032 -0.606718 4.189683
6.9537511 -0.59323698 4.0059481
7.170712 -0.59498602 3.801831
6.6873798 -0.54706299 3.382288
7.2205029 -0.58224702 3.4696331
7.2434859 -0.575647 3.2937851
11.238079 -0.87997001 4.815578
11.890956 -0.90334898 4.4601498
13.176737 -0.985641 4.5897999
12.598775 -0.91303003 3.7157941
13.000441 -0.92696398 3.4914639
7.1971679 -0.16998801 1.203029
6.9342809 -0.155733 1.327909
7.0911918 -0.15101901 1.535006
7.0880079 -0.142728 1.7152849
7.0056758 -0.133007 1.877053
6.935029 -0.123613 2.0403421
12.356675 -0.177192 4.621994
11.622594 -0.153154 4.6575031
11.243159 -0.135102 4.8034
10.980811 -0.119202 4.9778352
7.42487 -0.071970001 3.5564599
7.0005698 -0.059730999 3.5290301
7.017446 -0.051729001 3.7079301
6.4255919 -0.039896999 3.5455749
6.6354828 -0.033498 3.8088119
6.3775272 -0.024783 3.79444
8.2767773 -0.032164 4.924437
8.4377193 -0.022995001 5.1859031
8.5419874 -0.013364 5.4023819
8.5631733 -0.0034439999 5.554719
8.9142513 0.058525998 6.237556
8.5001736 0.124907 5.5144472
6.278842 0.106855 3.859581
7.3001871 0.124236 4.4873981
6.568995 0.11942 3.908973
6.537209 0.126432 3.753056
6.8042769 0.13950901 3.7552459
6.6464949 0.14399301 3.5126531
7.2480731 0.165454 3.6546171
7.7476692 0.185856 3.711972
7.9742231 0.200553 3.6158149
6.8946271 0.18142 2.946389
7.8920498 0.207665 3.372633
6.9101038 0.189853 2.7698791
11.758404 0.32305899 4.713295
6.8177719 0.195236 2.5509591
6.9097691 0.205909 2.401212
6.871788 0.212761 2.2049179
6.756124 0.21702901 1.988417
6.8553529 0.228193 1.837463
6.6694918 0.229757 1.614635
10.186857 0.350927 2.4661629
6.4944401 0.23127399 1.406402
7.461102 0.28305399 1.247695
12.140524 0.48882401 1.461979
12.299237 0.50951499 1.2088521
12.242655 0.535662 0.69392598
11.15496 0.760966 -0.451545
11.323478 0.785667 -0.31240699
11.60059 0.87260902 0.65876001
8.7326679 0.66708899 0.67391402
8.628458 0.66920298 0.84988099
7.3837309 0.58128798 0.89118803
9.6156769 0.75699902 1.160575
6.8528919 0.54751199 0.98545599
6.875792 0.55737501 1.152758
6.7971911 0.558945 1.305721
6.5588608 0.547023 1.424381
6.6167812 0.55958802 1.606639
6.5184112 0.55882198 1.752589
6.7743721 0.58868802 2.0002689
6.7385402 0.59346598 2.169492
6.749043 0.60228598 2.3536341
6.815249 0.61616898 2.5593669
6.9356689 0.63518399 2.7907081
7.6605072 0.71053398 3.2865989
7.0086899 0.65828198 3.1909831
7.0803218 0.67331302 3.406565
6.9686079 0.67085201 3.5290301
7.0373578 0.68571597 3.73596
6.951479 0.68550497 3.854285
7.8777041 0.77684301 4.367835
8.1380453 0.81205499 4.6944318
7.5783 0.76509798 4.5317502
7.2176919 0.73715502 4.4591231
7.3929629 0.76372802 4.7005582
7.099154 0.74171603 4.6301112
6.7247248 0.71838099 4.5641298
6.8587942 0.76494998 4.8289461
6.575717 0.76431602 4.5325818
6.7981982 0.80618501 4.537394
6.4449072 0.77187598 4.2105279
7.4884539 0.90567499 4.7705798
7.5137868 0.91760099 4.6523371
7.3813128 0.91012001 4.4248862
8.126152 1.011536 4.7004061
7.1895719 0.90343797 3.9982531
8.6950741 1.0926189 4.8354902
6.923264 0.87813801 3.6873751
7.411819 0.948861 3.7667
7.297822 0.94287801 3.5244939
7.3552632 0.95898002 3.3623199
7.1872859 0.94557703 3.0968511
7.035717 0.933945 2.8438959
7.1287642 0.95471799 2.690033
7.1791739 0.96996498 2.5163839
7.1489358 0.97433001 2.313942
6.6643119 0.916161 1.978822
6.7262168 0.93263799 1.819091
6.5042171 0.90955198 1.589002
6.5394058 0.92221302 1.4292459
6.5441098 0.93063498 1.265481
6.7679682 0.97048599 1.14254
6.8010459 0.98328698 0.98503
7.0383158 1.025944 0.85582697
7.3424459 1.078981 0.72878999
8.6586351 1.282666 0.67352998
7.1066928 1.061208 0.40689099
6.6405082 0.99947602 0.25121099
6.4756942 0.98236799 0.12623601
6.684309 1.0219541 0.016208
6.6855259 1.0300829 -0.088854998
6.8789401 1.0680701 -0.191599
6.774004 1.059831 -0.27689901
6.8520379 1.080189 -0.36011699
7.2234831 1.147352 -0.45217001
7.0656118 1.139099 -0.55070102
6.5855742 1.093124 -0.58197701
6.9677439 1.189839 -0.496214
6.1461411 1.064239 -0.323825
6.250536 1.089789 -0.25623801
5.837491 1.024758 -0.163123
6.237771 1.102501 -0.083206996
6.340384 1.1282279 0.015436
6.5465479 1.172765 0.12818199
6.8250518 1.230835 0.25943601
6.7280769 1.2214119 0.38721699
6.7891698 1.2406549 0.53105998
6.2241402 1.144869 0.62147999
6.24506 1.156213 0.76419997
6.527761 1.216401 0.95182699
6.4718628 1.2137589 1.100345
6.2781148 1.184968 1.223173
6.1472292 1.167665 1.354156
6.3590608 1.215552 1.566426
6.1864691 1.18994 1.68764
6.240859 1.2079149 1.86989
6.1874919 1.205049 2.021683
6.4491639 1.263782 2.282759
6.8406062 1.348736 2.6077099
6.7213998 1.333351 2.745703
6.708612 1.338909 2.922425
6.5383449 1.31282 3.0229499
6.7380748 1.361073 3.2925229
6.4318228 1.306983 3.308466
6.8538041 1.401018 3.6962509
6.8874998 1.416248 3.87989
6.9770341 1.443101 4.089582
7.1981521 1.506281 4.5198622
7.0653772 1.487059 4.5663939
6.7392859 1.426608 4.468482
6.7055011 1.435729 4.6279011
6.960084 1.524091 4.9854589
6.8063488 1.523589 4.7755098
7.4444671 1.6846 5.0589209
7.2838898 1.657153 4.8456168
6.7755861 1.549783 4.3958831
8.4913177 1.952612 5.355031
6.8592672 1.5857 4.1886611
6.8172798 1.584332 4.0173979
6.4968028 1.517815 3.68133
6.7284751 1.5801769 3.65187
6.8152709 1.608922 3.5299311
6.4751902 1.536574 3.1875529
6.135139 1.4634041 2.859045
6.4011011 1.534709 2.8120339
6.432456 1.550124 2.6512289
6.3248448 1.531961 2.4339559
6.1659722 1.5010689 2.2043381
6.1259022 1.498849 2.0225999
6.0591331 1.4899679 1.835461
6.1411872 1.517717 1.694627
6.155952 1.52895 1.5346791
6.0102 1.500159 1.340619
6.0607548 1.520263 1.1962841
6.3467131 1.599824 1.093752
6.3015308 1.596217 0.93181998
6.3261871 1.610289 0.78546399
6.1996312 1.58574 0.62841898
6.4158969 1.648993 0.50973201
5.6299658 1.453974 0.329267
5.7407169 1.489686 0.221866
5.4845829 1.4300261 0.10924
5.3097992 1.3910379 0.013156
5.348351 1.407774 -0.072646998
5.3538461 1.415876 -0.15242
5.450295 1.448154 -0.22775
6.2489119 1.6603481 -0.261121
5.9223628 1.580945 -0.31822601
5.7523489 1.542725 -0.36818999
5.9958682 1.622964 -0.47796899
5.6480918 1.5570281 -0.51076102
5.1402268 1.442744 -0.374787
5.214643 1.4767081 -0.28136399
5.3982959 1.535486 -0.22666
5.7439232 1.641005 -0.164416
5.933032 1.702493 -0.081078999
5.4770479 1.578531 0.013662
5.4425159 1.5754319 0.109202
6.3206959 1.8375911 0.24623901
5.7579608 1.68124 0.33967
5.5415721 1.6250499 0.44436601
6.128993 1.805038 0.627442
6.2398558 1.845562 0.78295499
6.068253 1.80248 0.90741402
5.8345232 1.7404259 1.01744
5.9819498 1.791967 1.195532
5.9797211 1.798876 1.351406
6.3371339 1.914421 1.601701
5.975903 1.8128 1.672891
6.0441012 1.841151 1.858602
5.9479008 1.819405 1.994809
6.1792078 1.898005 2.245353
6.0745611 1.8735811 2.3775561
5.9825869 1.852831 2.509517
5.9369788 1.846261 2.6560709
6.8194919 2.120702 3.0508871
6.470057 2.0202751 3.0724931
6.5653601 2.0584109 3.295547
6.5099611 2.0493441 3.4403551
6.4940672 2.052629 3.5986121
6.5286059 2.0718949 3.779402
8.6097021 2.7433479 5.1867752
7.7342839 2.4743159 4.8313789
7.710691 2.4766381 4.9775028
7.4476371 2.401686 4.94911
7.6415992 2.4740429 5.2102361
5.68753 1.885276 4.1925778
5.775104 1.94412 4.1721449
7.5659699 2.566577 5.2953758
7.2491822 2.4684999 4.9675188
7.7965412 2.6649909 5.2110238
8.6672993 2.9963939 5.263937
6.6669841 2.313539 3.8938999
6.5553222 2.283319 3.6677539
6.474545 2.2636249 3.4574599
6.1042709 2.1421239 3.0985651
5.6603699 1.993732 2.720325
5.8402081 2.0647089 2.64625
5.9242301 2.1021531 2.518816
5.9672999 2.125237 2.369148
6.003325 2.1459341 2.21451
5.924479 2.1255081 2.01863
6.1351209 2.209121 1.918148
5.8249078 2.1050711 1.6591769
5.8450079 2.1200089 1.504343
5.9384809 2.161715 1.367694
5.6513891 2.064651 1.151907
5.55439 2.0365241 0.98859698
6.4127841 2.3597031 0.979496
5.3981681 1.9934829 0.69240302
5.2501111 1.945735 0.549842
5.9948788 2.22967 0.492163
5.8806572 2.194972 0.355443
5.3378329 1.999423 0.213231
5.413116 2.0348001 0.111456
5.3658929 2.0241599 0.013746
5.3687038 2.032342 -0.075405002
5.4264441 2.061414 -0.159766
5.2554932 2.0034561 -0.227144
5.7745738 2.2090161 -0.32097399
5.5535169 2.131855 -0.36775801
5.3037529 2.0501161 -0.437538
5.3110909 2.081367 -0.49729899
5.3797941 2.137167 -0.406369
5.5412092 2.2162089 -0.309827
5.323658 2.1363699 -0.231664
5.160296 2.0777709 -0.153108
5.3707671 2.1697741 -0.076087996
5.3538651 2.170177 0.013847
5.5059528 2.2392809 0.114559
5.2840199 2.1561711 0.21349201
5.710093 2.3377681 0.34939399
4.9581571 2.0366499 0.41244999
5.5833778 2.301048 0.59303999
5.6141829 2.3213711 0.73098898
5.813293 2.4116149 0.90216398
5.5910921 2.3270459 1.012001
5.5675292 2.324825 1.155104
5.684629 2.381485 1.33385
5.6781421 2.386519 1.4902329
5.674757 2.3934231 1.649861
6.553205 2.7639229 1.9052581
5.750802 2.433363 1.8368731
5.6491718 2.3981049 1.96824
5.6074471 2.388078 2.1170571
5.6829519 2.42803 2.311347
5.8639369 2.5134189 2.5563819
5.6095419 2.412091 2.608536
6.3073888 2.7208431 3.1137791
6.310421 2.730855 3.2933869
8.6571083 3.758327 4.7574391
9.004508 3.9340301 5.4219899
7.9831028 3.4988229 5.0030799
5.6698551 2.492836 3.685019
5.5828071 2.462301 3.750145
5.5300159 2.4466889 3.824482
5.5226259 2.4510989 3.9193771
6.8358512 3.0529599 5.052485
6.7183061 3.037981 5.1591702
6.6321611 3.036206 4.9941449
5.5373068 2.5505569 4.0407281
7.438343 3.4261999 5.4279671
5.5017519 2.541925 3.93135
5.4995971 2.5486801 3.833569
5.5238409 2.567719 3.7438619
5.5932279 2.607872 3.671725
5.723979 2.676928 3.6271081
8.2717657 3.9036419 4.6106958
8.0922422 3.8304119 4.288228
9.4248953 4.4746132 4.7292938
5.7363501 2.731595 2.7142129
7.0862699 3.38451 3.1466601
5.8825779 2.8179979 2.4395609
5.7490129 2.7622349 2.2154939
5.7876959 2.7890949 2.060468
5.5953979 2.7044339 1.828124
5.9626818 2.8905079 1.775102
5.6625171 2.7531199 1.523391
5.324532 2.596437 1.282028
5.2514138 2.568341 1.119189
11.830679 5.7861028 2.5213721
5.7267132 2.809041 1.0658979
5.5806651 2.7454431 0.89152199
5.3421588 2.635824 0.71677297
4.8166761 2.383507 0.52775502
4.8558512 2.4099131 0.41712999
4.868546 2.42327 0.307953
4.6474891 2.3199761 0.194315
5.0101519 2.508292 0.107988
4.8463979 2.4333489 0.012998
4.8985372 2.466651 -0.072043002
4.7603922 2.4040279 -0.14678
5.5256772 2.798557 -0.25014499
6.8119421 3.4500029 -0.30837399
4.727942 2.401432 -0.275298
5.0906892 2.593128 -0.353196
4.784739 2.451287 -0.41367799
5.8762131 3.010464 -0.508044
5.6909871 2.9490299 -0.558788
4.8436308 2.538542 -0.38389
5.1620312 2.7207201 -0.30293199
6.4430418 3.3958941 -0.37810701
4.6792822 2.4732239 -0.21374699
4.764122 2.5251451 -0.148404
4.9983201 2.6567249 -0.074354999
4.7476759 2.5305741 0.012895
4.572803 2.4441929 0.099932998
5.0819802 2.7239399 0.215698
4.779634 2.5690291 0.30727401
4.8053031 2.590029 0.42004499
4.5404081 2.4540579 0.50683999
4.7720108 2.5863991 0.65310001
4.6295581 2.516156 0.75530303
4.9520941 2.698905 0.94244701
5.5520601 3.0342519 1.211327
7.5541449 4.1284099 1.648134
5.6500421 3.096334 1.394345
5.547852 3.0487111 1.5316221
6.011714 3.312628 1.838757
5.5159769 3.0478139 1.8538049
6.0503621 3.3522699 2.2183549
5.7703481 3.2058849 2.2929311
5.7693291 3.214088 2.4700379
5.6005559 3.1285999 2.5705161
11.105544 6.2207379 5.4378548
8.6557693 4.861712 4.5001578
7.7325149 4.3549762 4.2506461
5.7087069 3.2238939 3.3048649
5.586452 3.1634109 3.392123
5.547441 3.149842 3.5199699
7.8515148 4.4822478 5.378993
7.984581 4.5828218 5.8225131
7.729188 4.472105 6.0263972
7.9376478 4.7415709 5.8476362
5.543045 3.3461909 3.572629
5.5368981 3.3512549 3.4196861
5.5643711 3.3767259 3.281008
5.6861229 3.4596479 3.1879849
5.588295 3.4268579 2.6266799
10.419157 6.422595 4.2515039
5.1193032 3.163856 1.930066
5.36268 3.3228769 1.85578
7.2121978 4.4805031 2.2745111
6.23875 3.885802 1.778309
5.1216331 3.1982639 1.306776
5.4326868 3.401288 1.2271219
5.2395482 3.2888401 1.033758
4.769536 3.001538 0.80780399
4.672802 2.9482501 0.66480702
4.5510168 2.8788021 0.52882999
4.5594478 2.8915501 0.41544199
4.4569292 2.8338029 0.299077
5.0121212 3.1949811 0.222352
4.8576488 3.1044581 0.111109
4.5981221 2.946121 0.013089
4.556457 2.9268911 -0.071137004
4.539115 2.923209 -0.148596
4.9081249 3.1689191 -0.23594099
4.7861481 3.098042 -0.29598501
4.6023622 2.986675 -0.33918899
5.4881721 3.561516 -0.40447301
4.9973192 3.2594919 -0.45909601
4.512116 2.9729919 -0.471071
5.2599759 3.46575 -0.54914802
4.9609699 3.3018839 -0.41834399
4.692348 3.13885 -0.29308099
4.4563422 2.988471 -0.216693
4.3287182 2.9101751 -0.14356101
4.5239391 3.049062 -0.071662001
4.4056001 2.9767461 0.012744
4.6240072 3.1321509 0.107641
4.3236871 2.9360521 0.195511
4.4682412 3.0417969 0.30608699
4.7880931 3.2676899 0.44605401
4.4625249 3.0531001 0.53097999
4.6669512 3.2009211 0.68093503
4.7260132 3.2495129 0.82213497
5.1827731 3.572439 1.051888
5.0307231 3.476253 1.170711
5.162858 3.576432 1.359233
6.1503811 4.2710848 1.811702
9.6463223 6.7152791 3.1486061
5.2725878 3.679601 1.891338
5.6670222 3.9941461 2.7780621
5.53825 3.9130161 2.8968899
5.531251 3.9177051 3.0724931
7.4801002 5.324182 4.6282511
10.216305 7.3255138 7.2158852
5.496459 3.9605539 4.1638031
4.9979949 3.6367631 4.171433
4.905128 3.6041629 4.2590809
4.901639 3.636776 4.1789241
4.9517379 3.691813 4.0937648
4.9735408 3.7170589 4.0276742
5.7295871 4.313293 4.266891
5.4662809 4.1750598 3.117907
5.450707 4.1732049 2.9326389
5.4617548 4.1917281 2.7587211
5.4794192 4.2154002 2.58564
5.5893512 4.3103242 2.4517429
9.549695 7.399826 3.553808
11.036185 8.5722189 3.7434981
4.7387352 3.68958 1.453077
5.863791 4.5655489 1.798063
4.7585282 3.713871 1.306352
4.7829161 3.741859 1.162625
4.7080088 3.6920731 0.99980402
4.51057 3.545702 0.82241899
4.427887 3.4890411 0.67830598
4.5257869 3.5747049 0.56635898
4.2970452 3.4021399 0.42173299
4.1987901 3.332294 0.303543
4.1658578 3.3140459 0.199137
4.426012 3.5294139 0.109105
4.0290341 3.220511 0.012363
4.5181279 3.62006 -0.076049
5.7089171 4.5741549 -0.096092001
4.3286648 3.4765251 -0.152806
4.2799339 3.4455669 -0.221898
4.2037158 3.392257 -0.280431
4.364254 3.530189 -0.34702599
5.0091138 4.0518088 -0.39830199
4.0598011 3.299542 -0.40255299
4.139637 3.3964851 -0.46681499
4.1823049 3.464119 -0.38122901
4.1881032 3.485357 -0.282868
4.0811601 3.4043839 -0.214635
4.06288 3.397141 -0.145762
4.250936 3.5627861 -0.072857
4.1981502 3.5268481 0.013142
3.777241 3.1807411 0.095173001
3.8594279 3.257612 0.188932
4.1174159 3.4835639 0.30540901
3.9329131 3.335315 0.396799
4.0954332 3.4813211 0.52785301
3.763473 3.206671 0.59492201
4.395885 3.7543459 0.82866198
4.013092 3.4354811 0.88278198
5.6719761 4.8555989 1.247695
4.1680932 3.576565 1.051496
4.548214 3.911927 1.298315
4.5243731 3.9005671 1.445317
5.4695878 4.7154598 1.747267
5.3850341 4.6533742 1.906552
5.2994332 4.5901599 2.0623541
5.2669902 4.5727839 2.236984
5.1812439 4.5088968 2.3857901
5.129344 4.474205 2.5457051
5.0720091 4.4345851 2.6995809
5.0369182 4.4142299 2.86114
5.0267129 4.4156132 3.0328579
4.9738059 4.3793898 3.174161
4.9135361 4.3364592 3.303515
4.8873072 4.323411 3.447716
4.8688011 4.3171382 3.5905039
4.8858771 4.3424201 3.7520609
4.849926 4.3205681 3.8644891
4.8207459 4.3046198 3.9721589
4.8258162 4.3192248 4.0960178
4.8222408 4.3261309 4.2023649
4.8148661 4.3397312 4.3744941
4.7648258 4.334919 4.5073218
4.7410622 4.3537159 4.4071641
4.7332082 4.3668141 4.2683439
4.7348289 4.3784952 4.1833172
4.7492318 4.402051 4.0954828
4.75418 4.4169221 3.9883909
4.797452 4.4675102 3.900281
6.0852361 5.6799302 4.7780662
9.0569811 8.572628 5.3274641
8.0802794 7.6659598 4.462976
6.1120238 5.8800831 2.0520401
5.4462228 5.2517338 1.637383
5.4794812 5.2961092 1.45897
5.1323991 4.972178 1.194129
4.2013149 4.0796251 0.83944601
4.7907491 4.6519861 0.957219
3.8818259 3.7781661 0.65178603
3.9009571 3.805613 0.53518301
3.9821579 3.8938601 0.428561
3.7362969 3.6619561 0.29624999
3.874419 3.8061559 0.20317499
3.864856 3.805599 0.104538
3.6689739 3.621119 0.012356
3.676548 3.637027 -0.067932002
3.676923 3.645864 -0.142516
4.017643 3.992965 -0.22875801
4.1361051 4.120254 -0.303087
3.8824971 3.8766191 -0.33918899
4.2171798 4.230391 -0.45963299
4.2548852 4.3080611 -0.52787
3.9934809 4.0811291 -0.400837
3.6734741 3.7715859 -0.27332801
3.7671361 3.8767419 -0.218307
3.815068 3.9351981 -0.15085199
3.620435 3.7431321 -0.068405002
3.9740009 4.1182351 0.013717
3.9247999 4.0767212 0.109067
4.7395768 4.9230361 0.13170899
3.610008 3.7584651 0.19495
3.713609 3.87532 0.30393901
3.745435 3.9176371 0.41705301
3.596602 3.770714 0.51172698
3.7273829 3.9169199 0.65059102
3.9114361 4.1199098 0.814331
3.8926079 4.109621 0.94590801
5.1643691 5.4522829 1.2549469
3.820838 4.0432401 1.065035
5.138299 5.437387 1.432269
5.0338731 5.3393011 1.588098
4.973166 5.2871919 1.756204
4.9151921 5.237618 1.924148
4.8736639 5.205462 2.09763
5.644743 6.029036 2.429503
5.679935 6.1091428 3.119863
5.598093 6.0351682 3.298414
8.948041 9.6691523 5.627996
6.0850801 6.6370411 4.7576618
4.6454158 5.0786262 3.79776
5.9035368 6.4540739 4.8263102
5.9453011 6.5453739 5.4346209
4.5435939 5.0138698 4.2793579
6.8800879 7.5921988 6.4799719
3.4365661 3.801131 3.3240149
4.4009199 4.8677878 4.2567849
3.226423 3.585391 3.2551379
5.6993299 6.3334322 5.7500539
5.6508169 6.338501 5.941731
3.1707931 3.5900979 3.279526
3.216691 3.659162 3.229157
5.7652788 6.55832 5.787622
4.4142852 5.0569091 4.1255789
3.629667 4.1678228 3.2882421
4.4886861 5.1542048 4.0664568
4.523262 5.2060971 3.9586561
4.6773052 5.39605 3.940279
5.3444762 6.1802211 4.3171201
4.2342572 4.9079089 3.267504
4.9336472 5.7185688 3.8072121
4.2502179 4.9379859 3.1205959
4.235981 4.9330149 2.947397
4.2412329 4.9507618 2.7849269
4.3109188 5.0439439 2.6586671
4.332984 5.0816908 2.4977119
4.3664851 5.1330538 2.340837
4.4202189 5.2084579 2.19087
4.4831619 5.2950721 2.0409069
4.5999942 5.4458852 1.909657
4.6773891 5.5505681 1.756204
4.7800002 5.6857152 1.607558
4.9703431 5.926095 1.480782
3.7717559 4.507647 0.98216897
3.514951 4.2106581 0.78623599
3.8089931 4.5736952 0.71617597
3.530396 4.249186 0.542512
3.4791679 4.1974311 0.41950801
3.3650961 4.069427 0.29901999
3.414911 4.139442 0.200745
3.5865719 4.357832 0.108778
3.7560389 4.574553 0.014187
4.709168 5.7353868 0.017787
3.6205211 4.4199538 -0.075051002
3.3745921 4.1295042 -0.14678
3.4409339 4.2206759 -0.21992099
3.3573329 4.1279039 -0.276232
3.3783209 4.1635871 -0.331476
3.2429781 4.0158019 -0.397183
3.468025 4.335535 -0.48401099
3.2597699 4.1142149 -0.36848399
3.6365869 4.6117711 -0.30490199
3.5874441 4.5603271 -0.234327
3.459667 4.4084182 -0.154236
3.4635639 4.4239621 -0.073803
3.3903899 4.3408689 0.013202
3.5487981 4.5545878 0.111283
3.5380099 4.55163 0.21566001
3.892957 5.0202832 0.35973999
3.613441 4.6710262 0.45441601
3.604399 4.6705289 0.57935798
3.4444251 4.4739628 0.67938203
3.2052851 4.1733708 0.75431001
3.2255261 4.2098322 0.88624299
4.4038148 5.7754302 1.571811
4.1614819 5.4707789 1.663079
4.389317 5.7840939 1.9451081
4.5704298 6.0373101 2.2274439
3.9189119 5.1892209 2.08551
4.4290762 5.8647552 2.357002
4.0342302 5.3808322 2.694746
3.95573 5.2889199 2.8214619
3.896508 5.2223792 2.9535899
5.565351 7.4590821 4.2185879
3.8895271 5.2256951 3.1201639
3.777426 5.0874138 3.194133
3.7454181 5.0565701 3.324851
3.6094601 4.8848882 3.3513629
3.5949321 4.8770719 3.4777629
3.606514 4.9047222 3.622128
3.328264 4.5373478 3.4584899
3.7283609 5.0827918 3.8742421
3.2480669 4.4388208 3.4786479
4.2392559 5.7933841 4.5402031
3.030139 4.151125 3.333811
4.8187418 6.6014142 5.301662
2.8587251 3.9742041 3.4254961
2.874151 4.035089 3.3919511
2.935894 4.1421199 3.3650639
4.1062031 5.7932549 4.7064481
2.998071 4.2402749 3.3686399
3.2568941 4.6177101 3.5737929
3.2453151 4.6126771 3.4663451
3.579776 5.1006389 3.7075169
3.624048 5.1764998 3.6271081
3.5878811 5.1375508 3.457648
3.67677 5.277885 3.398663
3.5191081 5.064117 3.108608
5.3810849 7.743567 4.7533879
3.663419 5.2848768 3.0799899
4.068809 5.8696971 3.42082
3.7193091 5.3788409 2.964324
5.150569 7.44872 4.105052
4.184401 6.1272788 2.379601
4.2182579 6.2078009 2.0105741
4.4369669 6.5624132 1.714376
3.123255 4.642621 0.93502998
3.309474 4.9317908 0.85136497
3.7106831 5.543602 0.80266702
3.337863 4.9991808 0.59030402
3.270786 4.9110632 0.45403299
3.2020841 4.8200521 0.32768399
3.2760921 4.9439082 0.221866
3.1887701 4.8243108 0.111456
3.269614 4.9591351 0.014237
4.1971049 6.3658929 0.018276
3.3399479 5.0786428 -0.079844996
3.304003 5.0367398 -0.165792
3.3246119 5.0810189 -0.245222
3.419559 5.2394028 -0.32481101
3.68926 5.6670289 -0.41804799
3.5963609 5.5525031 -0.50904101
3.499239 5.458014 -0.56521499
3.6168759 5.6996441 -0.473876
3.1171529 4.9374971 -0.303139
3.26108 5.178793 -0.247159
3.167161 5.0426259 -0.163893
3.8636489 6.151547 -0.199935
3.050209 4.868988 -0.075470999
3.094615 4.952652 0.013998
3.1850591 5.1106219 0.116062
3.074086 4.9453492 0.217829
3.1202879 5.0327058 0.335316
3.1443119 5.0846539 0.460017
3.2115009 5.2068181 0.600761
3.2248549 5.2420902 0.74054599
3.549809 5.7853808 0.972969
3.491735 5.7055941 1.117816
6.161128 10.334951 5.1400738
5.6209521 9.4788303 5.2783179
6.0549312 10.237733 5.9957509
3.165159 5.3658848 3.2916811
5.4451981 9.2557945 5.925395
5.0438132 8.5963316 5.7209339
2.9278741 5.0167351 3.5700209
3.060955 5.3011632 4.131156
2.9996591 5.2511978 4.2315631
2.985687 5.2835631 4.1551971
2.6125269 4.6610451 3.466053
2.818152 5.041615 3.6529019
2.750699 4.9344001 3.472105
3.4550531 6.231895 4.0900798
3.48071 6.2954149 3.9692659
3.5037141 6.3544288 3.8340659
3.401881 6.2037811 3.3888531
3.446569 6.302618 3.2562151
3.3941259 6.2238898 3.0284951
3.5558021 6.538404 2.98226
4.627243 8.5085688 3.8808811
6.6585841 12.277729 5.2238269
3.7675519 6.966279 2.7509921
2.9453199 5.4610949 1.989923
3.546046 6.5749369 2.395786
3.8334539 7.1276278 2.380682
5.079463 9.4443598 3.1544881
3.8089731 7.1018839 2.158844
3.244051 6.0995002 1.322644
4.2359629 7.9868522 1.5107501
3.016006 5.70262 0.924725
4.0452528 7.6487041 1.240298
2.8997979 5.4983501 0.747953
2.8734651 5.4637799 0.60623401
2.8427849 5.4207072 0.47098801
2.8653021 5.479115 0.35012901
2.804482 5.3932881 0.11716
3.0684781 5.917748 0.015977999
2.845505 5.5033531 -0.081381999
2.797965 5.4268599 -0.16804799
3.072324 5.9760189 -0.27137101
3.0172889 5.8857622 -0.343371
3.15958 6.1810122 -0.42915401
3.0908921 6.0814319 -0.52492201
3.1003029 6.1707611 -0.60203898
2.9447999 5.9297481 -0.46477199
2.8502779 5.7730408 -0.33424601
2.935112 5.9622889 -0.26838499
2.6634319 5.4262929 -0.16636901
2.824486 5.7713628 -0.084402002
2.600507 5.3293581 0.014213
2.6887541 5.5264978 0.118451
2.8780971 5.9331698 0.24668799
2.763422 5.7136478 0.35940099
2.6902609 5.5789161 0.47658899
2.834507 5.8955259 0.64239502
2.795167 5.8310242 0.77805698
2.9384451 6.1482401 0.97680002
3.5915279 7.5147138 1.193898
3.0259919 6.3503528 1.175504
4.582581 9.6458302 2.044513
5.0598011 10.71447 2.866883
3.5654891 7.5745988 2.2426829
4.3166809 9.1704473 2.7151811
3.3183539 7.0922499 2.511224
3.998673 8.6243553 3.8090949
3.38236 7.3173118 3.4437389
4.7763829 10.364648 5.1731172
3.0250721 6.6249061 3.8480811
3.331362 7.295681 4.2377009
3.370244 7.4493752 4.864614
4.0936179 9.3058014 7.1135659
2.2114229 5.091073 3.8004091
2.2563081 5.2442799 3.7033269
2.728904 6.3630381 4.378778
2.638916 6.1729898 4.126102
3.167501 7.433301 4.8073468
2.879045 6.8000889 4.074585
3.3775821 8.0034332 4.5899482
3.211488 7.6594381 3.9780691
3.129936 7.4892788 3.679395
3.790849 9.1302071 3.961221
3.982717 9.6238155 3.8954501
3.205812 7.7720389 2.9203041
5.2242999 12.74938 4.0530291
4.1755991 10.292084 2.403722
2.6674941 6.5968618 1.362319
2.5229011 6.2601538 1.12787
2.4287889 6.0468459 0.93409002
2.840904 7.0728722 1.092586
2.3924699 5.9764829 0.774593
2.638701 6.6137962 0.69927502
2.5913169 6.5169778 0.539653
2.4106879 6.083272 0.37053901
2.333853 5.9093828 0.237679
2.5076139 6.3709941 0.13195901
2.5247819 6.4365048 0.016572
2.5662551 6.5646148 -0.092584997
2.5361099 6.5097842 -0.192286
2.569406 6.617929 -0.28670499
2.3488369 6.0706749 -0.33792701
2.4237781 6.2860422 -0.41650501
2.6537631 6.930347 -0.57103199
2.6214919 6.9423952 -0.64693999
2.301713 6.1821871 -0.463092
2.3650451 6.3976622 -0.354103
2.7764289 7.5373559 -0.32439399
2.3865731 6.5022278 -0.19063599
2.3642621 6.4646382 -0.090418003
2.4001 6.5862989 0.016802
2.5802319 7.1579609 0.43086299
2.28737 6.3686872 0.52070302
2.3730161 6.6313152 0.691652
2.26999 6.3666749 0.813299
2.2339871 6.288774 0.95665097
3.5607281 10.023609 1.524796
2.764205 7.8389511 1.591347
3.6340001 10.305586 2.0920861
2.425807 6.904851 1.583868
3.324347 9.497673 2.4346509
3.474211 9.9625788 2.826448
3.47209 9.9937906 3.1121571
2.454293 7.0908198 2.4064751
3.468713 10.021632 3.4011309
2.417011 7.009418 2.5754459
3.059371 8.8722849 3.259913
3.487916 10.153305 4.0152559
3.265413 9.5779572 4.3229418
2.755774 8.1450071 4.1184611
2.7174361 8.0625095 4.2888522
2.721647 8.1060791 4.518003
3.1868551 9.5652246 5.7871442
3.214536 9.6858349 6.0718188
2.917407 8.964283 6.3620362
2.348439 7.3315992 5.3867722
2.362947 7.4965639 5.3817
3.0278599 9.8447514 6.1280642
2.3891661 7.832819 4.5185671
1.955567 6.4922409 3.247597
2.957453 9.9436884 4.1568651
2.9581389 9.9884081 3.8961511
2.877914 9.7591648 3.534225
2.1802969 7.4252658 2.4819069
2.8767469 9.7971125 3.2746999
2.0255921 6.9281392 2.123311
2.7806089 9.5517273 2.6649809
2.692059 9.2877064 2.3396449
2.851779 9.8816271 2.2258329
2.737848 9.5284052 1.898033
2.8574331 9.9882565 1.73606
2.531436 8.9270926 1.1164941
2.4984391 8.8498545 0.90304703
2.005542 7.1356058 0.57034099
2.007211 7.1735411 0.421817
1.986742 7.1322799 0.276968
1.89237 6.824163 0.13648801
1.951317 7.0685878 0.017576
1.894197 6.8928518 -0.093898997
1.99905 7.3076372 -0.208519
1.850296 6.794838 -0.28440499
1.844565 6.8049402 -0.366027
1.901664 7.0480199 -0.45130599
1.907534 7.1355982 -0.56834602
1.8743941 7.2821321 -0.52786702
1.821056 7.1436129 -0.38272199
1.808812 7.130147 -0.297075
1.810129 7.1702452 -0.203539
1.771136 7.0503092 -0.095487997
1.790746 7.1635451 0.017698999
1.8629431 7.4893441 0.148743
1.843453 7.4478841 0.28702399
1.912181 7.7641878 0.45279899
1.913638 7.8091822 0.61867499
2.2028129 9.0346003 0.91321099
2.246079 9.2587366 1.146359
2.147372 8.8969707 1.311954
2.1588399 8.9902258 1.545033
2.388849 10.050851 2.235775
2.383641 10.137345 2.7897041
1.702595 7.278811 2.1989419
2.2724321 9.7660561 3.215759
1.657917 7.1627202 2.5537901
2.2243481 9.7124281 3.992465
2.807476 12.390602 5.7589631
2.8058131 12.45033 6.112896
2.240145 9.994298 5.1630082
2.12026 9.6161346 5.652235
2.06213 9.4568262 5.948813
1.739455 8.0217333 5.191247
2.389703 11.469467 8.1976852
2.6014161 12.935897 8.7455187
1.597459 8.0400114 5.184298
1.80882 9.2156391 5.5876079
1.976388 10.322669 5.2980471
2.3760149 12.567667 5.7977719
1.90241 10.126998 4.4019051
2.034296 10.969203 4.1725459
2.2161591 12.02772 4.2482228
1.8409801 10.056952 3.278975
1.8339109 10.084341 3.0150781
1.713645 9.4855804 2.5821781
1.81969 10.139771 2.492502
1.778385 9.9761372 2.193048
1.4749399 8.5610867 0.85310602
1.517658 8.8705053 0.69248003
1.3707629 8.0682735 0.46342799
1.3579791 8.0495462 0.305379
1.395408 8.330369 0.162791
1.481648 8.9086027 0.021646
1.386517 8.45786 -0.23589399
1.26141 8.7754469 -0.24401
1.237607 8.8280163 0.171809
1.224677 8.8856306 0.50792199
1.2804821 9.3709612 0.727772
1.197543 9.3280869 2.275445
1.281882 10.171198 3.0156429
1.196792 9.5859261 3.0981841
1.231693 10.055476 3.7889559
1.257594 10.366863 4.1843891
1.062065 8.8409386 3.8039851
1.536922 12.920531 5.8980961
0.76174802 8.5040483 5.0798759
0.88953501 10.197417 5.648088
0.89783698 10.576603 5.3507118
0.94947398 11.341212 5.451108
0.81265998 10.131848 4.0728049
0.85483402 10.815298 4.0576439
0.677975 8.9760523 2.6479299
0.69773197 9.532712 2.3126011
0.60668099 10.052681 0.024139
0.358942 12.419198 1.4949501
-0.160625 8.6173668 4.5539751
-0.59430897 12.783346 -0.352218
-0.86804801 12.874657 -0.16950101
-0.995107 10.296956 5.937983
-1.07412 6.7922659 -0.52914202
-0.98193997 6.0273762 -0.532386
-1.107448 -3.1806901 2.003828
-1.1101331 -3.2002921 2.0819011
-1.116383 -3.230346 2.1615939
-1.050948 -3.052429 2.0941081
-0.958754 -2.8056819 2.000967
-1.025829 -3.0479181 2.250221
-1.013432 -3.057725 2.205559
-0.98927999 -3.0081069 2.098814
-1.0334769 -3.154763 2.1534259
-1.006515 -3.0844891 2.0520179
-1.0183901 -3.133153 2.024827
-1.046402 -3.2320199 2.0212131
-1.080986 -3.352037 2.021642
-1.012683 -3.1527081 1.8271379
-0.92255902 -2.9539239 1.157425
-0.99124599 -3.18679 1.1592619
-0.981134 -3.1671669 1.063369
-0.89344102 -2.89591 0.89148599
-0.926561 -3.01563 0.84511399
-0.755063 -2.4676061 0.62436002
-0.84842998 -2.7842169 0.62990898
-0.85248899 -2.80918 0.56203902
-1.730933 -5.703886 1.141189
-1.065128 -3.524518 0.61527699
-0.85949802 -2.8559849 0.42752701
-0.87357497 -2.9149661 0.36615199
-1.1992919 -4.0186911 0.41184399
-0.83473599 -2.8089311 0.225482
-0.86264199 -2.915174 0.172153
-0.74537802 -2.5296249 0.098653004
-0.83600599 -2.8493359 0.057231002
-0.94195497 -3.224211 0.0080509996
-1.024457 -3.521703 -0.048177
-0.748936 -2.5857019 -0.074092001
-0.97336602 -3.360548 -0.096294999
-0.751993 -2.607518 -0.109597
-0.792409 -2.759619 -0.149055
-0.81758302 -2.859746 -0.183879
-0.78213203 -2.7598331 -0.220725
-0.817361 -2.9357829 -0.265672
-0.75118601 -2.747139 -0.199928
-0.74253303 -2.7403591 -0.147396
-0.77671099 -2.8796589 -0.120452
-0.73406601 -2.7341001 -0.077915996
-0.73086101 -2.7347801 -0.037184
-0.74653 -2.806396 0.0069610002
-0.71602398 -2.704294 0.053916998
-0.772636 -2.9317789 0.113419
-0.80908799 -3.084543 0.180577
-0.77496803 -2.9684379 0.23606899
-0.75384903 -2.901242 0.29437
-0.77481002 -2.996115 0.37236401
-0.73277998 -2.847162 0.421426
-0.96248299 -3.7396569 0.55352902
-0.88766301 -3.465517 0.59780598
-1.321828 -5.1605349 0.89019799
-0.77876699 -3.0550439 0.60359502
-0.89907098 -3.5440929 0.79129899
-0.67018998 -2.6547101 0.66245699
-1.062647 -4.2297831 1.1683069
-1.03659 -4.1463108 1.257223
-0.70942098 -2.851655 0.94243401
-0.72024697 -2.909503 1.0411381
-0.74217898 -3.013005 1.160578
-0.688335 -2.808388 1.1586111
-0.66040498 -2.707947 1.190734
-0.62327802 -2.568589 1.198115
-0.59815401 -2.4775431 1.220765
-0.87826699 -3.65626 1.895503
-0.88455099 -3.701225 2.0107009
-0.814991 -3.427686 1.944051
-0.80097198 -3.3860869 1.997249
-0.71323103 -3.0308001 1.8524801
-0.76262301 -3.257544 2.0562439
-0.76718599 -3.2941599 2.1391439
-0.79980803 -3.4522929 2.2987289
-0.81791002 -3.567868 2.4703031
-0.79450899 -3.540823 2.5391669
-0.78505498 -3.5759239 2.5066769
-0.77905101 -3.5881269 2.4336081
-0.77746397 -3.6008589 2.389612
-0.71338302 -3.322655 2.1493001
-0.64925599 -3.0410969 1.911202
-0.69046903 -3.252521 1.978263
-0.694628 -3.290803 1.930542
-0.71180302 -3.391566 1.912166
-0.65976298 -3.161761 1.706573
-0.70000201 -3.374094 1.737057
-0.61087602 -2.9616771 1.448416
-0.57174402 -2.788219 1.2901829
-0.628389 -3.0825601 1.343946
-0.59892797 -2.973093 1.134305
-0.63006902 -3.1464591 1.114638
-0.64206803 -3.225713 1.054818
-0.83155203 -4.2030048 1.2603281
-0.78092903 -3.9712391 1.084209
-0.791246 -4.0483809 0.99803501
-0.580172 -2.9867361 0.65846401
-1.093251 -5.6280742 1.2407809
-0.563721 -2.9200721 0.569372
-0.53875101 -2.8081379 0.47781599
-0.69522798 -3.6237481 0.61659598
-0.61178201 -3.2088101 0.46825099
-0.60249603 -3.180083 0.389447
-0.585895 -3.1120961 0.31098399
-0.57861203 -3.0930431 0.24213
-0.76854998 -4.108377 0.32161301
-0.61723 -3.320713 0.19126201
-0.53464299 -2.8949859 0.110129
-0.59093302 -3.2206271 0.063107997
-1.04708 -5.706656 0.111822
-0.606691 -3.328145 0.0081089996
-1.0390691 -5.7000508 0.013888
-0.51192498 -2.826772 -0.037735
-0.52709299 -2.929837 -0.081932999
-0.52313101 -2.9271979 -0.120089
-0.985089 -5.5121031 -0.226136
-0.55595797 -3.131752 -0.16512699
-0.93212402 -5.2507229 -0.27685401
-0.57317299 -3.250551 -0.20405699
-0.56046301 -3.2219491 -0.25164399
-0.550933 -3.2561951 -0.28790501
-0.53465801 -3.2512231 -0.23130099
-0.65719402 -3.996356 -0.284311
-0.45647299 -2.816406 -0.148122
-0.47092199 -2.9269421 -0.119726
-0.492183 -3.081763 -0.085895002
-0.63028902 -3.9760051 -0.05288
-1.030129 -6.4982891 -0.086424999
-1.197643 -7.5550022 -0.100479
-0.46690401 -2.967485 0.0071999999
-0.96504998 -6.1335258 0.014882
-0.440714 -2.8222671 0.055054002
-0.475797 -3.070178 0.116223
-0.44557199 -2.8972421 0.16599
-0.572339 -3.750365 0.291922
-0.84609902 -5.5442309 0.43155301
-0.456698 -3.015945 0.29955
-0.42927101 -2.8570919 0.347635
-0.62826997 -4.1815662 0.50879002
-0.477386 -3.202518 0.464136
-0.49882501 -3.373035 0.56978601
-0.47872901 -3.263171 0.63142401
-0.424786 -2.9189661 0.63836998
-0.86730701 -5.9597979 1.303391
-0.62959301 -4.3616409 1.066233
-0.59415102 -4.149868 1.123023
-0.50252998 -3.539053 1.051496
-0.48026401 -3.410557 1.104597
-0.444702 -3.1846371 1.1169339
-0.439217 -3.172087 1.197711
-0.560615 -4.048841 1.528754
-0.53303403 -3.8826721 1.5703551
-0.44077799 -3.238405 1.3961951
-0.477918 -3.541862 1.620057
-0.47552601 -3.555135 1.7179689
-0.35021499 -2.641484 1.343192
-0.47192201 -3.559453 1.809979
-0.53888899 -4.1008792 2.1854219
-0.49276501 -3.7837269 2.1054111
-0.433826 -3.361455 1.9454761
-0.45023301 -3.520632 2.1117151
-0.431274 -3.4036031 2.1086061
-0.45494699 -3.65817 2.3912449
-0.38591099 -3.6130309 2.233227
-0.388596 -3.67837 2.2006831
-0.39364499 -3.767776 2.174473
-0.380768 -3.6857431 2.044539
-0.340056 -3.329252 1.768239
-0.34269699 -3.433552 1.652741
-0.39223799 -3.9763601 1.81121
-0.38666201 -3.966754 1.70262
-0.391729 -4.0673561 1.637305
-0.36480001 -3.8341219 1.4404759
-2.2043271 -23.167908 8.7041597
-0.43654299 -4.645082 1.620605
-0.4966 -5.3504219 1.723317
-0.49672201 -5.4197011 1.600949
-0.40564501 -4.4829721 1.205827
-0.51489002 -5.6902952 1.5305721
-0.33490899 -3.7494569 0.91079003
-0.50500101 -5.6537118 1.3733571
-0.248309 -2.816617 0.61193001
-0.34195101 -3.8788121 0.84269899
-0.29451799 -3.3854949 0.65060401
-0.26341599 -3.0690041 0.514736
-0.282107 -3.3318989 0.47931901
-0.287101 -3.438148 0.415131
-0.288219 -3.5002589 0.34489799
-0.338999 -4.175878 0.32238001
-0.253158 -3.1638031 0.179729
-0.26457801 -3.3552301 0.12590501
-0.26393101 -3.39713 0.065670997
-0.29744899 -3.8866229 0.0093430001
-0.26423001 -3.505753 -0.046181001
-0.27822599 -3.7492671 -0.103475
-0.242696 -3.322432 -0.134535
