# .PCD v0.7 - Point Cloud Data file format
VERSION 0.7
FIELDS x y z
SIZE 4 4 4
TYPE F F F
COUNT 1 1 1
WIDTH 1540
HEIGHT 1
VIEWPOINT 0 0 0 1 0 0 0
POINTS 1540
DATA ascii
7.2149858 -8.756422 -0.98912698
7.1578989 -8.605689 -0.78577799
7.160809 -8.5687723 -0.57973403
7.6615062 -9.1463985 -0.48184901
7.7391181 -9.195734 -0.157877
6.7706299 -7.5350132 6.4067421
6.4452929 -6.8787122 5.4107928
7.6013041 -7.9816499 4.4164829
9.5527411 -9.5983028 -0.372715
8.8673563 -8.868454 -0.65107298
8.6882486 -8.6691866 -0.75877899
8.9079142 -8.8472729 -0.966066
9.0748835 -8.9298906 -1.109934
8.9861565 -8.7609568 -0.881015
10.009119 -9.6906261 -0.562635
9.875164 -9.5387926 -0.37788701
10.200851 -9.807766 0.033918001
14.355442 -13.738348 0.74331599
14.330959 -13.683143 1.122018
14.898502 -14.126323 2.4703591
8.7671041 -7.5022178 5.230504
9.8006029 -8.3277483 4.8101101
13.738667 -11.483321 3.428081
11.803159 -9.6125898 -0.418964
10.932127 -8.8401661 -0.869169
11.252622 -9.0562878 -1.111452
11.116245 -8.7779284 -0.99431998
14.158245 -8.9572811 -1.176111
13.457069 -7.17628 3.6899559
8.86448 -3.9872589 5.973947
8.8199263 -3.9549389 6.1132922
8.767375 -3.9191639 6.2295351
7.4978852 -3.330857 5.5369239
7.1895261 -3.1540329 5.4934068
7.4267969 -3.21715 5.5415802
7.7534781 -3.337332 5.5948119
8.7213478 -3.741962 6.1560669
8.8065367 -3.766438 6.0577021
8.8206329 -3.7603669 5.8933101
8.947155 -3.802062 5.7839508
11.383321 -3.8690419 5.1361451
11.238203 -3.8051729 5.3783078
8.7910805 -2.96521 4.4437389
8.5983152 -2.8890791 4.5724349
11.613328 -3.8871441 6.4707751
8.3907671 -2.797667 4.8804188
8.3253632 -2.765126 5.0354381
8.749732 -2.8947849 5.4833002
8.5567265 -2.819916 5.53725
8.6402531 -2.836329 5.7514219
7.9509268 -2.5998111 5.4262862
7.8316431 -2.5406971 5.5565028
7.8348861 -2.5015781 5.7548342
8.2127504 -2.5802541 5.8941078
7.9101658 -2.465014 5.4915009
8.026124 -2.4909329 5.4513192
8.7279119 -2.6976321 5.7776141
8.7377491 -2.6895511 5.6189342
8.2790308 -2.537837 5.1519709
8.2808189 -2.527874 4.9697261
11.025865 -3.351846 6.3587489
8.5114822 -2.576689 4.6987982
8.4957161 -2.5611401 4.4729562
8.71663 -2.616704 4.3590722
11.353915 -3.394047 5.3717022
12.690265 -3.7614329 5.3035731
12.911624 -3.810746 5.0350099
16.244356 -3.8847311 2.79108
14.797703 -3.5206201 2.9121101
14.195536 -3.2905951 4.6733871
9.2462311 -2.132036 3.2960069
9.0872831 -2.0843 3.486989
9.1685629 -2.0917499 3.7681811
13.079846 -2.9681461 5.729744
9.4139729 -2.1248021 4.374649
10.578289 -2.374702 5.1927862
11.570961 -2.583467 5.9763951
9.7258978 -2.1596899 5.2640738
9.7559214 -2.154484 5.512816
7.3010859 -1.603492 4.2907009
7.2071571 -1.574101 4.3890948
6.8951221 -1.497582 4.336596
7.1284862 -1.5396219 4.6123629
7.216536 -1.549878 4.787931
7.1554909 -1.519431 4.9366889
6.4477048 -1.337918 4.6076512
6.4233809 -1.3018399 4.4873862
6.8809218 -1.377968 4.6512022
6.9436808 -1.382171 4.5925608
6.9601698 -1.377072 4.4872851
6.7268438 -1.322801 4.2135458
6.79811 -1.3286361 4.1211681
7.4171281 -1.440698 4.336998
9.9801025 -1.9265161 5.6084719
6.8190289 -1.308123 3.6686881
7.1629391 -1.365483 3.6757729
9.2617912 -1.754473 4.5150161
6.9860721 -1.314998 3.2223599
9.5228786 -1.781068 4.1386938
9.2175646 -1.712914 3.7566509
9.5532961 -1.7638561 3.6334181
12.741142 -2.291389 3.467917
10.030747 -1.267471 2.7084529
9.8038712 -1.227265 2.90643
12.721637 -1.53263 5.1343379
9.7658911 -1.165062 4.201551
6.867919 -0.81126702 3.1348341
6.979023 -0.81618297 3.3655269
6.828414 -0.79055101 3.465112
6.780509 -0.77704501 3.606087
7.018991 -0.79612601 3.8977649
6.9733748 -0.78276998 4.0278521
6.9117222 -0.76773101 4.1375299
7.0170369 -0.7712 4.3386912
7.1459389 -0.77698898 4.546082
7.32792 -0.78817499 4.7808561
6.762958 -0.71156102 4.589303
6.7379031 -0.677347 4.7383642
9.0091419 -0.90566999 6.3355908
9.0193758 -0.864483 6.2037001
8.2983284 -0.775958 5.524096
8.400754 -0.77571899 5.4725428
7.1869841 -0.65524399 4.5642562
7.0817819 -0.63736898 4.3701081
6.92524 -0.61519301 4.136507
6.9894972 -0.61273998 4.0273552
8.4325266 -0.72938699 4.6702652
7.1675391 -0.61160398 3.8008969
6.928112 -0.58307898 3.5047231
6.8605008 -0.56938398 3.2972751
7.2875061 -0.59632301 3.3144281
12.465846 -0.94735497 4.009469
12.477968 -0.93373698 3.6808
13.043504 -0.960841 3.5036261
7.036983 -0.17490099 1.347653
7.2539849 -0.171874 1.57033
7.0536361 -0.15895 1.707054
7.0883889 -0.151574 1.899307
6.9155288 -0.139847 2.034698
12.75147 -0.22823 4.4300032
11.58079 -0.193831 4.3319368
9.8364477 -0.153199 3.94188
11.329237 -0.163296 4.8403282
11.042422 -0.14634199 5.005909
7.6988301 -0.093080997 3.6877811
6.8316469 -0.074665003 3.4439559
6.856391 -0.066977002 3.622905
6.425478 -0.055298001 3.5455749
6.490551 -0.048324 3.7256761
6.4470592 -0.040506002 3.835856
8.2130823 -0.051601999 4.8866
8.2945127 -0.042486001 5.0979352
8.6957483 -0.034448002 5.4996638
9.9130077 -0.027748 6.430347
8.9521093 -0.004276 6.041501
8.4039774 0.103346 5.4518628
6.3123031 0.092289999 3.880002
7.291945 0.106614 4.482162
6.7110448 0.105912 3.99334
6.9537292 0.117815 3.9920101
6.717926 0.121631 3.707418
6.7467132 0.129986 3.565443
7.135066 0.14576399 3.59745
7.756207 0.16746099 3.7158589
11.232483 0.26862201 4.7998638
6.9986949 0.175501 2.8052139
11.718314 0.29385099 4.6969299
6.83601 0.179361 2.557615
6.689281 0.183292 2.3244309
6.80089 0.19425 2.182013
6.6789522 0.198526 1.9655581
11.677857 0.34711501 3.436693
6.8539491 0.211702 1.836946
6.6195078 0.21215101 1.602407
6.8026781 0.225926 1.473031
7.477695 0.25704601 1.432457
6.942317 0.25477901 0.99581403
11.380185 0.76219797 -0.31391999
13.170878 0.928253 0.25447601
11.592691 0.84407598 0.65819502
8.7412024 0.646671 0.67445099
11.947679 0.89783001 1.1766
9.5491562 0.72873598 1.152333
6.81076 0.52772099 0.97921199
6.7984452 0.534706 1.139573
6.630115 0.52920997 1.273378
6.5640502 0.53161597 1.425227
6.565794 0.53942901 1.593941
6.5784502 0.54808903 1.768374
6.8646669 0.57995999 2.0265141
6.7370968 0.57706898 2.168576
6.927393 0.60146999 2.4153211
6.589047 0.579799 2.473891
6.9630589 0.62086701 2.8011229
7.3333902 0.66246802 3.145565
7.0302019 0.64330697 3.2000661
6.8672848 0.63644898 3.3033221
7.1515641 0.67116898 3.620857
6.9914498 0.66433001 3.7107329
7.2267642 0.69516599 4.0059829
8.1373777 0.79229403 4.6929379
7.5493231 0.74389702 4.5133429
7.2669129 0.72458702 4.4884448
6.6018152 0.66601002 4.196507
7.2795711 0.73438299 4.6273289
7.1150999 0.72614598 4.6393628
6.5038352 0.67902201 4.4130931
6.7612381 0.73766601 4.7590032
6.8636522 0.78111398 4.7297492
6.6113329 0.76796103 4.4114318
6.4675698 0.75887102 4.224133
7.3949251 0.87638402 4.7096448
7.4736691 0.894526 4.6261559
7.3476391 0.88809401 4.4034109
8.1905375 0.99962002 4.736249
7.2386422 0.89198601 4.0243411
6.9297361 0.86208701 3.6897111
7.46103 0.93699002 3.7905569
7.2624822 0.92061901 3.506351
7.344893 0.93972999 3.356539
7.44034 0.960733 3.204885
7.0922432 0.924155 2.8658409
7.0725279 0.92993599 2.667963
7.1777329 0.95225698 2.5150709
6.6076159 0.88442701 2.138037
7.3909779 0.98927897 2.391511
6.6702919 0.90069801 1.97995
6.957181 0.94767201 1.880935
6.5410428 0.89872301 1.597468
6.5435338 0.90680498 1.429669
6.6105208 0.92391998 1.277891
6.749764 0.95137 1.139078
6.7504621 0.95946097 0.977368
7.0633588 1.012311 0.85857499
7.3184171 1.057536 0.726152
8.6419516 1.259034 0.671996
6.8721442 1.009351 0.393323
6.362143 0.94199002 0.240595
6.7361231 1.0053639 0.131265
7.117887 1.0707901 0.017253
6.5604448 0.99471903 -0.087160997
6.4496579 0.98559099 -0.17957599
6.9839091 1.075529 -0.285373
7.0055938 1.087194 -0.368049
6.8061299 1.064342 -0.42588401
6.7866921 1.077449 -0.52875799
6.6628952 1.089555 -0.58857799
6.8279371 1.149129 -0.48606101
6.252038 1.067147 -0.32926899
6.2777491 1.079036 -0.257247
5.86554 1.015195 -0.163838
6.2246351 1.0848 -0.082997002
6.2829881 1.1024849 0.01529
6.5926609 1.164724 0.12903
6.6459689 1.182099 0.25251999
6.713295 1.202114 0.386199
6.7410998 1.215181 0.527071
6.325768 1.147894 0.63135099
6.6941562 1.222771 0.81879401
6.3817019 1.173364 0.93011701
6.6852121 1.237192 1.136112
6.2857652 1.1708159 1.224113
6.2489562 1.171477 1.3759429
6.4756141 1.22175 1.594411
6.3344989 1.202675 1.727231
6.4576421 1.233815 1.933951
6.2848101 1.20836 2.0525279
6.288022 1.21654 2.2246809
6.7169518 1.307608 2.5593669
6.6098051 1.294717 2.698838
6.543993 1.289708 2.849354
6.6361842 1.315874 3.0667131
7.5152898 1.49019 3.472966
6.737792 1.344155 3.2907951
6.5837851 1.321372 3.3849881
6.7956228 1.372088 3.6630819
7.2315321 1.468843 4.0716858
8.1989965 1.675254 4.8034539
7.5063219 1.542806 4.559361
7.0399079 1.455453 4.4182801
7.1161089 1.4798141 4.5968618
6.7156119 1.404667 4.4505229
6.6773229 1.41283 4.6060848
6.9701591 1.508626 4.9900451
6.7125421 1.485507 4.7071509
6.6351089 1.484532 4.5064559
6.849997 1.540954 4.5544658
7.2277689 1.634745 4.6866608
8.0455093 1.819698 5.2169042
8.4154558 1.913646 5.3042402
6.8547239 1.567103 4.183548
6.8549228 1.575516 4.0373111
6.7308092 1.555221 3.8117709
6.8459859 1.590198 3.713536
6.6409078 1.550692 3.437654
6.5491571 1.537279 3.222111
6.1360288 1.447816 2.857806
6.2750831 1.48832 2.75507
6.3197379 1.506655 2.6032479
6.3813939 1.529177 2.4542739
6.215538 1.497067 2.2207439
6.1415768 1.4867899 2.0265701
6.147583 1.495793 1.861142
6.1111012 1.494435 1.685311
6.2238569 1.52966 1.55067
5.9711561 1.474897 1.3311
6.040628 1.4995019 1.191583
6.4262152 1.603132 1.106773
6.2122879 1.5574189 0.91805601
6.3811421 1.6076289 0.79179603
6.1793818 1.5644211 0.62597603
6.005393 1.527786 0.47681901
5.6489959 1.444104 0.330172
5.7656522 1.481051 0.222688
5.5393891 1.4297889 0.110261
5.4119349 1.403587 0.013401
5.424367 1.413527 -0.073632002
5.3824558 1.409282 -0.153136
5.7611289 1.515571 -0.240582
5.7601728 1.522463 -0.30930901
5.6886058 1.510617 -0.36387101
5.7773852 1.548546 -0.46024701
5.629817 1.537037 -0.50876302
5.121676 1.423875 -0.37317601
5.156745 1.4465261 -0.27804601
5.3607292 1.5104541 -0.224925
5.7710571 1.6332951 -0.165076
6.0795832 1.72824 -0.083022997
5.3934441 1.5399539 0.013444
5.4540982 1.564124 0.109356
6.5364962 1.88274 0.254464
6.0997138 1.764595 0.35957101
5.5570831 1.614611 0.44528601
6.0637202 1.769443 0.62030703
6.2634821 1.83562 0.78534502
5.813477 1.711071 0.86867702
5.7281709 1.693184 0.99815601
5.9110699 1.754703 1.1804889
6.0506859 1.8037961 1.366424
6.3251262 1.8936 1.597468
6.0126071 1.808208 1.6819479
6.33779 1.914019 1.947497
5.9750299 1.812039 2.002444
6.1900711 1.885096 2.2476499
6.0826249 1.860085 2.378957
6.31002 1.937638 2.6449051
6.263031 1.93116 2.799855
6.3939819 1.97966 3.034097
6.6770849 2.0758131 3.349112
6.565166 2.049371 3.466912
6.4838042 2.032228 3.590203
6.532743 2.0559011 3.778919
7.7385879 2.455142 4.8303561
7.7044659 2.454154 4.9696488
7.411551 2.370321 4.9213152
7.6914821 2.4696951 5.2401671
5.7333288 1.885067 4.2229629
5.8134551 1.941349 4.1964378
7.1811261 2.416609 5.0219059
7.234489 2.4439099 4.9533701
7.5428662 2.557833 5.0373049
8.6384659 2.9629209 5.242033
9.4865093 3.2661099 5.536005
6.3862062 2.2069941 3.5701151
6.7052932 2.3259859 3.5776451
5.8590631 2.0400541 2.9715641
5.8767238 2.053848 2.821888
5.8929529 2.0672021 2.6678569
5.8058872 2.044224 2.466372
6.2753768 2.2177119 2.489305
5.8945909 2.0908451 2.1725099
5.8830061 2.09442 2.002749
6.2118721 2.21962 1.940442
6.1219039 2.195492 1.742239
5.9169369 2.1297331 1.52151
5.9051461 2.1332271 1.3588099
5.6684322 2.0551591 1.1543519
5.4852128 1.99593 0.975411
6.5570912 2.3945739 1.000638
5.6836319 2.0830801 0.72836101
5.3548088 1.969612 0.56029999
5.5448122 2.046802 0.45480001
5.8860278 2.1805279 0.355443
5.2621741 1.956359 0.210016
5.7197289 2.1340311 0.117661
5.2359958 1.96047 0.013401
5.3540292 2.0117459 -0.075129002
5.4118581 2.0406499 -0.159189
5.2772298 1.996879 -0.227871
5.3458662 2.0299399 -0.296866
5.6781349 2.1636569 -0.37565699
5.3292708 2.0448899 -0.439226
5.6875892 2.2127221 -0.53203899
5.31918 2.0978639 -0.40139699
6.169209 2.4331119 -0.46554199
5.7221031 2.272135 -0.319626
5.4078341 2.154608 -0.235094
5.1895628 2.074621 -0.153824
5.405829 2.1683609 -0.076508999
5.373148 2.1624889 0.013883
5.3399839 2.1563499 0.110994
5.320847 2.155803 0.214763
5.666863 2.3036489 0.346398
5.1783118 2.112057 0.43032601
5.4877629 2.245698 0.58228999
5.2654219 2.1618431 0.68487698
5.5996122 2.3066549 0.86810899
5.7436261 2.3737731 1.038537
5.5760231 2.312079 1.155668
5.5064549 2.290731 1.2907
5.7172608 2.386209 1.498934
5.9952111 2.5109949 1.741204
5.8267241 2.4483731 1.859167
5.6568928 2.384743 1.968851
5.6351409 2.3832729 2.1252601
5.7122779 2.4237101 2.320806
5.9931879 2.551116 2.6099429
5.6662951 2.419733 2.632107
5.6360388 2.4145441 2.7793629
6.3392892 2.7158239 3.126164
6.3031459 2.709007 3.2860429
8.4573879 3.6464961 4.6426558
8.9669437 3.890902 5.393486
8.8737307 3.862689 5.555161
5.7052259 2.4913399 3.703938
5.5944271 2.450685 3.7538099
5.5338159 2.4317861 3.8228791
5.4965191 2.4230161 3.8965199
5.5523872 2.4630401 4.0992699
6.669127 2.9955511 5.1155992
6.6908689 3.0427051 5.0325618
5.5126481 2.5223601 4.0180769
5.479939 2.5150831 3.9112141
5.512157 2.537612 3.8378451
5.5388179 2.5576849 3.7496221
5.6333318 2.6092601 3.693711
7.9706249 3.7256 4.6488109
8.478899 3.9751799 4.7205281
8.165576 3.8398409 4.3219218
5.7391 2.7150791 2.712249
5.6867661 2.698396 2.5221629
7.1359229 3.3860281 3.164885
5.8736391 2.795418 2.432905
5.6843958 2.7134531 2.1879311
5.700284 2.7291579 2.026875
5.5953321 2.6868899 1.8258671
6.2551832 3.003752 2.041189
6.3242059 3.045939 1.880417
7.6844282 3.7010651 2.2848611
5.5548468 2.683332 1.4925849
5.459537 2.6451039 1.31291
5.509697 2.6773109 1.172779
5.4829278 2.6721671 1.019253
5.5040421 2.6903601 0.87818402
5.4692059 2.681205 0.73290098
4.5673089 2.245635 0.49980301
5.2277241 2.577878 0.44850901
4.7100439 2.3294041 0.29754999
4.9165921 2.4386549 0.205305
5.0308628 2.5026169 0.108296
5.2114191 2.5999789 0.013959
4.8771029 2.4402561 -0.071635999
4.7763491 2.3967831 -0.147083
5.1722331 2.602951 -0.233843
6.7573719 3.4006801 -0.305509
4.9694371 2.5081191 -0.28898501
4.7250738 2.3916759 -0.32740399
4.660388 2.3725281 -0.40239999
5.869689 2.9881639 -0.50681603
5.7313061 2.951292 -0.562002
4.959847 2.5832231 -0.39257401
5.9799509 3.114521 -0.47331601
4.7196112 2.472043 -0.27659401
4.7484369 2.494163 -0.216612
4.7281542 2.49051 -0.147083
4.9273419 2.6027429 -0.073198996
4.5111699 2.389606 0.012236
5.632556 2.983614 0.015278
4.6514921 2.4708581 0.101513
5.132205 2.7338459 0.21753
4.7519011 2.538343 0.30507001
4.6115832 2.4702761 0.40255299
4.5476069 2.4427969 0.50693798
4.6930151 2.527921 0.64139301
4.6569471 2.5154741 0.75870901
4.8731952 2.639586 0.92612898
5.6090841 3.046602 1.2220449
5.4348731 2.960156 1.33935
5.5028381 3.0054541 1.517042
5.9064331 3.2354469 1.804083
5.4285412 2.981863 1.821916
6.0520272 3.3335021 2.2159121
5.7601299 3.181443 2.285712
5.7445478 3.181545 2.4560249
5.5921068 3.1056161 2.563077
11.120213 6.1925879 5.4374628
8.5811834 4.791719 4.4551558
7.7291832 4.3277559 4.2428699
5.746314 3.2262659 3.32197
5.6104999 3.1585851 3.4019339
5.5446019 3.1299779 3.513206
5.580668 3.158885 3.6808729
7.8701382 4.4669042 5.3841062
8.0290117 4.5817528 5.8465672
8.8051081 5.2715969 5.8906908
5.5123329 3.3089299 3.547507
5.5308409 3.328779 3.41081
5.5827098 3.3688431 3.28686
5.7209649 3.4613359 3.202672
9.7339897 5.9047689 5.1607308
5.5785918 3.4018021 2.618125
5.215601 3.205431 1.963354
5.2133141 3.212368 1.8013149
6.1525798 3.801003 1.937345
5.5939941 3.4648919 1.592059
5.32305 3.3056259 1.35606
5.4361458 3.38462 1.225993
5.0753722 3.1681781 0.99980402
4.7233009 2.9560299 0.79872298
5.060266 3.175108 0.718804
4.4402452 2.793258 0.51514697
4.5447149 2.8663471 0.41344699
4.4673538 2.8248179 0.299303
4.8259521 3.0594161 0.213754
4.9354081 3.136853 0.112709
4.6240048 2.9464719 0.013142
4.5772219 2.9241371 -0.071346998
4.6768618 2.9954519 -0.152861
4.910965 3.153435 -0.235699
4.6250758 2.977448 -0.28556401
4.4865179 2.8956311 -0.33011901
4.772891 3.0961771 -0.43776801
4.5611749 2.989037 -0.47541299
5.3734422 3.557117 -0.45237699
4.6486092 3.0928459 -0.28986701
5.5465689 3.690284 -0.34586
4.7364249 3.15921 -0.229929
4.3625488 2.917156 -0.14444201
4.4700642 2.9965739 -0.070689999
4.4852152 3.014282 0.012953
4.5555148 3.0692201 0.105868
4.4071789 2.976723 0.19894999
4.8040142 3.252882 0.32853201
4.7756 3.241745 0.44413599
4.659359 3.1707449 0.55345899
4.686398 3.1971109 0.682607
4.663013 3.189106 0.80979002
5.1623769 3.5394299 1.045954
5.304049 3.6456211 1.232199
5.1701469 3.5624421 1.3588099
6.0330539 4.1673551 1.774076
5.676475 3.930702 1.849625
9.6463547 6.6796641 3.143172
4.9436178 3.4402339 1.9315929
5.6990242 3.995429 2.7888479
5.5728402 3.9166119 2.9098539
5.5015678 3.87606 3.050611
5.5265298 3.9032581 3.2406859
5.4427991 3.9107511 4.2387338
4.9558549 3.622267 4.2951999
4.9180932 3.6297979 4.1851392
4.9811211 3.694205 4.1103392
5.4586449 4.097641 3.917835
7.1535101 5.382925 4.9398422
7.2119002 5.4399729 4.773078
5.4434819 4.1358509 3.0989161
5.4619999 4.1599331 2.933032
5.48491 4.1874399 2.765044
5.5168729 4.2219782 2.5982511
5.6744738 4.353045 2.4842279
9.5836573 7.3872581 3.5594521
11.018951 8.5140257 3.7303009
4.7650051 3.690614 1.458251
5.666368 4.388742 1.734098
4.7254968 3.6687901 1.294719
4.8156738 3.7477729 1.1682661
5.2384362 4.0865469 1.110235
4.2755151 3.3433471 0.77800602
4.202343 3.2939999 0.64246798
4.4902778 3.528111 0.56078798
4.282207 3.3726649 0.41943201
4.4666562 3.5263481 0.32225701
4.2597151 3.3709979 0.20321199
4.3096809 3.4186859 0.106022
3.978543 3.163532 0.012183
4.330318 3.4514489 -0.072738998
4.1969619 3.3531361 -0.147853
4.2871718 3.4333611 -0.221818
4.3042769 3.45526 -0.286549
4.992712 4.0079012 -0.33238
4.2947369 3.4558101 -0.340794
4.0659142 3.28725 -0.40232301
4.244812 3.4645929 -0.477671
4.0988102 3.3772371 -0.37282601
4.1301298 3.419167 -0.278357
4.169107 3.45959 -0.21879099
4.0354919 3.3566251 -0.14446899
4.1049628 3.4224811 -0.070203997
4.3223219 3.6122069 0.013502
3.8268161 3.205663 0.096213996
4.151742 3.4860489 0.202801
4.1393762 3.4838581 0.30636999
3.9597991 3.3405831 0.39864001
4.1842022 3.538209 0.53811502
3.762656 3.189235 0.59348798
4.872972 4.1303411 0.76862001
4.5036421 3.826292 0.84710902
4.0039382 3.4097459 0.87882602
4.0996399 3.4994559 1.03194
4.27389 3.6567841 1.217302
5.5200391 4.723001 1.572234
4.5506859 3.9027629 1.450491
5.4773502 4.6974888 1.745856
5.381968 4.6273422 1.901377
5.3224912 4.5869498 2.06687
5.2733378 4.5552711 2.2348461
5.186769 4.491004 2.3831649
5.1256452 4.4484901 2.538348
5.0746679 4.4145899 2.695118
5.0306058 4.386518 2.8513191
4.9554439 4.3311062 2.983315
4.9108009 4.302156 3.1270759
4.8888102 4.2929211 3.2796581
4.8841772 4.2988949 3.437906
4.921618 4.3420019 3.621424
4.8967419 4.330164 3.7520609
4.847878 4.2969961 3.8542631
4.8321629 4.2930832 3.972682
4.8252759 4.2969871 4.0863962
4.832458 4.3134551 4.2018199
4.8164968 4.3193202 4.3661032
4.7975869 4.3427091 4.5279608
4.753849 4.34342 4.4088578
4.730701 4.3424578 4.2561889
4.7316661 4.3534651 4.1708012
4.7472858 4.3780131 4.0842581
4.755939 4.3962231 3.9805369
4.7854018 4.4337611 3.8813629
4.8743229 4.5266638 3.8182709
5.395525 5.0340638 3.899003
8.4845114 7.9345589 5.8557601
9.8569202 9.2394609 6.471004
9.0565891 8.5288382 5.3144999
5.9443202 5.61095 3.275353
5.3690171 5.091526 2.5701959
5.7723522 5.512301 2.138144
5.3882918 5.1575031 1.804647
5.4186559 5.1986208 1.625114
5.3796682 5.1732259 1.428884
4.5016432 4.338954 1.044801
4.1461949 4.0056362 0.82639199
3.8771751 3.7544501 0.64939702
3.913501 3.79843 0.53557301
3.874155 3.7689769 0.41590199
3.8471301 3.75139 0.30427799
5.6934948 5.5518069 0.45031101
3.934145 3.84515 0.205791
3.8609891 3.7824261 0.104172
3.793802 3.7252369 0.012744
3.5653911 3.5090849 -0.065711997
3.684808 3.6350491 -0.142461
4.2068882 4.1597171 -0.23892701
3.8671639 3.8326809 -0.28266001
3.886034 3.860338 -0.33863401
4.2463522 4.237886 -0.46162799
4.392261 4.4243879 -0.54350299
4.0249429 4.0921869 -0.40293801
3.8319719 3.9141221 -0.28437099
3.802933 3.893482 -0.2198
3.7114711 3.8086691 -0.146368
3.678158 3.783263 -0.069311
3.877378 3.9974401 0.013348
3.9248669 4.0558119 0.108778
4.748776 4.9072099 0.131612
3.6648049 3.795872 0.19738001
3.7395251 3.8822651 0.30523899
3.780405 3.9338369 0.419815
3.512656 3.6637161 0.49843499
3.760823 3.9316721 0.65465301
3.9131861 4.1004782 0.81248599
4.088213 4.2938409 0.99073899
5.142199 5.4133968 1.429448
5.0664968 5.3461208 1.594021
5.0208912 5.3103189 1.7681969
5.6248269 5.9766779 2.414264
5.4679432 5.8235288 2.561919
5.7482858 6.1363602 2.9206331
7.6393461 8.2313814 5.0905452
6.1339979 6.655725 4.7824221
4.685215 5.0955882 3.8195009
6.03934 6.5683188 4.9234161
4.9797931 5.4286008 4.2284732
4.5622492 5.0083389 4.2847028
5.2935972 5.8111982 4.971559
5.9521961 6.549469 5.7408371
3.1480229 3.5127771 3.3005159
5.5893741 6.2955899 5.7641702
3.3740749 3.818217 3.377218
3.3105299 3.7550819 3.247282
4.409574 5.0134292 4.2226992
6.0991659 6.9343982 5.8406868
3.360276 3.8294051 3.1312301
4.4554572 5.0774841 4.1517591
5.7054939 6.517282 5.1535048
5.6703339 6.49231 4.9478221
4.72577 5.4235311 3.9692659
5.9135389 6.786675 4.966897
4.9642301 5.7239928 3.819365
6.274179 7.2344251 4.8272099
4.3042941 4.974709 3.150835
5.3086691 6.13552 3.8860581
4.2844448 4.9634008 2.972168
4.2858391 4.9766979 2.805748
4.3342452 5.0447369 2.6649909
4.352829 5.07828 2.5015659
4.3601131 5.0987601 2.330337
4.4343052 5.1977229 2.191175
4.4943671 5.2805262 2.039778
4.594069 5.4103971 1.901377
4.67415 5.5176759 1.749619
3.4370439 4.0668759 1.152365
4.7606349 5.6330118 1.596136
4.9204578 5.8358669 1.461414
3.5637341 4.2367058 0.92514098
3.669646 4.3729119 0.818304
3.398267 4.0590968 0.63697302
3.9151461 4.6764879 0.73385602
3.6600471 4.3821058 0.560691
3.4619391 4.154707 0.41613299
3.530072 4.246501 0.312702
3.4543221 4.1652021 0.202427
3.521358 4.256093 0.106465
4.1587081 5.0264258 0.125735
3.88627 4.7082601 0.014633
3.485122 4.2322612 -0.072016999
3.373215 4.1060791 -0.146258
3.4955511 4.2650781 -0.222706
3.6726961 4.4918451 -0.30122101
3.4843509 4.2716141 -0.340794
4.0803719 5.0260782 -0.49814701
3.73083 4.6394081 -0.51901102
3.2865691 4.12605 -0.370305
3.4865911 4.3980889 -0.29137
4.030673 5.0844102 -0.33683899
3.387882 4.2837791 -0.220567
3.3707609 4.2723141 -0.14977901
3.343895 4.2484078 -0.071018003
3.6301191 4.623086 0.014089
3.6382611 4.6445589 0.113711
3.3756449 4.3196249 0.205081
3.67329 4.7117658 0.33831301
3.5257471 4.5333681 0.44191101
4.8185201 6.1956029 0.60394502
3.6329491 4.6824131 0.58199602
3.4711871 4.4846601 0.68236798
3.2160771 4.1650591 0.75431001
3.235209 4.1999049 0.88591301
4.7864542 6.228653 1.5039099
4.3866401 5.7221241 1.560389
4.218142 5.5155759 1.680011
4.2003789 5.5054641 1.855059
4.5465388 5.9735432 2.2082541
3.9501929 5.2025609 2.0949769
4.4615302 5.8760118 2.366164
4.6376371 6.122694 2.6679771
4.146914 5.4880562 2.572679
3.966038 5.2613859 2.64007
3.906774 5.2078738 2.951112
3.8349991 5.1245928 3.0657351
3.7810171 5.064702 3.1860299
3.739538 5.0212889 3.308032
3.6357269 4.8937588 3.363924
3.5347941 4.7694569 3.4075699
3.7551689 5.0791349 3.758137
3.5468929 4.809094 3.6726501
3.540602 4.8122482 3.778513
3.0766871 4.1919112 3.3729939
3.5155039 4.7897892 3.8540721
3.4648321 4.7437968 3.9644549
2.9457181 4.1127472 3.4637001
2.9549561 4.145956 3.374455
3.172024 4.461462 3.5509491
3.1628881 4.4595628 3.4578021
3.5921681 5.0648341 3.92711
3.0915761 4.369771 3.289886
3.5954399 5.081954 3.8260701
3.319607 4.703649 3.4252729
3.4883411 4.9549322 3.47826
3.561604 5.0715089 3.419482
3.5521259 5.0705171 3.271126
3.5497921 5.0797391 3.1239121
5.0837469 7.2928381 4.2579899
3.6902821 5.3069758 2.930057
4.5412321 6.6123128 2.572607
3.985163 5.8170991 2.0742071
4.4630642 6.563612 1.71776
4.2749281 6.302671 1.45803
3.1449029 4.648242 0.937832
3.3125269 4.9082589 0.84881097
3.169215 4.7077022 0.68284601
3.1757519 4.7292519 0.55941999
3.146713 4.6977811 0.435083
3.191534 4.7766929 0.32530999
3.4371419 5.157238 0.231847
3.192682 4.802526 0.111148
4.2034602 6.3389139 0.018231001
3.1647401 4.7845492 -0.075352997
3.2826681 4.9753938 -0.164058
3.3194051 5.0438018 -0.24384999
3.8220129 5.807508 -0.28077301
3.7282979 5.6794538 -0.35270301
3.311722 5.057673 -0.37374401
3.5691969 5.4785991 -0.50313401
3.5277929 5.470448 -0.56747299
3.4705031 5.4368868 -0.452797
3.1629751 4.9805861 -0.30630201
3.2433469 5.1202679 -0.24477801
3.2516279 5.1465459 -0.16755199
3.883266 6.1462779 -0.2001
3.099457 4.9183459 -0.076364003
3.097729 4.928278 0.013952
3.0871849 4.9241958 0.112015
3.1673069 5.0650482 0.223473
3.0370519 4.8693128 0.32497001
3.2095261 5.1591849 0.46753499
3.294172 5.308979 0.61356401
3.2174661 5.1988168 0.73564798
3.540864 5.7362571 0.96630001
3.486336 5.6626148 1.1112241
3.513905 5.722261 1.285601
3.9087501 6.4151149 2.0123861
4.3011432 7.1901212 3.7978849
4.7964268 8.0605593 4.7281809
3.165957 5.3345919 3.2776661
2.968102 5.0278101 3.3513169
3.7267029 6.329649 4.3701758
2.9973371 5.1044068 3.6380911
3.0754881 5.2937031 4.1317148
3.0156629 5.2467499 4.2344289
2.999712 5.2756128 4.1551971
2.6339519 4.6701732 3.478025
2.8464291 5.0606418 3.6721439
2.7666881 4.932292 3.47577
3.1119151 5.5628791 3.7923951
4.8233209 8.6222 5.8780332
3.6164789 6.4825048 4.2608318
3.455225 6.2104301 3.921438
3.743583 6.7471652 4.0769949
3.2765989 5.9543529 3.08075
3.477365 6.3366342 3.087816
3.69996 6.779562 2.888659
3.93449 7.2292871 2.8589449
3.567467 6.573091 2.398535
3.8362551 7.0879641 2.3708041
3.8804419 7.1895728 2.188602
3.9584489 7.375051 1.811464
3.2526829 6.0770831 1.319635
4.2792611 8.0174427 1.518661
3.0226259 5.6789379 0.922171
2.931469 5.5231538 0.75237298
2.88223 5.445653 0.60506099
2.815598 5.3347411 0.46416
2.7820339 5.2860341 0.338256
2.8093541 5.3681931 0.116775
3.722903 7.1339908 0.019288
2.7999201 5.3805628 -0.079673998
2.8623641 5.516222 -0.171047
3.063174 5.9200292 -0.26919201
3.2479069 6.29496 -0.36773801
3.1926439 6.2055578 -0.43143699
3.17172 6.2002611 -0.53589302
3.0952761 6.1208611 -0.59795702
2.9602489 5.92205 -0.46477199
2.8528619 5.7405558 -0.33279499
2.8925099 5.8373432 -0.263098
2.680645 5.4256172 -0.16656201
2.8275599 5.7397771 -0.084048003
2.6125939 5.3189878 0.014204
2.706629 5.5266728 0.118605
2.817647 5.7703242 0.24022099
2.7555261 5.6597729 0.35646099
2.6955931 5.5530758 0.47497699
2.841126 5.870234 0.64043999
2.787415 5.7763619 0.77172601
2.914036 6.0567508 0.963462
3.6079969 7.4991322 1.1929049
3.0275099 6.3113642 1.169735
3.0604041 6.3989892 1.357995
5.1014538 10.698574 2.5651131
3.6356721 7.647449 2.048748
4.3437662 9.1640635 2.716733
4.7700639 10.124069 3.589252
5.2979269 11.278316 4.3282852
4.144731 8.8768501 3.925514
3.4093649 7.3240461 3.4512041
3.4193549 7.4128342 4.1151018
3.3565049 7.343677 4.6346941
3.400563 7.4629798 4.8794422
2.466845 5.4304948 3.665843
2.619076 5.7834172 4.015305
3.765054 8.6591778 6.2583218
2.2760501 5.2512898 3.712579
2.6686201 6.1964002 4.146523
3.179647 7.4066081 4.7955871
2.8543489 6.6916671 4.0141959
3.364805 7.913784 4.5436978
3.2309849 7.6482968 3.976773
3.0171289 7.1652298 3.5241599
3.923537 9.3786116 4.0735488
4.035574 9.6779261 3.9217241
3.2471671 7.8383679 2.7210269
5.2636328 12.747724 4.0569792
4.500371 10.935198 3.1677539
4.206912 10.289884 2.405838
2.6796341 6.5760341 1.359499
2.368974 5.8329959 1.052053
2.494411 6.1623402 0.95296198
2.459023 6.0952592 0.79084003
2.5925879 6.4478688 0.68246502
2.454886 6.1259141 0.50781399
2.401088 6.0118761 0.36658099
2.3190341 5.826035 0.234576
2.627938 6.6244588 0.137355
2.605659 6.5905862 0.016987
2.5206931 6.4192119 -0.18980999
2.4345911 6.221139 -0.269797
2.389437 6.1266842 -0.34140101
2.4384749 6.273931 -0.41613501
2.4659081 6.3883548 -0.52691698
2.625942 6.8980908 -0.643466
2.3999829 6.3935881 -0.479408
2.36233 6.3379512 -0.35114801
2.512778 6.765554 -0.291466
2.4532869 6.6289201 -0.19454201
2.4141281 6.5464549 -0.091652997
2.3474121 6.388351 0.016313
2.2545819 6.1799831 0.24608999
2.4083581 6.6493859 0.54417902
2.2593949 6.2607698 0.65363401
2.273972 6.324122 0.80864
2.272562 6.343327 0.96587402
2.175493 6.0946321 1.081391
2.7826059 7.8240991 1.589843
3.64783 10.256927 2.0841889
3.293714 9.2954044 2.1342449
2.4891579 7.050776 1.809116
3.0751281 8.7105913 2.234997
2.4910121 7.081974 2.0110919
2.9615231 8.4196386 2.3909531
2.4855609 7.119267 2.418385
3.516386 10.147445 4.0166578
2.335243 6.7898922 3.0673871
3.312947 9.632638 4.3516202
2.221525 6.4837098 3.10676
2.948354 8.6377497 4.3715992
2.7246971 8.0129147 4.266346
2.738292 8.0836697 4.509594
3.7619171 11.148122 6.4920878
3.193454 9.4999132 5.7527952
3.237525 9.6682062 6.066195
2.366852 7.3213701 5.3839049
3.073391 9.8981428 6.1664119
2.971621 9.6097574 5.7737031
2.965251 9.6287947 5.559195
2.5843079 8.4616251 4.4599018
2.892036 9.5484905 4.5224519
2.9860661 9.9004078 4.4176192
2.992681 9.9641609 4.168767
2.9709871 9.9337692 3.8779349
2.8957429 9.7233391 3.5240531
2.1874981 7.3764782 2.4675529
2.0501609 6.9429178 2.129519
2.8098021 9.5154591 2.9185641
2.2542019 7.6667051 2.1407311
2.7972491 9.5136471 2.6564419
2.8166609 9.6209183 2.4254799
2.8689959 9.8420334 2.218642
2.789973 9.6125135 1.916273
2.9346211 10.154899 1.766387
2.8969719 10.068425 1.501809
2.55129 8.9059486 1.114702
2.4744179 8.6756306 0.88594401
1.968586 6.9326148 0.554537
2.0029039 7.1163402 0.276557
1.914729 6.833499 0.136777
1.97566 7.0825891 0.017624
1.919382 6.911828 -0.094227001
1.926237 6.9679151 -0.198972
1.872507 6.804297 -0.28501001
1.929054 7.041718 -0.37904099
1.938959 7.1102948 -0.45562601
2.138154 8.0616379 -0.72710198
1.907284 7.3988318 -0.39666799
1.8026201 7.026545 -0.292959
1.800686 7.0530071 -0.200348
1.800398 7.0862322 -0.096040003
1.772221 7.0094099 0.017329
1.883773 7.4872251 0.148801
1.842325 7.358573 0.28377199
1.935913 7.7706518 0.453477
1.94611 7.8504691 0.62235802
2.2547059 9.1407394 0.92454797
2.124047 8.6978884 1.283433
2.1648021 8.9096403 1.532176
2.409194 10.016844 2.229641
1.724367 7.2805858 2.200917
2.262867 9.6039944 3.164454
2.3490951 10.022059 3.575568
2.2567439 9.7297287 4.0021348
2.2716551 9.8459234 4.3166561
2.826463 12.381836 6.0830889
2.264467 9.9732504 5.155355
2.3029599 10.197586 5.5238209
2.1393001 9.5763741 5.6323228
2.13715 9.6192808 5.8626928
1.762711 8.0218468 5.1944542
2.7854519 12.890264 8.9000263
1.623889 8.0571318 5.198195
1.849727 9.2890224 5.63516
2.0376959 10.422406 5.6111822
1.9893529 10.23832 5.257535
1.918421 10.060325 4.3751912
1.366133 7.2095599 2.9402299
2.0656891 10.97096 4.1753478
1.8106951 9.741066 3.1775849
1.740249 9.484663 2.5832131
1.805019 9.9024076 2.4353571
1.815886 10.027988 2.2055271
1.831064 10.316665 1.501951
1.891039 10.727026 1.31062
1.526436 8.7779312 0.68557501
1.410392 8.166832 0.46930701
1.413154 8.239851 0.31274301
1.3695509 8.0416965 0.157222
1.526875 9.0287771 0.021948
1.370883 8.1639881 -0.108741
1.380393 8.2795382 -0.231024
1.59856 9.7272472 -0.511765
1.284941 8.7710218 -0.243983
1.159485 8.1794481 0.30904201
1.252772 8.9119606 0.50961798
1.264375 9.5575418 2.086441
1.257326 9.589859 2.340116
1.182819 9.1028147 2.459007
1.307845 10.157252 3.0125389
1.221819 9.5770082 3.0963521
1.254187 10.015882 3.7752941
0.77917898 8.4403315 5.0430608
0.92188197 10.519856 5.3232541
0.98137802 11.350264 5.4567242
0.84182799 10.148095 4.0802441
0.88655603 10.839997 4.0678029
0.71820301 9.3139687 2.5024791
0.724823 9.5443373 2.3158939
0.742778 10.774476 1.0605921
0.63787198 10.107864 0.024276
0.61306697 10.087561 -0.27815399
0.39415801 12.44197 1.497817
0.36313701 11.899769 1.706562
0.22894 11.402154 4.265378
-0.051614001 9.5135641 6.5138569
-0.94853801 10.237823 5.6732101
-1.038246 6.6888919 -0.52085602
-0.95969999 5.9986749 -0.529607
-1.614269 6.1045032 -0.485872
-1.502854 5.5781879 -0.50363898
-1.1161439 -3.172184 2.0007601
-1.142873 -3.260154 2.1232669
-1.141171 -3.267364 2.1888549
-1.077212 -3.0957179 2.1262159
-0.99013901 -2.8667679 2.046838
-0.94900602 -2.789335 2.061604
-1.145385 -3.418179 2.46826
-1.023894 -3.079185 2.1507461
-1.040952 -3.1425841 2.14744
-1.010044 -3.061094 2.038655
-1.024978 -3.1184511 2.0174961
-1.060519 -3.2391729 2.0278599
-1.135857 -3.482857 2.102787
-1.047416 -3.224297 1.870618
-0.89252698 -2.82493 1.108031
-0.99071503 -3.148355 1.146466
-0.98134798 -3.1311951 1.052375
-0.90158403 -2.888361 0.89007503
-0.94169402 -3.029151 0.84977198
-0.77098697 -2.4901619 0.63070899
-0.85562599 -2.7748561 0.62842798
-0.862652 -2.809159 0.562603
-1.085163 -3.5483229 0.62005699
-0.86174703 -2.829448 0.42398
-0.90109801 -2.9709599 0.37355801
-1.226711 -4.0613751 0.41663301
-0.834571 -2.7746389 0.22295
-0.88405502 -2.951509 0.17447101
-0.75719702 -2.5386281 0.099101
-0.83863002 -2.8235431 0.056768999
-0.97364497 -3.292026 0.0082280003
-0.766379 -2.6022611 -0.035634
-1.030784 -3.5000551 -0.047928002
-0.76005602 -2.5918319 -0.074339002
-0.77214003 -2.6443281 -0.111252
-0.805206 -2.7694349 -0.149729
-0.85817701 -2.9643879 -0.19079
-0.78306299 -2.7284639 -0.21842401
-0.82768202 -2.9349599 -0.26584601
-0.77340001 -2.7917221 -0.20336001
-0.74480599 -2.712826 -0.14604799
-0.76103699 -2.7845199 -0.116578
-0.74031103 -2.7210209 -0.077613004
-0.73084903 -2.6985421 -0.036724001
-0.73638803 -2.7314701 0.0067810002
-0.71780998 -2.6748459 0.053376999
-0.77470398 -2.900214 0.112297
-0.80734998 -3.036468 0.17792
-0.78770798 -2.976429 0.236913
-0.78561598 -2.9824281 0.30287299
-0.90948099 -3.46889 0.43149799
-0.75531399 -2.8944969 0.42880401
-0.841506 -3.240088 0.559403
-0.79834801 -3.0885501 0.61074001
-0.92337298 -3.5893321 0.80208701
-0.68174601 -2.6628039 0.665043
-1.064032 -4.1776218 1.154851
-1.0571769 -4.1708069 1.26569
-0.71406102 -2.8308589 0.93632603
-0.73318702 -2.9208801 1.04606
-1.030095 -4.1037078 1.469668
-0.74974 -3.0014789 1.157075
-0.77631998 -3.1232221 1.289536
-0.75425398 -3.0494659 1.341982
-0.63623798 -2.5851109 1.206785
-0.61697501 -2.5193751 1.242364
-0.86801898 -3.562273 1.84824
-0.895401 -3.693157 2.0078981
-0.82599503 -3.42415 1.943568
-0.826217 -3.442481 2.0320971
-0.74330902 -3.112874 1.9041229
-0.77249902 -3.251714 2.0541501
-0.78127801 -3.3056121 2.148231
-0.79306602 -3.3728859 2.2475741
-0.81852102 -3.517535 2.4372981
-0.78811198 -3.4591069 2.48241
-0.79034299 -3.5443311 2.4863391
-0.80252099 -3.638453 2.4695179
-0.77888399 -3.5507519 2.358048
-0.737468 -3.3805671 2.1883199
-0.70460302 -3.2479219 2.04263
-0.72510201 -3.3611169 2.0457561
-0.69982898 -3.2622089 1.915109
-0.72297901 -3.3892021 1.912166
-0.67000198 -3.1587031 1.7061059
-0.72605401 -3.4425399 1.773518
-0.61731303 -2.9437571 1.440641
-0.57201999 -2.7435181 1.270366
-0.630723 -3.042649 1.327446
-0.76258701 -3.700232 1.513819
-0.60856003 -2.97018 1.133954
-0.64178401 -3.1508391 1.1169339
-0.65367401 -3.2282391 1.056345
-0.85283101 -4.2369108 1.2713341
-0.78913498 -3.9440069 1.077481
-0.817532 -4.1105642 1.014027
-0.589867 -2.9838409 0.65825301
-1.118889 -5.6599011 1.248607
-0.56884301 -2.8950591 0.56485999
-0.55258697 -2.829571 0.48177201
-0.60241801 -3.10376 0.45321
-0.61002499 -3.1624711 0.38753501
-0.59152699 -3.085701 0.308541
-0.66816801 -3.5073681 0.274737
-0.54894799 -2.8997691 0.16712099
-0.71571302 -3.7806871 0.21789099
-0.53704399 -2.8548951 0.108671
-0.60621601 -3.243217 0.063589998
-0.61609799 -3.3172629 0.0080869999
-1.05635 -5.6877198 0.013866
-0.52095002 -2.8230889 -0.037709001
-0.53376198 -2.9113541 -0.081464998
-0.53339601 -2.9283919 -0.12021
-1.023104 -5.6169291 -0.230574
-0.59322101 -3.2782731 -0.172956
-0.96167201 -5.3144178 -0.280379
-0.58786798 -3.2702379 -0.205414
-0.56961799 -3.21123 -0.25095299
-0.564156 -3.268085 -0.289121
-0.60562098 -3.6075161 -0.256791
-0.46701801 -2.8217621 -0.148485
-0.492524 -2.9973271 -0.122672
-1.076262 -6.5497522 -0.268062
-0.530644 -3.2527521 -0.090709001
-1.0582401 -6.5342922 -0.086951002
-1.225608 -7.5677361 -0.100702
-0.47793499 -2.9728179 0.0072169998
-0.96920401 -6.0285711 0.014635
-0.455351 -2.853358 0.055690002
-0.497949 -3.14358 0.119064
-0.45495701 -2.8937609 0.165877
-0.58535397 -3.7513831 0.29215199
-0.85389698 -5.4724078 0.42618299
-0.46420801 -2.997679 0.29788801
-0.447889 -2.9145169 0.354803
-0.64710099 -4.2108402 0.51261199
-0.498263 -3.2674429 0.47378501
-0.50540799 -3.340137 0.56451201
-0.484566 -3.2275529 0.624843
-0.43284801 -2.905925 0.63583201
-0.87851101 -5.8978858 1.290488
-0.632716 -4.2816219 1.0471849
-0.60639203 -4.1363821 1.119918
-0.51412702 -3.5354481 1.050932
-0.48232499 -3.3438959 1.0835249
-0.457259 -3.196219 1.121528
-0.490648 -3.4580729 1.306307
-0.53377301 -3.7935381 1.53502
-0.452151 -3.240551 1.3977669
-0.49928701 -3.6088059 1.6514339
-0.48634899 -3.5454781 1.714082
-0.48518699 -3.5675831 1.81493
-0.55607301 -4.1244588 2.1989701
-0.50151497 -3.7525451 2.0889859
-0.487472 -3.6798151 2.1306651
-0.474686 -3.615387 2.169493
-0.443243 -3.4063611 2.1112239
-0.46711299 -3.655791 2.3907001
-0.39513999 -3.585465 2.216994
-0.402987 -3.6958399 2.2119319
-0.408797 -3.7897151 2.1879139
-0.39331901 -3.6861861 2.045505
-0.34816399 -3.2990749 1.752823
-0.354031 -3.430589 1.651877
-0.40863001 -4.0049219 1.8248349
-0.40163201 -3.9819031 1.709691
-0.421307 -4.2258148 1.701651
-0.38492 -3.9065139 1.46815
-2.2839861 -23.179955 8.7115164
-0.453134 -4.653934 1.6242141
-0.511087 -5.3127069 1.711712
-0.52098602 -5.4819918 1.619857
-0.42167899 -4.4921641 1.208673
-0.53443301 -5.6933441 1.531866
-0.34551501 -3.72702 0.90561599
-0.51535702 -5.5590768 1.350781
-0.259096 -2.830368 0.61510199
-0.35300499 -3.85623 0.838045
-0.302517 -3.347317 0.64345902
-0.27309999 -3.0612259 0.51358199
-0.29372001 -3.3358641 0.480028
-0.297777 -3.427274 0.413937
-0.29877299 -3.4853909 0.34352899
-0.33948401 -4.0147619 0.31002799
-0.262694 -3.150001 0.178994
-0.27599901 -3.3563149 0.12597901
-0.273956 -3.3792839 0.065343998
-0.310011 -3.879622 0.0093289996
-0.27669901 -3.513818 -0.046298999
-0.28570199 -3.6825349 -0.101659
-0.26275101 -3.438164 -0.139257
-0.27018699 -3.589999 -0.186902
-0.37638801 -5.001102 -0.26036701
-0.265962 -3.589288 -0.222506
-0.374309 -5.0514798 -0.31314999
-0.25483701 -3.550344 -0.273893
-0.251378 -3.744338 -0.32716101
-0.252002 -4.0321898 -0.283611
-0.22292 -3.7043011 -0.19265699
-0.24325 -4.1214619 -0.16673701
-0.225951 -3.9049871 -0.107657
-0.18244299 -3.2175541 -0.042332999
-0.232766 -4.105051 -0.054009002
-0.20237 -3.643374 0.008746
-0.19073801 -3.507165 0.067694999
-0.278804 -5.126471 0.098949999
-0.17559899 -3.2990191 0.123587
-0.222818 -4.186142 0.15682
-0.170857 -3.281291 0.18606099
-0.167245 -3.285022 0.25310099
-0.15311199 -3.0773721 0.30257899
-0.20499 -4.12006 0.405101
-0.194841 -4.009316 0.482986
-0.176788 -3.7266741 0.53479898
-0.14856499 -3.210006 0.53698701
-0.139156 -3.0837979 0.59099698
-0.16348 -3.718246 0.805471
-0.26398 -6.0040689 1.3006409
-0.33610401 -7.6444721 1.655996
-0.240327 -5.6137338 1.359482
-0.22936501 -5.5059199 1.4762321
-0.317774 -7.6281838 2.045248
-0.214029 -5.2845869 1.555796
-0.31120199 -7.6838832 2.2621551
-0.89260298 -23.375896 8.1256647
-0.81265301 -23.410915 10.007115
-0.785932 -23.421577 10.622849
-0.75847799 -23.411474 11.219287
0.052372999 -5.6772161 1.670089
0.070868 -7.6821809 2.2598979
0.079451002 -7.652741 2.0501649
0.088831 -7.6993208 1.862968
0.042598002 -3.35603 0.72636199
0.047375001 -3.420543 0.65492898
0.077931002 -5.1933951 0.867948
0.061728001 -3.8194549 0.54756999
0.061547 -3.5538299 0.42767501
0.063770004 -3.4518039 0.33903399
0.07119 -3.626579 0.27911001
0.073827997 -3.551542 0.20115601
0.081532001 -3.529403 0.068040997
0.089189999 -3.676908 0.0088160001
0.130264 -5.1259031 -0.067354001
0.101552 -3.662606 -0.147973
0.111754 -3.869174 -0.20095199
0.179498 -3.8813801 -0.106942
0.171372 -3.528831 0.0084680002
0.188282 -3.786618 0.073071003
0.193588 -3.7199991 0.21093699
0.188673 -3.5464859 0.27327901
0.21342701 -3.9262891 0.386141
0.216233 -3.894866 0.469367
0.30208701 -5.3298788 0.76523602
0.32034901 -5.5388131 0.927118
0.321031 -5.4415379 1.043599
1.5876859 -26.392195 5.7220612
1.712917 -26.437433 8.4965668
0.58531803 -4.848877 0.70010602
0.93551201 -7.749948 1.118978
0.62632102 -5.1386318 0.62287599
0.944888 -7.7522979 0.93968999
0.94991702 -7.7193599 0.76377898
0.959001 -7.7196651 0.59857398
0.96376598 -7.6853981 0.43860799
0.68891299 -5.4427361 0.205231
0.67452902 -5.2800999 0.102592
0.63522798 -4.927207 0.011908
0.67453003 -5.1848559 -0.068680003
0.99831498 -7.673666 -0.101648
0.99843198 -7.6058421 -0.211133
0.67433 -5.091351 -0.207412
1.009264 -7.6201882 -0.31043199
1.014477 -7.592207 -0.39765301
1.0254771 -7.6075401 -0.47456899
1.036935 -7.5606651 -0.58722001
1.099187 -7.4992199 -0.53206903
1.116426 -7.4961128 -0.39345399
1.124192 -7.4889178 -0.305832
1.137367 -7.5175691 -0.209262
1.150913 -7.5481019 -0.100295
0.74540502 -4.8510509 0.011764
0.87038797 -5.578558 0.21121199
1.058448 -5.8482742 3.2793789
1.723449 -9.2774506 5.9679022
1.179599 -5.9286628 4.138813
1.867308 -9.163332 5.9144511
4.9525042 -23.604362 12.74347
5.060955 -23.577665 10.301754
5.090457 -23.582176 9.6668673
5.1154418 -23.565756 9.0190878
5.1419339 -23.556185 8.3750391
5.1662149 -23.536753 7.7282062
5.1948762 -23.537313 7.0904012
5.2232461 -23.536318 6.4584198
5.2492838 -23.52499 5.8318281
1.769825 -7.7624159 1.141255
1.77614 -7.748704 0.95653403
1.784899 -7.7457719 0.78058898
1.793346 -7.7415061 0.61146301
1.797953 -7.720716 0.44889799
1.807143 -7.7197552 0.29659399
1.815411 -7.7148089 0.152751
1.821903 -7.7024369 0.018971
1.825568 -7.6782808 -0.103671
1.830204 -7.6583629 -0.216718
1.838257 -7.6529021 -0.317857
1.849641 -7.6612711 -0.409163
1.857468 -7.6548238 -0.48697099
1.8675129 -7.6192808 -0.60363799
1.946553 -7.6353889 -0.55314702
1.979848 -7.6915798 -0.41232499
1.9955519 -7.7156181 -0.321852
2.012388 -7.7437601 -0.220212
2.0247231 -7.7543302 -0.105273
2.04071 -7.7787461 0.019276001
2.0445001 -7.756587 0.15460099
2.0634151 -7.7917752 0.30152801
2.081851 -7.8248172 0.458509
2.099417 -7.8542228 0.62558001
2.1095109 -7.8555632 0.79876697
2.124402 -7.8746452 0.98138201
6.524116 -23.638659 5.9331841
6.5752831 -23.717615 6.5932341
6.6750121 -23.969744 7.3192701
6.7572122 -24.049606 8.6772423
6.7399831 -23.777025 9.9026814
6.8919759 -24.100838 11.362691
2.030827 -6.9794211 4.0108142
2.59446 -8.878231 5.309238
2.602488 -8.8298197 5.6576819
2.0660379 -6.9799852 4.6038098
1.872463 -6.2463322 4.4007859
2.2418151 -7.3546228 5.3798919
2.3072419 -7.4456792 5.337069
2.0027699 -6.384727 4.3405929
2.240422 -7.0849428 4.566988
2.7428 -8.6044149 5.1837878
2.938657 -8.9674072 3.781199
2.697984 -7.8924308 1.003602
2.6861179 -7.8281589 0.81274301
2.70274 -7.8470588 0.63862199
2.7285321 -7.8922749 0.47286901
2.7555151 -7.9406042 0.31442499
2.783221 -7.9905849 0.16308001
3.0645471 -8.5431499 -0.69838798
3.017962 -8.2924204 -0.76931101
3.0603249 -8.2893791 -0.62030298
3.0742099 -8.268095 -0.45794901
3.0920351 -8.2867136 -0.3572
3.1155801 -8.3204508 -0.244533
3.1215451 -8.3071051 -0.116569
3.1370471 -8.3191557 0.021311
3.151402 -8.3280277 0.171616
3.1608181 -8.3238449 0.33307901
3.1807289 -8.347209 0.50582999
3.1864331 -8.3331909 0.68649602
3.2054911 -8.3540869 0.878712
3.216033 -8.3526964 1.076952
3.2257199 -8.3490353 1.283008
3.251543 -8.3870354 1.503168
3.272753 -8.4128933 1.728237
3.2810509 -8.4054298 1.95276
9.5266256 -24.158222 7.639008
9.5611048 -23.920916 10.322236
3.5081749 -8.7477598 4.0263391
2.2807209 -5.6492138 2.917999
3.8245389 -9.4417219 5.1350989
9.7701406 -24.039907 13.710979
4.170805 -10.161262 6.5350671
3.5717101 -8.616518 6.0504909
3.805409 -8.7483644 5.8634629
10.55369 -23.958763 13.832911
3.3649089 -7.5913162 3.977205
3.527272 -7.9328589 3.9353671
4.0964022 -9.2128363 4.570343
10.669365 -23.846792 10.468038
3.939785 -8.7784796 3.598738
3.976311 -8.8324986 3.3645849
3.816978 -8.3493528 1.986815
3.8298271 -8.3518925 1.759075
3.83266 -8.3326492 1.532671
3.8511701 -8.3474751 1.317772
3.8627679 -8.3472118 1.106698
3.869936 -8.3374157 0.90265602
3.8922091 -8.360095 0.709589
3.8919461 -8.3343163 0.520868
3.9000051 -8.3264666 0.34395799
3.9184451 -8.340703 0.177609
3.9181409 -8.3150797 0.022032
3.9214361 -8.2971983 -0.120549
3.940588 -8.3128128 -0.25319999
3.9467499 -8.3010216 -0.37120301
3.958107 -8.3001661 -0.477391
3.976676 -8.3143339 -0.56977898
3.9895451 -8.2919617 -0.70805502
4.1021109 -8.4259634 -0.81699097
4.2950692 -8.7196522 -0.682347
4.1067691 -8.2889681 -0.480243
4.1816649 -8.4156799 -0.37951499
4.5057549 -9.041687 -0.27804399
4.509933 -9.0239048 -0.132514
4.5270061 -9.0319567 0.024216
4.5465021 -9.0447159 0.195106
4.5546088 -9.0348158 0.378499
4.548317 -8.9964628 0.57084602
4.5868349 -9.0466423 0.78047901
4.6077461 -9.0619106 0.99833602
4.6513958 -9.1216574 1.2320139
4.680963 -9.1534557 1.473714
4.7372332 -9.2371492 1.734742
4.7624588 -9.2599735 1.993556
4.7664728 -9.241477 2.25037
12.540863 -24.035925 8.694766
12.572662 -24.029072 9.4201155
12.624273 -24.059937 10.162151
2.750464 -5.1546741 3.0870609
5.1759911 -8.8678188 3.2930231
5.2061601 -8.8958607 3.032011
5.2556982 -8.9566984 2.7819409
5.2594109 -8.9393282 2.509434
5.2872009 -8.9628305 2.2520621
8.6057377 -14.397409 1.647182
6.063199 -10.090635 0.666619
5.4184871 -8.9238815 -0.13713799
5.4105968 -8.8876724 -0.28637999
5.307107 -8.6950207 -0.411394
5.3049531 -8.6689329 -0.52762902
5.3454099 -8.712368 -0.63191497
5.608551 -9.0940027 -0.82213801
5.5705328 -8.9394789 -0.91825801
5.4917412 -8.7228489 -0.72359401
5.4491591 -8.6109467 -0.52902901
5.5572929 -8.7593899 -0.41894001
5.5618 -8.7441254 -0.28522399
5.6751618 -8.8995762 -0.138648
6.6198068 -10.301885 0.458087
6.664927 -10.319508 0.94527501
5.9671369 -8.9617548 4.0268168
5.1372571 -7.6193862 4.6323032
5.0820198 -7.518671 4.7950349
5.6894751 -8.3963861 5.5963941
5.6567411 -8.3065767 5.9792719
5.623529 -8.2372971 6.1299849
5.5862088 -7.9433012 6.6488791
5.7156 -8.0874071 6.5638351
5.8906698 -8.3146896 6.6099348
5.067142 -7.1172681 5.3696928
5.0627971 -7.0937719 5.1852059
5.0332589 -7.0351491 4.9652448
5.7171488 -7.9520512 5.1748452
8.9384289 -12.104218 3.6405721
10.902773 -14.481583 1.026472
6.6121621 -8.6567526 -0.43992299
6.5524879 -8.558074 -0.55956602
6.6559482 -8.6723576 -0.67584902
6.762197 -8.7686901 -0.85205901
6.913363 -8.8793344 -0.98105001
6.7466559 -8.5829153 -0.76638001
6.7963338 -8.60501 -0.56926101
6.902936 -8.7192125 -0.44912401
7.4554038 -9.3946791 -0.330098
7.332149 -9.2174025 -0.15471201
7.4214139 -8.961834 4.3519049
6.9921551 -8.4037685 4.6702232
6.9249072 -8.3033781 4.9010429
6.1644101 -7.322257 5.281404
6.0980778 -7.0589628 6.5270748
7.3415742 -8.3799858 7.3842449
6.6879559 -7.5983582 6.4019318
7.3075171 -8.1297998 4.6698298
7.9930811 -8.8512077 4.4605012
13.498941 -14.672567 3.3316929
8.8694506 -9.4411812 -0.170158
8.3158741 -8.7905216 -0.62820899
