# .PCD v0.7 - Point Cloud Data file format
VERSION 0.7
FIELDS x y z
SIZE 4 4 4
TYPE F F F
COUNT 1 1 1
WIDTH 1545
HEIGHT 1
VIEWPOINT 0 0 0 1 0 0 0
POINTS 1545
DATA ascii
5.8344469 6.1694932 5.8138852
3.3433461 3.5518301 3.2330239
5.3435249 5.6767368 5.1672039
5.416975 5.768167 5.1329579
5.5670199 5.9417462 5.1495538
5.6275158 6.0203242 5.0649481
5.7335091 6.1480041 5.0016451
6.0034032 6.4524088 5.058835
6.1222138 6.5954609 4.9654469
6.685183 7.2355852 4.9658499
6.4922652 7.0431681 4.5880189
5.4970908 5.9914179 3.4735961
7.378984 8.0425396 4.6627588
5.63904 6.1748462 3.1275699
4.7345252 5.2086349 2.2574451
4.7432432 5.2304101 2.077029
4.77876 5.281899 1.908105
4.828393 5.349225 1.743505
3.7646599 4.1804938 1.217514
4.9092321 5.4514918 1.587675
4.948575 5.5080419 1.4176019
3.7926149 4.2312622 0.949534
4.555614 5.082509 1.1405621
3.4028201 3.8052609 0.731749
3.520247 3.945797 0.63625598
3.455919 3.882755 0.51045603
3.4683831 3.9058781 0.401939
4.1107202 4.64009 0.35103399
3.493573 3.9527011 0.19734301
3.924552 4.4507351 0.114366
3.627496 4.1234889 0.013164
3.7747681 4.3009539 -0.075168997
3.396605 3.8791621 -0.141911
3.491853 3.9972939 -0.214353
3.512917 4.0308409 -0.27757901
3.389035 3.8978331 -0.31931999
3.4932389 4.0365672 -0.41076201
3.5000801 4.082653 -0.468813
3.3216879 3.911185 -0.360221
3.5232251 4.1680732 -0.28333399
3.733465 4.427206 -0.23388299
3.4596641 4.1122041 -0.147908
3.467463 4.1312122 -0.070848003
3.5541191 4.244451 0.013269
3.5850711 4.2915378 0.107776
3.6857309 4.4224572 0.215361
3.6594059 4.401248 0.32412201
3.394733 4.092587 0.40915099
3.6375201 4.3956571 0.56029999
3.3816619 4.0961428 0.63912302
3.8468771 4.6596498 0.72704703
3.5090671 4.2605429 0.79120201
3.7351029 4.5457268 0.98315799
3.511728 4.2840009 1.060522
4.8728328 5.9444308 1.471568
4.634634 5.6807132 1.773841
4.5201869 5.5534668 1.918197
4.4406252 5.4686699 2.072232
4.3210058 5.3340158 2.2015581
4.2471571 5.2553139 2.3470719
4.1680961 5.1697488 2.4837
4.0980878 5.095026 2.6199851
4.0373359 5.0314412 2.755856
3.979794 4.9715419 2.8867071
3.9480801 4.9436922 3.030313
3.9061179 4.9028082 3.1599231
3.8515561 4.8458552 3.270659
3.8024859 4.7955489 3.3769679
3.77932 4.7777138 3.49668
3.717093 4.710289 3.5699739
3.6905489 4.6878319 3.6668899
3.4756081 4.4253669 3.558826
3.6136589 4.6121678 3.80074
3.5669091 4.5743341 3.914669
3.476692 4.5016122 3.979882
3.4931769 4.5666432 3.9365611
3.443331 4.5232148 3.7678101
3.53703 4.657506 3.7936649
3.5776479 4.722362 3.7469771
3.5962629 4.7584128 3.665843
3.6246891 4.8076172 3.5822461
3.6439731 4.844882 3.479754
3.66255 4.881381 3.367306
3.691782 4.9322581 3.2552421
3.7414119 5.0106921 3.1522701
3.7917769 5.0904579 3.0402491
3.8716159 5.2102551 2.9424419
3.6844311 4.9704061 2.6431069
4.0173759 5.4327302 2.707392
3.690212 5.0146279 2.1626661
4.4127378 6.0110722 2.391511
3.902524 5.32901 1.942982
4.3270011 5.952035 1.59254
3.050808 4.206831 0.99489701
3.227061 4.4607558 0.92003101
3.294328 4.564887 0.80695301
3.1729701 4.4075112 0.653458
3.573081 4.9754658 0.60154301
3.570415 4.983953 0.471755
3.481204 4.8713732 0.339048
3.1695039 4.4461012 0.20425899
3.3426831 4.700582 0.111167
3.3690791 4.749362 0.013957
3.4678259 4.90061 -0.07886
4.173636 5.898036 -0.094910003
3.4149981 4.8378711 -0.162985
3.29284 4.6763272 -0.230978
3.8235171 5.4433789 -0.345341
3.43188 4.8979139 -0.36973301
3.1107061 4.461545 -0.418511
3.71574 5.3293171 -0.49991199
3.1190619 4.5181289 -0.47862601
3.65447 5.2936959 -0.56078601
2.946799 4.3112879 -0.36659399
3.184907 4.6829648 -0.29401401
3.1991091 4.7156072 -0.23013
3.1950259 4.7213759 -0.156905
3.9872 5.891993 -0.19580799
3.4064119 5.0463729 -0.079976
3.1919489 4.7405171 0.013698
3.2555361 4.8471041 0.112535
3.4284501 5.1173749 0.230427
3.1653521 4.7365508 0.32259601
3.1141019 4.6716051 0.43201399
3.0781429 4.6292968 0.54593301
3.1708021 4.780674 0.69025302
3.2595911 4.9269652 0.846825
3.079195 4.6660519 0.93420601
3.7995501 5.7722039 1.32302
3.9632411 6.0666599 1.941226
3.141129 4.8327079 1.848527
3.2680609 5.1316948 3.2145979
3.4439299 5.4217539 3.5441251
3.885555 6.1327162 4.1672421
2.7571001 4.3740768 3.1778319
3.3122449 5.2548022 3.817692
3.2685201 5.1988001 3.8838141
3.2434239 5.172215 3.9601929
3.2106791 5.146502 4.0936761
2.7759349 4.4960179 3.697243
3.258894 5.2782378 4.3404908
3.1427381 5.1433949 4.1269488
3.149703 5.1818118 4.0191822
3.167588 5.2248902 3.9634581
4.7784529 7.9026642 5.8406868
2.8435669 4.7150941 3.3841369
2.8810451 4.7898011 3.325567
3.02724 5.0461049 3.377701
5.1304688 8.5519772 5.7244191
3.0950651 5.1864362 3.1912401
4.6840549 7.8491259 4.8296061
4.222054 7.1124401 3.9616539
6.0697012 10.252063 5.4006019
3.414685 5.939374 1.144847
3.211313 5.6006718 0.92543399
3.081305 5.3884358 0.74687803
3.0715549 5.3858819 0.60887301
2.991606 5.259872 0.465617
2.9520891 5.2044611 0.33882201
2.811429 4.969913 0.213604
2.949558 5.2282629 0.115695
2.9969831 5.3267651 0.01465
2.8789899 5.1309738 -0.077284001
2.9795749 5.3247299 -0.16793799
3.1332619 5.614665 -0.25966799
3.1993859 5.748827 -0.341557
2.9036889 5.2318039 -0.36991799
3.171828 5.7463312 -0.50505197
3.135792 5.7439609 -0.57051301
2.8080029 5.2008262 -0.414913
2.8679969 5.341588 -0.314753
3.272697 6.1123462 -0.28000599
2.8371661 5.3137259 -0.165792
2.839334 5.332696 -0.079359002
3.1682069 5.9670539 0.016193001
2.7377689 5.1708622 0.112766
2.766288 5.2394242 0.221642
3.136744 5.9410772 0.25132301
2.7963231 5.311233 0.33989599
2.753011 5.2437439 0.45572001
2.818939 5.3844962 0.596852
2.8932769 5.5421362 0.75225401
2.945884 5.6589279 0.91450799
4.1584129 8.0108366 1.5082771
3.1979201 6.1780539 1.331858
4.1685729 8.0762358 1.9669321
3.457829 6.7183561 1.828164
4.1472602 8.0578794 2.192668
3.7493939 7.3054938 2.199729
3.7577879 7.3428349 2.426399
3.76121 7.3706532 2.653841
4.3764362 8.6506548 3.8845999
3.1984229 6.3587799 3.2264891
2.9608779 5.903615 3.163362
3.5819221 7.1418991 3.8268771
3.1959829 6.390903 3.6019521
3.4061091 6.8309131 4.0330811
4.6116209 9.2755604 5.715724
3.481091 7.0221272 4.4987888
2.717696 5.5143738 3.77842
4.2074318 8.5622158 6.033648
2.3992231 4.9257908 3.6976221
2.2753339 4.7271528 3.670871
3.875495 8.051589 6.2524619
2.3333881 4.9059939 3.7196209
2.5131471 5.3640971 3.6407089
3.136487 6.755784 4.1098518
4.0590429 8.7963991 4.8834758
3.504581 7.6649609 3.600487
3.1712811 6.957355 3.0637159
3.380336 7.5082841 2.4221661
4.4534621 9.9847374 2.3660719
3.3913989 7.6274142 1.598116
2.6302831 5.9341912 1.084687
2.633652 5.9604731 0.93409002
2.7262101 6.1894178 0.81377703
2.6571 6.0515661 0.649041
2.5578189 5.8438878 0.490859
2.512146 5.7577639 0.355726
2.4658661 5.6696539 0.231286
2.347985 5.415832 0.113769
2.7035129 6.255795 0.016334999
2.640239 6.1289258 -0.08766
2.631943 6.129282 -0.18359201
2.6574881 6.2086592 -0.27274299
2.584595 6.0578041 -0.341919
2.649143 6.2291598 -0.418479
2.691287 6.3693099 -0.53205699
2.7430179 6.576879 -0.62123299
2.605144 6.328958 -0.48045799
2.5611751 6.2634768 -0.35130301
2.494539 6.1208038 -0.26693201
2.5253789 6.2171311 -0.18469299
2.667469 6.588913 -0.093373001
2.5354331 6.2837481 0.016240999
2.3575561 5.8625498 0.121785
2.271095 5.6665559 0.22837099
2.3335769 5.8420992 0.356235
2.377847 5.9730921 0.49469501
2.5078321 6.3209729 0.66780502
2.408366 6.0909028 0.78809202
2.7824421 7.0609751 1.087903
2.422111 6.1675649 1.107268
2.5744269 6.577867 1.352354
4.0650082 10.458005 2.7147319
4.0060558 10.413245 3.5782571
2.6372499 6.8789992 2.5590401
3.4981861 9.1246634 3.394444
2.959661 7.746839 3.1016469
3.6368999 9.5194941 3.8113761
3.0507619 8.0131922 3.435662
2.7776971 7.3471541 3.560492
4.2178211 11.274838 6.3605232
3.687896 9.9284286 6.0793638
2.226306 6.123847 4.397429
3.0789499 8.7204256 6.331943
3.225215 9.2369728 6.346539
3.5315361 10.267101 6.2321939
3.8100591 11.118804 6.4853239
3.613652 10.625991 5.657702
2.9190531 8.6162777 4.3573442
2.871104 8.5071955 4.0699592
2.356818 7.064405 2.7853169
3.213248 9.6688824 3.5391469
2.438334 7.365643 2.4883201
3.130574 9.4936247 2.9405761
2.339448 7.122293 2.008245
2.2792089 6.966136 1.773371
3.434314 10.537912 2.3986461
2.0619121 6.377008 1.119959
2.623003 8.1445808 1.226534
2.358427 7.3523059 0.92905802
2.1332021 6.6767879 0.68832898
2.08585 6.55479 0.52929598
2.0913031 6.5984321 0.39196599
2.1324561 6.755466 0.26500601
2.194968 6.9817352 0.141054
2.100317 6.7078481 0.016848
2.0274689 6.5016222 -0.089459002
2.055202 6.6175818 -0.190718
2.118968 6.850944 -0.28961
2.106962 6.8402138 -0.371575
2.036077 6.6374769 -0.429216
2.2312779 7.3344479 -0.58990502
2.261905 7.5609851 -0.68801999
1.929152 6.5593691 -0.47996801
2.056947 7.0543318 -0.381477
2.041496 7.0316739 -0.29570299
2.0159061 6.9737258 -0.199797
1.9533581 6.786881 -0.092768997
1.973471 6.8867998 0.017170999
1.881725 6.5955472 0.13219
2.0202861 7.112464 0.27659401
1.876281 6.6347542 0.390439
1.972514 7.0061059 0.56006098
2.5009019 8.9624977 1.1196001
2.8169069 10.14044 1.50862
2.7424841 9.9171076 1.719413
2.6133609 9.4930248 1.885059
2.662235 9.7146301 2.1799331
2.6242509 9.619772 2.4125459
2.0689509 7.618711 2.1148551
2.6003189 9.6195526 2.9312639
2.6322501 9.7828054 3.249047
2.6613359 9.9368572 3.573271
2.6259091 9.8503189 3.812777
2.71629 10.237147 4.2438998
2.558738 9.6887207 4.2809072
2.4388139 9.2782335 4.3486381
1.7757 6.8198781 3.5524371
2.163568 8.3492823 4.5572462
2.4969079 9.7286701 5.7652402
1.932866 7.7549992 5.3937178
1.8593251 7.8471951 5.345098
2.131494 9.0898809 5.904829
2.3740981 10.177687 6.4232101
2.2195499 9.5653172 5.8422408
2.2049129 9.5525789 5.6273451
2.2998209 10.070457 5.4579501
2.2270961 9.9109545 4.6046109
2.1852491 9.7778463 4.2801208
1.742063 7.880724 3.0186241
2.1308329 9.6928787 3.4472721
1.6271729 7.4429808 2.4434271
1.956735 9.000515 2.70945
2.163743 10.00873 2.7431271
2.1904459 10.189499 2.521662
2.0047309 9.4321766 1.846136
1.75608 8.3097029 1.419274
1.927173 9.1719217 1.343455
1.924063 9.2103071 1.132143
1.716984 8.2669649 0.829162
1.6958261 8.2129593 0.64529699
1.624316 7.9130669 0.45743501
1.597007 7.8261318 0.29879901
1.561494 7.697763 0.151383
1.618551 8.1242027 -0.227998
1.58144 7.9862909 -0.32879201
1.607353 8.2172861 -0.51763898
1.656404 8.5736465 -0.67191899
1.662129 9.1740913 -0.484027
1.639614 9.1100826 -0.373826
1.436928 8.0916958 -0.107953
1.429545 8.1601896 0.159669
1.449149 8.3289576 0.316257
1.416593 8.1981831 0.47111699
1.524552 8.8844976 0.69363099
1.460956 8.5735798 0.854083
1.658931 10.088823 2.212719
1.492147 9.1407766 2.240876
1.5168101 9.3595695 2.54
1.719051 10.686046 3.1838369
1.61002 10.083001 3.2746999
1.502322 9.4791775 3.3337409
1.76511 11.221519 4.2485628
1.600137 10.328984 4.4651542
1.839339 11.964825 5.4873018
1.454628 9.7641506 5.4471121
1.2031879 8.2740498 5.1387782
1.1914721 10.28131 4.4215479
1.079693 9.7109671 3.1336091
1.000455 9.1926756 2.4771211
1.016338 9.440485 2.2973161
0.97855598 9.958005 0.56660599
0.89886498 9.6052008 -0.12672199
0.72509098 10.160281 -0.133801
0.702218 10.909836 1.07359
0.52458501 10.17425 3.8103249
0.52134699 10.345264 4.1505408
0.45994499 9.568696 4.3424459
0.40522 8.6395788 4.142652
0.35168901 8.5600939 5.09726
0.171803 8.5212135 5.238265
0.16491 8.6791887 5.1647539
0.160173 10.32318 5.4551468
-0.67805201 11.51892 5.8165979
-0.895136 10.302646 5.9359918
-0.95448399 10.697484 5.6747169
-0.80457801 6.5261531 -0.50597203
-0.75197703 5.8746042 -0.51631898
-0.97506499 7.3463359 -0.52023399
-1.41359 6.1151891 -0.48295599
-1.30506 5.5285072 -0.495215
-1.609879 6.6808591 -0.48241901
-2.204392 6.4507322 -0.42144099
-1.881392 5.464087 -0.444673
-1.746712 4.9974589 -0.46151701
-0.75318003 -2.6147411 0.72893
-0.87358099 -3.0459499 0.93212301
-0.86280799 -3.0215769 1.0077879
-0.86512297 -3.042994 1.098888
-0.85150301 -3.0082951 1.169336
-0.792849 -2.813494 1.171257
-0.76484901 -2.7261939 1.209591
-1.011672 -3.622041 1.704693
-1.028551 -3.6989861 1.838923
-0.940054 -3.3959179 1.776219
-0.93771499 -3.402755 1.864944
-0.97981399 -3.5716491 2.0435729
-0.87872797 -3.2177351 1.914611
-0.98743498 -3.6323299 2.239543
-1.016116 -3.754966 2.390835
-0.989856 -3.674758 2.4069381
-0.96076798 -3.5832739 2.406482
-0.86424702 -3.2533219 2.2717161
-0.80467701 -3.0865309 2.2318759
-0.82031 -3.2071609 2.2665739
-0.93313801 -3.6837411 2.518687
-0.90559 -3.5924239 2.4032171
-0.88672 -3.5347929 2.3048451
-0.83690602 -3.3526461 2.123791
-0.745215 -3.0000761 1.839186
-0.86155498 -3.485646 2.0609701
-0.86695999 -3.5250139 2.002991
-0.86086297 -3.517746 1.913529
-0.61687499 -2.533428 1.314384
-0.87186497 -3.580637 1.857692
-0.85134 -3.5139999 1.731793
-0.67231202 -2.789119 1.300504
-0.622796 -2.5968871 1.140842
-0.845622 -3.5260069 1.549015
-0.73506898 -3.080723 1.269079
-0.682733 -2.876092 1.105579
-0.77118498 -3.265516 1.1654969
-0.81430602 -3.466006 1.141854
-1.032957 -4.4195971 1.335112
-0.99377602 -4.2742639 1.175552
-1.356899 -5.8360691 1.605096
-1.765084 -7.5916882 2.087944
-0.65157503 -2.8171999 0.69961202
-0.75142199 -3.266089 0.72530502
-0.68097401 -2.9756341 0.58441502
-0.90840399 -3.9694271 0.77959597
-0.76906902 -3.3785269 0.57901597
-0.62889898 -2.7775819 0.40823001
-0.73901802 -3.2815521 0.40473801
-0.72654301 -3.2436371 0.326426
-0.65822202 -2.9546211 0.232924
-0.60320801 -2.7225089 0.157906
-0.63522398 -2.8827779 0.110428
-0.646339 -2.949451 0.058194999
-1.395116 -6.4017272 0.015704
-0.69951999 -3.2277851 -0.043382999
-0.616189 -2.8592491 -0.080502003
-1.4010611 -6.501225 -0.183042
-0.633555 -2.9564121 -0.122107
-0.60711801 -2.8491099 -0.151233
-1.214028 -5.6972418 -0.30241299
-1.106626 -5.222858 -0.330057
-0.686014 -3.2750311 -0.25747401
-0.64213997 -3.13782 -0.279221
-0.63569403 -3.1811221 -0.22772899
-1.116287 -5.654098 -0.29919899
-0.56392598 -2.873806 -0.118273
-1.120733 -5.7113342 -0.235053
-0.56735599 -2.9090681 -0.081574999
-1.11462 -5.715117 -0.160262
-0.56415498 -2.910573 -0.038943999
-0.615125 -3.193284 0.007795
-0.53198999 -2.7790129 0.054533001
-0.74741799 -3.904366 0.076615997
-0.55259901 -2.9048369 0.110615
-0.77147299 -4.081068 0.235191
-0.61146802 -3.2552781 0.254866
-0.64365298 -3.4485719 0.34450701
-0.59107298 -3.1872749 0.390044
-0.57917899 -3.1434159 0.458177
-0.53174102 -2.904784 0.49347401
-0.52281702 -2.874779 0.559407
-1.04243 -5.7698531 1.268913
-0.746719 -4.1605582 1.022728
-0.51337498 -2.8794639 0.78352898
-0.70326197 -3.9445231 1.073341
-0.558267 -3.152312 0.94171798
-0.54885298 -3.1201551 1.0160331
-0.56057602 -3.208498 1.131372
-0.52076799 -3.0010841 1.139209
-0.67674297 -3.8999331 1.4804111
-0.629646 -3.65359 1.485551
-0.65372801 -3.819664 1.655478
-0.53047401 -3.121165 1.435096
-0.65604198 -3.8871679 1.888168
-0.50962198 -3.040992 1.554304
-0.54234397 -3.2593191 1.745815
-0.53004903 -3.2083299 1.794286
-0.58748901 -3.5817101 2.0833721
-0.55401099 -3.4022241 2.050869
-0.548311 -3.391897 2.111747
-0.56161201 -3.4998119 2.2417719
-0.59636199 -3.7440219 2.45927
-0.49654701 -3.262743 2.3092721
-0.491853 -3.3353951 2.3083799
-0.55251998 -3.807725 2.5501781
-0.56495202 -3.9252751 2.5724649
-0.52789998 -3.6981039 2.3625729
-0.457259 -3.2299249 2.00493
-0.49070799 -3.49526 2.0999551
-0.43971699 -3.1585319 1.83048
-0.49697599 -3.6003001 2.0054071
-0.50078398 -3.6590569 1.95137
-0.464755 -3.425271 1.7424591
-0.49786699 -3.7013719 1.7888139
-0.474516 -3.5588591 1.627488
-0.51904798 -3.927495 1.6924061
-0.51863199 -3.9595289 1.6001101
-0.551498 -4.248517 1.602319
-0.409886 -3.1864481 1.11595
-0.422115 -3.3117161 1.070698
-0.635701 -4.9874101 1.61246
-0.69668198 -5.5165992 1.6356601
-0.544788 -4.3543229 1.175552
-0.66386598 -5.3060832 1.432502
-0.35925201 -2.8985491 0.70666701
-0.676063 -5.4546728 1.329852
-0.34216899 -2.7870691 0.60769898
-0.388623 -3.195987 0.61638099
-0.41863999 -3.4763319 0.58511502
-0.386233 -3.2387121 0.46754199
-0.412972 -3.4973011 0.42373201
-0.37766901 -3.2303531 0.31938899
-0.41016901 -3.5437961 0.274506
-0.375597 -3.2782681 0.18685199
-0.488105 -4.2602601 0.242823
-0.44049701 -3.8843689 0.14624099
-0.344569 -3.0701511 0.059542999
-0.47696999 -4.2945819 0.010357
-0.35510001 -3.231266 -0.0427
-0.56732899 -5.1624718 -0.068221003
-0.33916101 -3.1194279 -0.086361997
-0.607463 -5.6477952 -0.229404
-0.60125798 -5.6514521 -0.29505101
-0.56984699 -5.4157062 -0.33665901
-0.36552799 -3.5526879 -0.274813
-0.35475901 -3.6118541 -0.316392
-0.32932299 -3.519928 -0.24817701
-0.32635701 -3.577307 -0.186487
-0.323026 -3.5865469 -0.14543
-0.280431 -3.1543601 -0.087159999
-0.295044 -3.3627901 -0.044342
-0.297483 -3.436137 0.0082670003
-0.27363199 -3.2037389 0.061971001
-0.27608699 -3.2770901 0.123026
-0.306366 -3.687367 0.20952301
-0.28419399 -3.469089 0.26783201
-0.30106199 -3.7278719 0.36727801
-0.26792699 -3.365998 0.40629101
-0.26681101 -3.401675 0.48910901
-0.25738001 -3.3307481 0.558249
-0.26260301 -3.4501779 0.66245002
-0.45282701 -5.9494271 1.142318
-0.27189001 -3.627609 0.78728002
-0.43406001 -5.7913098 1.256857
-0.41263199 -5.5920091 1.35666
-0.41068301 -5.6542149 1.518669
-0.36433101 -5.097476 1.503306
-1.616011 -23.369242 8.1368208
-1.538234 -23.4233 10.027936
-1.509331 -23.396145 10.62739
-1.483125 -23.411097 11.235702
-0.83056498 -23.352203 13.902549
-0.72084397 -23.296953 11.749331
-0.64109403 -23.334366 9.9721508
-0.56010801 -23.330477 8.1063061
-0.117805 -5.1549649 1.653688
-0.116958 -5.3903012 1.585992
-0.16648801 -7.673027 2.2576399
-0.121129 -5.8967938 1.579996
-0.148248 -7.646883 1.850504
-0.114026 -6.2541509 1.3537329
-0.139451 -7.6486311 1.655573
-0.053475998 -3.131659 0.59964597
-0.056933999 -3.5759561 0.59764099
-0.101966 -6.4043732 1.070348
-0.057016 -3.8611081 0.55352902
-0.112352 -7.6083918 1.090741
-0.051521 -3.7853439 0.45550901
-0.041873001 -3.361568 0.33013999
-0.044835001 -3.9670191 0.305271
-0.035735998 -3.522176 0.19946
-0.034196001 -3.8031859 0.142278
-0.030410999 -3.88116 0.074804999
-0.039694 -5.0659041 0.09764
-0.044943001 -5.7357588 0.11055
-0.024839999 -3.717906 0.0089119999
-0.019613 -3.54864 -0.046613999
-0.015048 -3.442663 -0.094754003
-0.012117 -3.7669101 -0.15212899
-0.0074729999 -3.6231129 -0.188095
-0.0032800001 -3.6180911 -0.22367901
0.0057029999 -4.0679712 -0.31301999
0.023427 -3.8901739 -0.339147
0.041852001 -3.9330981 -0.27611801
0.046856001 -3.6178241 -0.18783499
0.070776001 -5.0174098 -0.20265
0.054239001 -3.55424 -0.097834997
0.059694 -3.6361959 -0.047770001
0.062544003 -3.5594399 0.008533
0.064323999 -3.4347601 0.066211
0.077887997 -3.917485 0.146577
0.076288 -3.6263869 0.205396
0.077141002 -3.475867 0.26752499
0.084533997 -3.6205921 0.35564801
0.093292996 -3.8073871 0.45825699
0.19935 -7.7690048 1.114012
0.14509401 -5.4109979 0.90453798
0.087981999 -3.145617 0.602467
0.52420002 -5.9372568 0.996014
0.47608799 -5.3221302 0.76594502
0.68820202 -7.6933279 1.107201
0.47445601 -5.2356272 0.63255203
0.44772401 -4.877933 0.48103899
0.70551598 -7.6865602 0.758012
0.52119201 -5.607183 0.43331799
0.34455901 -3.6609299 0.208223
0.726165 -7.715488 0.43883401
0.52256399 -5.4843068 0.20609
0.74572903 -7.731678 0.149707
0.75207901 -7.7043571 0.018554
0.76819003 -7.7764759 -0.102646
0.50216502 -5.0240541 -0.13896701
0.55319798 -5.3471971 -0.33234
0.81356102 -7.6902261 -0.59504497
0.408234 -3.6954179 -0.32412201
0.58205003 -5.2688422 -0.462125
0.88039899 -7.6455369 -0.54026198
0.89651 -7.6301661 -0.398846
0.63888001 -5.3838062 -0.218953
0.90804303 -7.65203 -0.31119901
0.915618 -7.6404181 -0.21179301
0.59762502 -4.9385419 -0.065343998
0.637097 -5.2142072 0.012591
0.93981898 -7.6917748 0.018572999
0.67153299 -5.443718 0.105714
0.95569998 -7.6743121 0.28930399
0.96519101 -7.678175 0.43821201
0.97752702 -7.7042761 0.59757698
0.633187 -4.944644 0.48954201
0.63164997 -4.8878069 0.59301001
1.0020061 -7.6837358 1.1107481
1.450297 -9.3464832 6.1353869
1.5867569 -9.3013077 6.1206942
1.537513 -7.8571439 1.1476409
1.546235 -7.853498 0.96310401
1.573638 -7.8489809 0.45330799
1.575637 -7.8121128 0.298127
1.582108 -7.7976398 0.153349
1.590607 -7.793313 0.019065
1.6000791 -7.7937589 -0.104511
1.6090291 -7.7915821 -0.21897399
1.613667 -7.768712 -0.32043901
1.62035 -7.755877 -0.41134
1.630049 -7.7574582 -0.49005699
1.6371289 -7.7026649 -0.60593897
1.704371 -7.66957 -0.55153602
1.72139 -7.662446 -0.407711
1.7362241 -7.6869369 -0.31826001
1.743209 -7.6765819 -0.216663
1.756162 -7.6924009 -0.103645
1.764971 -7.6900339 0.018911
1.778038 -7.7060661 0.15242399
1.78941 -7.714653 0.29625699
1.802822 -7.731883 0.44957599
1.80841 -7.7154732 0.60977501
1.8217289 -7.7320809 0.78009999
1.827438 -7.716362 0.95414501
5.633997 -23.54664 4.0458622
5.7715549 -23.638641 6.5184531
5.8891759 -24.000013 7.2693191
5.9149342 -23.985058 7.922739
2.4700401 -9.5859337 5.4620891
1.831898 -7.0087118 4.4523158
2.193409 -8.3918257 5.330945
2.34127 -8.8736153 5.9530778
1.636991 -6.1467242 4.2928219
1.900339 -6.8176608 4.690979
2.476377 -8.8055401 5.7850971
2.400866 -8.4619122 5.2332692
7.0645332 -23.947559 9.3382206
7.092711 -23.940985 8.6733036
7.0915928 -23.635965 6.6105709
2.4470639 -7.9551029 1.001452
2.449791 -7.9313478 0.81518602
2.463203 -7.9422178 0.63985002
2.464155 -7.912919 0.46930701
2.468966 -7.8962178 0.30949101
2.4766769 -7.8888259 0.159361
2.489852 -7.8988461 0.019850999
2.4954491 -7.884819 -0.108636
2.496269 -7.8558059 -0.22687
2.510325 -7.8685298 -0.333554
2.5150299 -7.8519392 -0.42803401
2.5208621 -7.8389158 -0.50906199
2.535089 -7.8211002 -0.63263798
2.562232 -7.7819662 -0.71424901
2.602582 -7.7831988 -0.57611603
2.624444 -7.7886539 -0.42668599
2.645725 -7.8219328 -0.333473
2.7066121 -7.8816671 0.160613
2.7283249 -7.9151139 0.31319201
2.764056 -7.988801 0.478692
2.7603929 -7.9484439 0.64744502
2.7896869 -8.0029488 0.83228898
2.973248 -8.4353189 1.494597
2.9858019 -8.4398222 1.713946
3.021512 -8.5094376 1.954241
3.8891599 -10.599219 5.117794
3.2262239 -8.7611771 4.471818
1.9414099 -5.2534099 2.8232241
2.8437071 -7.6950059 4.1353579
3.5753081 -9.606391 5.655817
3.9125919 -10.402248 6.830584
3.2856519 -8.3810959 6.163589
4.0425239 -10.139047 6.708581
3.8085771 -9.3942347 5.1098919
2.7959991 -6.8738141 3.5543001
3.4291699 -8.3749437 3.866055
3.6345041 -8.8472891 3.8325281
9.9349833 -24.105028 9.7512369
3.5172501 -8.3687649 1.964605
3.527792 -8.3667622 1.738391
3.5366809 -8.3608723 1.517013
3.5471361 -8.3586836 1.301596
3.5553629 -8.3512173 1.092124
3.5535891 -8.3203888 0.88848501
3.566637 -8.3243246 0.69685298
3.575177 -8.3176861 0.51267099
3.593152 -8.3329811 0.339472
3.593518 -8.3074074 0.174449
3.6013739 -8.2992668 0.021685001
3.620229 -8.3164167 -0.119143
3.6279781 -8.3079653 -0.249513
3.63678 -8.301981 -0.36603799
3.646836 -8.2988586 -0.470599
3.6535671 -8.2881546 -0.55996799
3.6648149 -8.261941 -0.695472
3.7133291 -8.2680378 -0.79015499
3.749855 -8.2472324 -0.63598901
3.7701819 -8.2413578 -0.470496
3.7929511 -8.2658949 -0.36728901
3.8150151 -8.2887259 -0.251136
3.8278069 -8.2912722 -0.119958
3.851141 -8.316577 0.021966999
3.863415 -8.3178549 0.176761
3.8756671 -8.3190861 0.34332201
3.8948691 -8.3351545 0.52098101
3.909384 -8.3410683 0.70882201
3.9236319 -8.346384 0.90568602
3.928962 -8.3327274 1.10849
3.9505601 -8.3534889 1.3245831
3.9641399 -8.3572311 1.545692
3.968411 -8.3413563 1.768477
4.3648319 -9.1473398 2.193471
4.3746309 -9.1407146 2.451818
4.3965068 -9.1570969 2.721132
4.4336462 -9.2071466 3.006048
4.4941149 -9.3051386 3.314095
4.480895 -9.2504358 3.570318
4.4560022 -9.1719971 3.813828
4.4295068 -9.0906649 4.0519762
2.8857861 -5.8195481 3.584224
2.744467 -5.5025282 3.6584311
2.661272 -5.0972638 3.7299931
2.6951261 -5.1475859 3.6748171
4.9667072 -9.0485563 2.233871
4.9613128 -9.0139656 1.9698631
4.9603901 -8.987669 1.715457
4.959475 -8.9614992 1.4681799
4.9789128 -8.972085 1.234642
5.5938148 -9.9981995 0.64875299
4.7359362 -8.3736839 -0.126367
4.9143338 -8.6423731 -0.401508
5.0255871 -8.8142853 -0.526748
5.043366 -8.8217096 -0.62821299
5.1657901 -8.9875441 -0.79766399
5.1554542 -8.8742313 -0.89472097
5.1094208 -8.7020369 -0.70839798
5.2261229 -8.8537998 -0.53374702
5.1373591 -8.6804743 -0.407359
6.0412269 -10.047928 0.66390502
6.0060811 -9.9633274 0.89517599
8.7137413 -14.417257 1.6543159
5.7124739 -9.2330122 3.48206
5.623755 -9.066124 3.7058339
5.1324749 -8.2102528 4.1363368
5.0588832 -8.0717096 4.3180871
5.4356761 -8.6729021 4.6397042
5.4236488 -8.6314421 4.882627
5.4317689 -8.6221743 5.1368999
5.4197922 -8.5811024 5.3626471
6.1991038 -9.4232512 7.722847
6.2011342 -9.3789005 7.452199
5.0836058 -7.6501069 5.8091502
5.5624342 -8.3287163 5.9588199
5.6256189 -8.4022303 5.80407
5.5788612 -8.3115196 5.5234442
5.0649319 -7.5269952 4.7936339
5.5805621 -8.2725363 5.0302191
9.5863276 -14.175168 8.1963167
6.0134072 -8.8256512 4.2792349
10.126535 -14.426942 1.730938
6.4940882 -9.0940781 -0.307565
6.1743388 -8.6251659 -0.42838201
6.0750771 -8.465764 -0.54095298
6.1793981 -8.5900803 -0.65419
6.4235411 -8.8859606 -0.84369701
6.568541 -8.9983578 -0.97123599
6.2851491 -8.526845 -0.74362099
6.2893329 -8.4912262 -0.54857498
6.5348129 -8.8013105 -0.442707
10.887151 -14.452102 1.024606
9.215579 -12.028821 3.2794189
6.6611891 -8.5300303 4.6234732
5.9685621 -7.4634309 6.199059
5.1100612 -6.181931 5.0725832
7.68574 -9.1675062 6.0304108
7.578011 -8.5255594 -0.59217602
7.6944981 -8.6364498 -0.71509302
8.2659769 -9.1492224 -1.074934
7.9361339 -8.7028379 -0.826814
8.0237999 -8.7581739 -0.61664701
13.454266 -14.516158 0.381464
13.546974 -14.548547 1.125693
13.668846 -14.543859 2.8610139
6.5890541 -6.7399182 5.410295
7.1529269 -7.2491422 6.6061258
6.709259 -6.5519152 5.5794268
10.946355 -10.615532 8.056818
8.0410175 -7.7439251 5.0604062
9.015645 -8.6223183 4.6657829
14.866149 -13.859008 1.995891
9.5709229 -8.7376938 -0.67279601
9.6804562 -8.8171225 -0.80950099
9.7594318 -8.8477669 -1.013633
9.8839264 -8.7950296 -0.928774
9.8390598 -8.7143126 -0.68233502
10.489325 -9.2685804 -0.56529802
11.373198 -9.499711 7.4699311
8.5992432 -7.1658068 5.9143748
7.9935131 -6.4747858 7.1978421
12.086109 -8.8947458 -0.92772597
12.251711 -8.97293 -1.168532
12.153912 -8.8150005 -1.308906
15.760156 -8.9948444 -1.273869
17.117731 -9.7171564 -1.02187
17.172846 -9.7221756 -0.79696202
17.1646 -9.6912899 -0.54252303
13.318096 -7.2773061 3.2844951
13.359323 -7.2797661 3.68102
7.3789201 -3.8123479 5.6051698
7.2995992 -3.728502 5.7353411
7.4517202 -3.762666 5.7155838
7.467947 -3.749114 5.5384598
8.3961096 -3.313446 5.7086611
8.3039236 -3.2659259 5.7881832
7.3795838 -2.8826389 5.3467278
7.171556 -2.7630799 5.3775988
7.6677289 -2.9134581 5.6161528
8.1075315 -3.0590529 5.7434249
8.3388844 -3.135303 5.7789321
8.4073868 -3.149936 5.6781931
8.0190105 -2.9726391 4.9089918
11.690097 -4.2872658 6.2766328
14.565607 -4.3469229 3.6777279
12.764761 -3.729121 4.9737048
12.714567 -3.6984379 5.3058052
11.419315 -3.3073151 5.0787892
8.7379837 -2.508769 4.35432
8.5436554 -2.4422541 4.4792581
8.5099277 -2.421942 4.674973
8.4180441 -2.3852279 4.8277602
8.3186693 -2.346652 4.9612632
8.3632193 -2.3487389 5.1683331
8.4182062 -2.353653 5.3723111
8.5646238 -2.3838849 5.6226029
6.7613778 -1.856636 4.7319498
8.1451101 -2.1959939 5.9027462
6.6174469 -1.751225 4.6868129
8.3023691 -2.1765139 5.6887312
6.8367629 -1.783826 4.5833092
8.2565556 -2.154274 5.5351272
6.7724342 -1.758656 4.425281
8.3227634 -2.1509299 5.2832961
8.3813276 -2.1557 5.1489029
8.4069748 -2.1519051 4.9811759
8.582201 -2.186142 4.8867002
8.5603037 -2.169996 4.6660962
11.19576 -2.8380711 6.1026449
10.295684 -2.5971861 5.3525128
11.123261 -2.7922339 5.49301
12.494725 -3.12111 5.8378191
9.1263647 -2.2572241 3.767065
9.1922827 -2.262218 3.540586
14.030114 -3.418293 4.6312432
13.957135 -2.637574 3.0740321
12.701232 -2.3698609 3.461189
9.3286552 -1.695833 3.546191
9.2380114 -1.668276 3.7614861
9.2633333 -1.6617579 4.0204458
7.0146518 -1.249971 3.2297921
7.6970019 -1.362342 3.743938
7.4122171 -1.303073 3.7937081
6.8468528 -1.195498 3.672425
6.3010349 -1.092656 3.528666
7.434175 -1.280275 4.330029
6.8614869 -1.173447 4.1416202
6.816853 -1.157679 4.2496762
6.911304 -1.165475 4.4327641
7.31533 -1.224872 4.8113322
7.0235548 -1.159278 4.804112
6.5627298 -1.051947 4.6506491
6.851161 -1.0655971 4.747263
7.2019591 -1.103045 4.8290949
6.7896948 -1.031846 4.4548769
6.7993321 -1.025245 4.348845
6.649622 -0.994775 4.1323862
7.0055461 -1.039717 4.2137151
8.2997379 -1.221957 4.815402
6.949996 -1.014993 3.8755419
8.5068579 -1.24236 4.7436981
6.3851252 -0.92493701 3.408941
7.187531 -1.041172 3.8373361
7.0640202 -1.014906 3.59745
7.2857909 -1.038147 3.5249259
7.337338 -1.0368119 3.3590169
8.98137 -1.2584881 3.874305
9.6484203 -1.340549 3.903198
9.6233368 -1.291577 2.8561971
9.8393297 -1.308937 2.65903
12.684555 -1.017648 3.40892
12.334303 -0.97513998 3.6395979
13.128587 -1.0225821 4.2232418
13.056155 -1.001696 4.5484562
11.191023 -0.81939298 4.7935781
7.139431 -0.51441002 3.2446549
7.246501 -0.513659 3.479568
6.607955 -0.46068799 3.3390751
7.1720619 -0.48327699 3.966367
7.1463561 -0.47321299 4.1109881
9.3159256 -0.60600102 5.5543728
6.3582969 -0.39878699 4.0292029
9.146553 -0.56299198 5.9443712
6.8347311 -0.404769 4.6206288
6.1953349 -0.29474699 4.1108909
6.193182 -0.28744 4.021688
6.3068662 -0.28538001 3.992856
7.214859 -0.30967301 4.2965469
6.821291 -0.28484899 3.9188299
6.4816661 -0.26312 3.5793929
7.2830172 -0.29565001 4.021925
6.8478599 -0.270024 3.621037
7.199151 -0.27549601 3.63166
7.092052 -0.263154 3.3992209
7.420011 -0.26669899 3.365622
11.196739 -0.38941601 4.7861142
11.87866 -0.39932901 4.762392
12.605647 -0.39445499 4.380785
13.225196 -0.398476 4.2433972
7.2321048 -0.20108899 1.938121
7.1743751 -0.19114999 1.73645
6.9052038 0.128819 0.98999602
7.076468 0.140231 1.1827559
6.7911391 0.142463 1.300456
6.5135751 0.144214 1.4099981
7.0846062 0.165085 1.7145801
6.5915451 0.161183 1.766304
6.761229 0.173186 1.989545
6.8269272 0.182809 2.190259
6.6995678 0.187181 2.3280399
6.735292 0.196003 2.5201321
6.8908529 0.216552 2.94521
7.8145962 0.245582 3.3400259
7.8569021 0.25604001 3.5633819
7.1866469 0.25091201 3.624908
6.6022038 0.23818 3.490696
6.5638819 0.24443699 3.6243219
7.2745948 0.27936 4.1786919
7.3017278 0.288901 4.3476782
8.143548 0.34114501 5.1548991
7.0426521 0.385203 4.8291798
6.8663521 0.391561 4.5583882
8.0001278 0.465532 5.1982632
7.4943361 0.44482899 4.7481308
8.9044609 0.54928797 5.3079209
6.4692931 0.40660799 3.7206981
6.5139451 0.41701701 3.6016159
6.7566152 0.44042701 3.57759
7.1859398 0.47680101 3.6303101
7.2652779 0.490536 3.487776
6.841259 0.46988499 3.108412
6.8674049 0.47970101 2.9408889
6.5490499 0.465103 2.6307721
6.7468138 0.487019 2.5299411
6.5532708 0.48070499 2.2824309
6.6158228 0.49301499 2.1276541
6.5327439 0.49444899 1.927178
6.4479609 0.49557 1.732406
6.4681458 0.50467402 1.569719
6.3827901 0.50546902 1.385673
6.4751458 0.52035701 1.243669
6.845058 0.55808097 1.147649
7.0999422 0.58715898 1.0212131
8.6084671 0.72198701 1.039441
8.636343 0.744519 0.667009
11.570602 1.024559 0.43453601
8.6167822 0.77309799 0.166741
8.6622686 0.78731501 0.020848
8.7850904 0.808761 -0.115886
9.1040554 0.84879702 -0.25165901
9.1577854 0.86453003 -0.37148499
11.052196 1.069279 -0.68646199
9.7602053 0.96715599 -0.75470102
8.3076944 0.90123898 -0.58661997
7.841361 0.86908501 -0.409578
8.1096354 0.90834898 -0.329559
7.590641 0.85913903 -0.210252
7.2590551 0.83015603 -0.095973998
7.7106838 0.89087301 0.018604999
8.0627613 0.94104898 0.156451
6.983717 0.82332498 0.263062
6.9824128 0.83139002 0.39818501
8.6538935 1.040614 0.67069203
8.7799664 1.0661139 0.86854798
7.2460861 0.88839698 0.87840599
6.6792302 0.82678002 0.96473902
6.6023879 0.82505 1.111883
6.4429989 0.812729 1.243293
6.3689508 0.81090999 1.38948
6.9670372 0.89527899 1.6995291
6.8031569 0.882177 1.8377219
6.7110338 0.87814599 1.9909559
6.76967 0.89381599 2.1899531
7.1425772 0.95147997 2.5029311
7.1079021 0.95525098 2.6823261
7.0036569 0.94952202 2.8319941
7.1258788 0.974509 3.072494
7.4156098 1.022894 3.3932841
7.2623811 1.010353 3.5119669
7.2052841 1.010928 3.667671
6.9738212 0.98670101 3.721478
7.2393479 1.032845 4.0349689
8.277977 1.190824 4.800467
7.2879038 1.057037 4.3814249
7.221889 1.056015 4.485827
6.9874649 1.030014 4.4669738
6.7407861 1.00165 4.4205918
6.5806632 0.99346203 4.4914079
6.4661598 1.006896 4.5789852
6.5754662 1.055191 4.5597
6.6745472 1.0869859 4.4821482
6.842473 1.122481 4.497869
7.1694412 1.1846581 4.5957928
7.648428 1.27293 4.765439
7.482357 1.25421 4.513854
7.3648181 1.2432899 4.2872162
7.3430042 1.248379 4.1098518
7.1383572 1.222106 3.826591
6.6623359 1.1485749 3.4079449
6.801312 1.180657 3.3063459
6.806109 1.189622 3.1319439
6.7663651 1.190774 2.9349959
6.8898721 1.220749 2.803726
6.4748402 1.154959 2.4598789
6.5380902 1.174077 2.307369
6.4187231 1.160327 2.091923
6.3304319 1.151949 1.892749
6.3772979 1.168129 1.736805
6.2827759 1.158347 1.545732
6.1636481 1.1437761 1.356694
6.5883489 1.230503 1.283156
6.405447 1.204031 1.089138
6.5808258 1.2449 0.96005601
6.2761979 1.194824 0.76873899
6.3709388 1.220518 0.63701999
6.6652131 1.2849081 0.52231401
6.3581028 1.233363 0.36675099
6.262361 1.2223279 0.23868801
6.2592478 1.229267 0.122941
6.0921879 1.203797 0.014885
5.7980251 1.1526591 -0.077651002
5.856741 1.171404 -0.164388
6.2916641 1.265982 -0.259184
6.7331882 1.36295 -0.356644
6.4373479 1.310848 -0.40613899
7.295074 1.485509 -0.460253
5.85044 1.205474 -0.45963299
5.7034402 1.202809 -0.50815499
5.7199941 1.23405 -0.410781
5.776165 1.260205 -0.30692399
5.775815 1.2671469 -0.23880599
5.8910699 1.299595 -0.166039
6.1450868 1.363117 -0.082681999
6.0444608 1.348152 0.014844
5.464242 1.225403 0.10793
5.6735001 1.279243 0.217567
6.3309612 1.435202 0.36759901
5.6840048 1.295482 0.448585
5.9775848 1.369687 0.60222697
6.460968 1.488336 0.79776901
6.5557208 1.518182 0.96459699
6.36901 1.482728 1.092764
6.0267482 1.410418 1.185002
6.1137042 1.4382581 1.359233
6.0545049 1.431743 1.505284
6.1713991 1.466885 1.699285
6.1220179 1.462664 1.851547
6.0748458 1.458866 2.003665
6.199192 1.496348 2.2151661
6.322453 1.5338759 2.433255
6.357008 1.550092 2.621845
6.202179 1.5199749 2.727963
6.5186548 1.605565 3.04318
6.7454338 1.669747 3.328377
7.9045448 1.95667 3.9003129
6.6845732 1.662926 3.4723139
6.4993038 1.6248569 3.5397489
6.4638581 1.623988 3.677465
6.3689299 1.608007 3.7704799
6.3841362 1.619749 3.9186881
7.9857569 2.0458651 5.213696
6.7962451 1.749553 4.55229
7.292407 1.895358 5.0849299
7.2280512 1.914559 5.2319798
7.2604752 1.959313 5.148941
7.4939198 2.0410161 5.1478682
8.3701973 2.30058 5.4900432
6.2930541 1.737546 4.0124769
8.0028458 2.2096291 5.1026478
8.7218981 2.4190731 5.385129
6.4079909 1.785316 3.8182709
6.3262329 1.770472 3.6248059
6.4306231 1.807745 3.5294709
6.5397258 1.846628 3.4254999
5.885345 1.669235 2.930095
5.903862 1.6819 2.782666
6.4072161 1.833358 2.846997
5.9728861 1.716589 2.490176
6.0094881 1.734669 2.3393719
6.2447739 1.810459 2.2584779
5.9179969 1.723177 1.976791
5.9989419 1.7543091 1.8385659
6.107583 1.7937959 1.705236
6.051218 1.784881 1.526449
5.936667 1.758592 1.3399841
5.784831 1.720938 1.15548
6.31671 1.887158 1.1016639
6.1230168 1.837042 0.91635299
6.0935292 1.835925 0.76575297
5.6077652 1.696678 0.575351
5.3127842 1.614169 0.427257
5.9177871 1.805508 0.350355
5.5522108 1.701025 0.21723101
5.3705568 1.652209 0.108296
5.8540268 1.808392 0.014686
5.6155429 1.74187 -0.077230997
5.4238548 1.6893311 -0.15635499
5.3680282 1.678787 -0.227144
6.3903279 1.998499 -0.27040201
5.3956199 1.6943001 -0.29359999
6.083601 1.9181139 -0.394353
5.6489892 1.795526 -0.45610401
5.5126362 1.780453 -0.50502902
5.7315092 1.880613 -0.42345601
5.2271791 1.728606 -0.28582299
5.2857881 1.7548029 -0.224925
5.6995268 1.899513 -0.165351
5.392695 1.804226 -0.074695997
5.1483669 1.729135 0.013017
5.2846808 1.781762 0.107487
5.8658142 1.985287 0.23165999
5.8799629 1.9976929 0.35165501
5.8781929 2.0047221 0.47789299
5.4300132 1.858918 0.56362301
5.04214 1.732681 0.64151198
6.0449352 2.077281 0.76909798
5.8177118 2.006768 0.88215703
5.824297 2.0166149 1.029967
5.8150139 2.0209701 1.1786079
5.8452249 2.039094 1.3397731
5.7765231 2.0226581 1.480827
5.775825 2.0298769 1.640028
6.0471249 2.133112 1.886258
5.9036908 2.090235 2.0085521
5.8212729 2.0686619 2.145932
6.2159748 2.2170539 2.468286
5.7942481 2.0742309 2.4660001
5.885838 2.1147289 2.6717851
5.52459 1.992179 2.662112
6.0932622 2.20525 3.103749
6.352735 2.3075011 3.4070449
6.523427 2.3780749 3.6686881
6.669302 2.4400389 3.918539
6.5977502 2.4225481 4.0343242
7.961061 2.9441309 5.2167959
7.312345 2.723551 5.061667
5.503293 2.0643139 3.9666929
5.4165192 2.0605209 4.054985
5.4381309 2.0977061 3.990797
5.5445638 2.1535721 3.942389
7.7886529 3.03561 5.4224758
7.6404228 2.9880581 5.1885738
8.7721863 3.442435 5.791728
8.818388 3.472383 5.6387391
9.0025053 3.556957 5.5561562
6.1312408 2.4389811 3.486491
8.3108177 3.3060069 4.725894
6.2664909 2.5012231 3.4011929
5.7794542 2.3146069 2.9819319
5.5008588 2.2104449 2.6872959
5.8960171 2.377197 2.715785
5.8970742 2.3855841 2.548944
5.7617841 2.3386409 2.3257101
5.8406272 2.3785529 2.190556
6.088408 2.4877031 2.1093299
5.58604 2.2900071 1.775916
5.6226048 2.312634 1.628643
5.6728778 2.3410139 1.484825
5.438077 2.2515099 1.273778
5.4629941 2.269268 1.13254
5.406105 2.2529981 0.97870702
5.3051691 2.218164 0.82426399
5.3623729 2.2494071 0.69968998
4.9818091 2.0965719 0.53078502
5.7932162 2.4459679 0.483877
5.2438431 2.2212009 0.322483
5.5384541 2.353579 0.225118
5.2534451 2.239676 0.110069
5.291337 2.263092 0.013794
5.2432399 2.249723 -0.074946001
4.7763309 2.055963 -0.143121
4.890193 2.111706 -0.215119
5.6090722 2.4298639 -0.31734499
5.2323642 2.2739 -0.35270301
5.1485348 2.251693 -0.43239701
6.050168 2.646019 -0.50812101
5.1209822 2.268044 -0.488267
5.1890888 2.327096 -0.39922601
4.700624 2.1211679 -0.26772901
4.7898598 2.1681321 -0.21233501
4.690218 2.1295919 -0.141773
5.129539 2.336261 -0.074038997
4.9280558 2.251405 0.012986
4.9854331 2.2846251 0.105694
5.112783 2.3501699 0.210502
4.82166 2.2231331 0.30066001
5.2134628 2.411134 0.44198799
5.3761892 2.4939721 0.58199602
5.5135012 2.56545 0.73170602
5.4519448 2.5445211 0.86243302
5.3490052 2.5040419 0.98694801
5.1466212 2.4165871 1.088539
5.3468571 2.5181971 1.279066
5.5647759 2.6287251 1.489058
8.7239666 4.133368 2.5860591
6.2231331 2.9573359 2.0267961
5.6465659 2.691391 2.006109
5.6998572 2.724916 2.194494
5.8891411 2.8238089 2.442714
5.6985168 2.740556 2.533694
7.07128 3.4007521 3.144057
5.700222 2.7495279 2.7036059
9.4410105 4.56743 4.754065
8.1100435 3.9351659 4.3176022
8.2268152 4.0036302 4.6120472
5.6605511 2.7791729 3.6196411
5.530323 2.723217 3.667635
5.4472132 2.6901529 3.7339129
5.4286742 2.6888399 3.8314309
5.449574 2.7070839 3.9471321
6.8632669 3.4292259 5.1777902
6.5211568 3.2962401 5.1127319
6.6663108 3.4085751 5.1263428
7.036088 3.6182899 5.2439971
5.441823 2.814436 3.874727
5.4119539 2.8069661 3.7470031
5.4597502 2.839803 3.661499
5.538043 2.8886981 3.5852921
5.7116299 2.9876931 3.5566859
7.9237471 4.156548 4.7277632
8.0616941 4.2408671 4.5917912
8.340683 4.3999972 4.5167432
5.6291232 2.9779129 2.8867071
5.643496 2.993917 2.729142
5.6914468 3.0278261 2.583163
5.7855501 3.0865099 2.452522
5.7372279 3.069303 2.260119
5.3408961 2.8652511 1.943809
5.8852739 3.1660991 1.96584
5.4212508 2.924598 1.65012
5.237011 2.8330591 1.440614
5.2921019 2.8708069 1.302968
5.0506659 2.747438 1.100762
4.573576 2.494797 0.87058502
4.6262469 2.5304999 0.755871
4.5204668 2.47947 0.62036699
4.8449311 2.664758 0.543001
4.7241902 2.6054959 0.415135
4.9835329 2.756089 0.322483
4.5260162 2.509928 0.19360501
4.8522201 2.6982059 0.107005
4.9801078 2.7768941 0.013667
4.7486768 2.6550789 -0.071465001
4.5907402 2.573782 -0.14485399
5.771162 3.2443919 -0.26737601
4.956141 2.7937851 -0.295362
4.9848661 2.8176169 -0.35399801
5.1100769 2.9040639 -0.452268
4.468596 2.567049 -0.44927099
5.410171 3.10795 -0.54393703
4.7066789 2.732971 -0.38207
4.764195 2.7811871 -0.28639299
4.6289692 2.709455 -0.216612
4.4312768 2.600651 -0.141415
4.65447 2.738919 -0.070940003
4.479424 2.6429169 0.012466
4.8834138 2.8889339 0.109356
4.5096941 2.6749201 0.19614699
4.6260939 2.7512259 0.30478701
4.4625058 2.6609631 0.399791
4.4938951 2.6867559 0.51416999
4.716795 2.8274579 0.66170102
4.5942621 2.76127 0.76835698
4.9183812 2.96385 0.95958799
5.2741699 3.1866021 1.179737
5.4094481 3.2769239 1.368751
5.7204309 3.4743941 1.619338
6.1018152 3.7156501 1.913798
5.1200132 3.1259501 1.7646281
5.138464 3.145426 1.932204
5.548223 3.4229071 2.612174
5.6516461 3.513979 3.1875529
5.5234861 3.443198 3.281008
5.4598708 3.4123571 3.4019339
8.5724859 5.3854651 5.8110399
8.1498604 5.1729732 6.2616429
7.9814692 5.1972041 6.5212011
5.4217019 3.6117101 3.4421101
5.4238591 3.6222651 3.28776
5.4947848 3.67887 3.1672499
5.6302061 3.7790179 3.0737309
9.3740482 6.339426 4.2324491
4.961031 3.3634341 2.0819471
5.3072562 3.607172 2.0580249
5.617064 3.827287 1.999423
5.1773591 3.5365119 1.679619
5.3834901 3.6864951 1.578655
5.0876832 3.4926219 1.335542
4.770328 3.2829349 1.108659
4.8565259 3.3505771 0.98596001
4.6690459 3.2292449 0.81376398
4.5290952 3.1402471 0.66313499
4.6498551 3.231981 0.55609697
4.5008941 3.136204 0.42211699
4.3559942 3.042773 0.30088601
4.5102711 3.1583431 0.20597801
4.4409881 3.1175339 0.104577
4.5412169 3.195775 0.01331
4.324688 3.0509169 -0.069521002
4.217854 2.982904 -0.142186
4.2386308 3.004992 -0.209833
4.744092 3.371629 -0.302154
4.4489298 3.1696539 -0.337708
5.2504358 3.740689 -0.39854899
4.4247561 3.1679571 -0.41874099
4.58956 3.318341 -0.493738
4.3956661 3.209374 -0.38207
4.1088452 3.014632 -0.264566
4.140522 3.045279 -0.207573
4.3592429 3.2139549 -0.149064
4.3246088 3.196193 -0.070637003
4.3646421 3.233628 0.01302
4.2388778 3.148098 0.101763
4.2025838 3.128726 0.195997
4.2239671 3.1522789 0.298455
4.3958302 3.288507 0.42242399
4.3711619 3.2779801 0.536551
4.4021692 3.3092301 0.66265702
4.2729578 3.2198861 0.76693797
5.055058 3.8184531 1.058646
4.7967539 3.632098 1.151907
4.6025572 3.493484 1.2505111
5.6265292 4.281023 1.710582
10.354116 7.8968978 3.488359
5.4863672 4.2248001 2.589844
5.4118409 4.1774402 2.7393799
5.4220438 4.1953688 2.9287109
5.4055958 4.1926808 3.10098
5.1309252 4.008347 3.4402421
5.0791001 3.977376 3.5595851
4.9678431 3.8995631 3.6251171
4.906023 3.860261 3.714164
4.849061 3.8245621 3.7957001
4.799336 3.7943881 3.8693819
4.7426209 3.7585149 3.9253631
4.6888351 3.7336431 4.0450091
4.6073608 3.703876 4.136394
4.5975251 3.7312529 4.0540709
4.6524119 3.7937591 3.978852
4.6730042 3.8195889 3.915024
4.7122521 3.8608019 3.8528121
4.7443061 3.8962901 3.7731841
4.7845011 3.9386079 3.6870639
4.7956882 3.957164 3.5688629
4.844902 4.0072479 3.469243
4.8837619 4.048945 3.3519461
4.9200301 4.0886722 3.2247419
4.9782548 4.1468372 3.103317
5.0379539 4.206481 2.9750581
5.0789061 4.2507019 2.829319
5.1288218 4.3026118 2.682472
5.1765289 4.35288 2.5295911
5.245255 4.4210892 2.3828371
5.284421 4.464602 2.2186601
5.3795109 4.5556521 2.073643
5.437624 4.6157289 1.910692
4.2838898 3.6449449 1.360893
4.4046478 3.7565141 1.252838
5.5967221 4.7731771 1.591906
4.5203829 3.8643041 1.138557
4.255662 3.6465621 0.93651301
4.0429878 3.4724741 0.76395899
4.2917871 3.6948409 0.68141198
4.035543 3.4824021 0.52345502
3.946197 3.4133019 0.40147901
3.7340729 3.2374179 0.279854
3.7366951 3.2472961 0.185194
3.9949319 3.4798701 0.10211
4.0300369 3.5186839 0.012823
3.8886681 3.4032159 -0.067878999
4.1751428 3.6625061 -0.152861
4.0940328 3.599772 -0.220163
4.0494709 3.568933 -0.280224
3.8493121 3.4004841 -0.31753099
3.8053319 3.3773921 -0.391505
3.997169 3.5809939 -0.467857
3.8318861 3.4651351 -0.362672
3.9079101 3.5504191 -0.274106
4.0026379 3.6449709 -0.21863
4.0134392 3.663337 -0.14955901
4.9953871 4.559628 -0.186151
3.8613269 3.5327311 -0.068746001
3.920192 3.594954 0.012749
3.8652401 3.5528409 0.101185
4.016407 3.7004001 0.20429599
4.9049411 4.5190248 0.249492
3.7855151 3.495806 0.29178399
3.8209779 3.536793 0.400635
4.0097289 3.7201569 0.53713697
3.8010049 3.534725 0.62454802
4.701571 4.3824029 0.92131901
4.3156371 4.0320401 0.98694801
5.403954 5.0605998 1.4174139
3.8453109 3.6093881 1.141366
5.3510828 5.0227752 1.58831
5.2809319 4.9684711 1.7543221
5.2812219 4.9802098 1.94459
5.263166 4.9747381 2.1303661
5.8875041 5.6168809 3.2604761
9.0097456 8.6156063 5.3255
6.1473832 5.9471812 4.719542
6.0593948 5.87569 4.8447728
5.3677039 5.2170882 4.4535198
6.0694761 5.9128842 5.2078948
6.7199121 6.561759 5.9401078
4.7090049 4.6088829 4.2742
4.6603222 4.5824652 4.4108548
4.6384158 4.603507 4.572679
5.136807 5.1817031 4.7329659
5.8366799 5.915112 5.1073599
5.9759932 6.070375 5.0681162
8.0443764 8.1904202 6.5896282
6.279892 6.4087849 4.950954
8.6690979 8.9089041 5.953928
5.699894 5.9122581 3.071521
5.8928928 6.140933 2.729578
5.6876569 5.9408469 2.4193439
5.6803899 5.9470792 2.2030931
5.171989 5.4400368 1.62448
4.0540948 4.2741432 1.127839
5.094317 5.3708258 1.417226
3.8391769 4.0569811 0.93338197
3.713068 3.9328511 0.77530998
3.391454 3.6005759 0.59516102
3.7899771 4.03304 0.54348999
5.0446701 5.3682008 0.72341502
3.7234149 3.971437 0.41889501
5.385313 5.7440362 0.60586298
3.6051519 3.854265 0.29885101
4.638876 4.9709711 0.25435099
3.9719009 4.2661781 0.112343
3.483793 3.7506261 0.01227
3.7442119 4.0403862 -0.072357997
3.6929541 3.9943759 -0.14972401
3.4719541 3.7640929 -0.206807
3.4542451 3.753628 -0.264826
3.5903699 3.9106629 -0.328206
3.8613801 4.2254968 -0.44045299
3.858562 4.2620101 -0.50120699
3.519455 3.923923 -0.37002501
3.440414 3.853771 -0.268195
3.4497249 3.8732419 -0.20947
3.513792 3.954406 -0.145597
3.708549 4.1833668 -0.073435001
3.617213 4.08989 0.013087
3.9637151 4.4921818 0.115464
3.441438 3.90941 0.194838
4.7106061 5.3637009 0.40423399
3.465363 3.955075 0.404625
3.487133 3.989253 0.52032697
3.5505409 4.0713201 0.64999402
3.793844 4.3605299 0.82852101
3.6051199 4.1533418 0.91904199
4.8279352 5.5751672 1.411961
4.7557731 5.5047522 1.574349
4.6665769 5.4141998 1.729395
4.573566 5.3186488 1.879124
4.5274968 5.2774539 2.0454221
4.4283309 5.1740189 2.1841509
4.3619108 5.1084051 2.3332901
4.3020778 5.0501909 2.4812479
4.2950411 5.0538168 2.657552
4.2230229 4.9807811 2.7896409
4.2009692 4.966445 2.9486351
4.1855621 4.9599109 3.108501
4.168355 4.951169 3.262553
4.0806642 4.8584442 3.3524139
4.477891 5.3439841 3.847038
5.5980959 6.6966281 5.0100489
3.57061 4.2813849 3.316875
3.4802711 4.1829238 3.344342
3.1869559 3.8485391 3.2412961
3.266988 3.963881 3.4665909
3.185225 3.9386699 3.468219
3.6900671 4.5629282 4.0179138
3.592051 4.4628911 3.797091
3.623301 4.5124311 3.753938
3.709815 4.631175 3.752857
3.6959281 4.624846 3.6386149
3.775296 4.7354231 3.603209
3.775774 4.7473159 3.481745
3.815485 4.8087072 3.3871131
3.8517561 4.8660092 3.279068
3.8671999 4.8972058 3.1455181
3.919632 4.9754658 3.0337689
3.9407029 5.014174 2.890835
3.995615 5.0962248 2.766463
