# .PCD v0.7 - Point Cloud Data file format
VERSION 0.7
FIELDS x y z
SIZE 4 4 4
TYPE F F F
COUNT 1 1 1
WIDTH 1542
HEIGHT 1
VIEWPOINT 0 0 0 1 0 0 0
POINTS 1542
DATA ascii
5.5480618 2.2210629 -0.241348
5.335885 2.143311 -0.29852501
5.2674451 2.1229341 -0.351098
5.283803 2.1437981 -0.43876499
5.4380031 2.235842 -0.51258498
5.2487621 2.186589 -0.399156
5.4318552 2.2776861 -0.305783
5.0728989 2.1340959 -0.222262
4.8700199 2.0554039 -0.145487
5.3008938 2.244518 -0.075615004
5.3024082 2.2524209 0.013808
5.2620268 2.2424901 0.110242
5.270503 2.253335 0.21442699
5.2814879 2.265286 0.325423
5.1041212 2.196239 0.427564
5.1661658 2.230046 0.55257899
5.5785542 2.4157441 0.73146701
5.8051801 2.5218999 0.90727198
5.7660198 2.5128479 1.051064
5.561501 2.4314029 1.162061
5.446537 2.3886869 1.287104
5.6013031 2.464319 1.480592
5.547915 2.448452 1.624503
6.4086461 2.8283169 1.876536
8.8971653 3.9265721 2.605207
6.1643 2.7290339 1.983055
5.6471519 2.5079379 1.9816771
5.4585829 2.431783 2.0757129
5.6686511 2.533257 2.322207
5.6472039 2.5315521 2.4797621
5.6696491 2.549521 2.655679
5.4272752 2.448108 2.6988561
5.4190168 2.451967 2.8488829
6.1992931 2.813695 3.431802
9.0978851 4.1420321 5.281827
9.5261831 4.350399 5.7785282
5.66468 2.6028559 3.7090509
7.8293471 3.597496 5.1264048
5.507401 2.5383339 3.7271061
5.455164 2.52194 3.8009629
5.435791 2.5206561 3.8867249
5.4527521 2.5439179 4.0606718
6.6295118 3.1305079 5.129931
7.1120071 3.398833 5.3969531
5.3990898 2.5956521 3.9705651
5.4001451 2.6038809 3.8889019
5.4012799 2.612159 3.794549
5.4661851 2.651392 3.7339129
5.5803761 2.714787 3.692178
8.796072 4.2918181 5.6178861
7.5726261 3.7057719 4.651906
7.9467402 3.90029 4.6773081
8.2503338 4.0612011 4.6354542
9.3647623 4.6232872 5.002285
5.578064 2.7618899 2.821475
9.5073586 4.707418 4.8089762
5.6625228 2.811909 2.700856
5.767345 2.8723111 2.5816751
5.6451011 2.819612 2.3600399
5.5751491 2.792774 2.165947
5.6303029 2.828582 2.020767
6.4016538 3.225409 2.1086359
5.5133171 2.7858689 1.654778
5.3215718 2.6967399 1.443436
5.2958059 2.691412 1.285623
5.4043608 2.7544899 1.161309
5.2712302 2.6943481 0.98925602
4.657268 2.3873489 0.75019503
4.8962059 2.5170209 0.66241801
4.5299211 2.3353741 0.50048798
5.382288 2.7827201 0.46623099
4.46275 2.3138831 0.28466001
5.0563402 2.6291029 0.213193
4.692399 2.4468009 0.101995
4.9234719 2.574564 0.013317
4.679203 2.453752 -0.069403
4.9448271 2.6003771 -0.153769
4.6700859 2.462821 -0.213223
4.923409 2.6037221 -0.289141
5.9078422 3.133127 -0.41341999
5.6498199 3.0131149 -0.49270001
5.5004129 2.9663401 -0.544806
5.0086751 2.7312529 -0.40048701
4.861649 2.6657491 -0.28784499
4.6352358 2.548604 -0.213626
5.7139311 3.141706 -0.26334101
4.6938219 2.5879171 -0.147523
4.6309271 2.5602629 -0.069508001
4.4411759 2.4620919 0.012171
4.5126519 2.5085781 0.099509001
5.6163468 3.1221211 0.123847
4.5135322 2.5159299 0.193306
4.7409792 2.64993 0.30755699
4.6001649 2.5782449 0.40577501
4.8376842 2.718751 0.54495603
4.48739 2.5287459 0.61976999
5.0209298 2.8371019 0.82667601
4.9112072 2.7826281 0.94327098
5.3492641 3.0390339 1.177856
5.3943982 3.072974 1.34358
5.3406892 3.050595 1.488117
5.3678532 3.074307 1.657106
5.605566 3.2190969 1.901497
5.287889 3.0448439 1.956941
5.8238659 3.3624749 2.3359151
5.639348 3.2646749 2.437109
5.5875421 3.243361 2.588742
5.568285 3.240829 2.7523201
8.4217253 4.927803 4.6735511
5.664012 3.323014 3.310267
5.5373392 3.2573421 3.394459
5.4577942 3.219094 3.4962969
5.4808822 3.241292 3.6549859
7.7106738 4.7678652 5.8806982
8.6151924 5.3826418 5.8309522
5.4218178 3.3962381 3.5301149
5.4524312 3.424233 3.4019339
5.497354 3.4613609 3.2747059
4.9470062 3.1631849 2.039619
5.1674428 3.312593 1.968546
5.617065 3.610029 1.964147
10.649826 6.844532 3.723978
5.9388471 3.826596 1.892579
6.7183509 4.3288569 2.14099
5.9868641 3.867377 1.724457
4.9180722 3.1850581 1.268067
5.1732168 3.3588369 1.180865
4.6200171 3.007288 0.92118502
4.5908999 2.9959271 0.78580999
4.7838998 3.1298089 0.68786299
4.3872552 2.8775859 0.51524502
5.2310848 3.431052 0.61434603
4.4220071 2.907727 0.407233
4.4937849 2.9624121 0.30478701
4.8653831 3.215486 0.218165
4.6290998 3.067066 0.107024
4.4239678 2.9385481 0.01273
4.5458579 3.027122 -0.071741
4.7995691 3.204128 -0.158831
4.7414422 3.173286 -0.230413
4.5163078 3.0302081 -0.28234899
5.445941 3.6539431 -0.34046799
4.9003201 3.2961259 -0.365105
4.453063 3.010323 -0.41360101
4.341537 2.964412 -0.45830399
4.7563901 3.280169 -0.405599
4.5923452 3.1828051 -0.29007399
5.391799 3.7368801 -0.34057099
4.365428 3.0330429 -0.21467499
4.203856 2.928026 -0.141003
4.3910608 3.0660019 -0.070349
4.4828982 3.137872 0.013116
4.394949 3.0839281 0.103478
4.18396 2.943131 0.19136199
4.4085002 3.1087351 0.30546501
4.5055919 3.1850491 0.42457199
4.6153841 3.2707031 0.555511
4.3796201 3.1112709 0.64640999
4.507298 3.209862 0.79318899
5.0902638 3.62502 0.895778
5.132792 3.6642931 1.053866
4.7434888 3.3946891 1.116745
4.6266928 3.319242 1.23232
5.1543069 3.7068281 1.53609
9.7723522 7.0623159 3.5467529
4.7710009 3.4563711 1.889449
5.5928898 4.0815792 2.774343
5.4596119 3.994035 2.889818
5.4071398 3.965292 3.039464
5.4208879 3.9850709 3.222543
5.5731802 4.1370358 3.9840441
5.3409429 3.9839211 4.0952091
5.3018632 3.9643569 4.1868858
4.8996062 3.690259 4.1395469
4.810463 3.6582711 4.2286959
4.8148241 3.6970079 4.1563258
4.8670888 3.7551429 4.0744281
4.8836989 3.77701 4.004818
5.8618789 4.5444088 4.690937
5.3578558 4.1836309 3.9019041
5.1197481 4.0168862 3.4383731
5.2545962 4.1424432 3.2048321
5.3109398 4.196866 3.0683639
5.3595252 4.245389 2.9208541
5.3271918 4.2298489 2.7256179
5.301434 4.219439 2.5341451
5.4621329 4.3577209 2.427134
5.6288452 4.5014262 2.3114991
9.2646523 7.4090061 3.8045521
11.388036 9.1505461 3.9135039
4.7635431 3.8367231 1.4798861
4.5833302 3.700352 1.2748359
4.77706 3.865941 1.17654
5.658874 4.579567 1.393721
4.2826419 3.474056 0.92151397
4.178071 3.3972771 0.771905
4.3782172 3.568481 0.67962098
4.2257662 3.4523959 0.53586698
4.0760531 3.3379791 0.40539199
4.0282869 3.3066919 0.29511899
4.2958422 3.5346739 0.20810901
4.036315 3.3290069 0.100839
3.841275 3.1756439 0.011946
4.3361731 3.5932651 -0.073973998
4.1823201 3.473979 -0.14964201
4.1227121 3.4325609 -0.216653
4.4531298 3.7164271 -0.301117
4.0734868 3.40763 -0.328329
4.159019 3.495625 -0.418051
4.3223538 3.667309 -0.49417299
4.3299351 3.7084661 -0.40020701
4.035439 3.4725211 -0.27638701
4.1001291 3.536479 -0.21867
4.0660491 3.5153229 -0.147936
5.0763221 4.3887601 -0.18469299
3.9596231 3.4313619 -0.068824999
4.2677641 3.7070761 0.01355
5.5625129 4.8317242 0.017659999
3.820797 3.3266301 0.09764
3.898546 3.402287 0.19356699
3.7415431 3.272928 0.28149399
3.9088669 3.4273231 0.40002099
4.1735229 3.6679521 0.54563999
3.7339239 3.289295 0.59874499
4.161231 3.6743181 0.79574299
4.1996312 3.716908 0.937172
3.936626 3.492291 1.007496
4.3815651 3.8961191 1.268913
4.9521089 4.4137549 1.604993
5.3035121 4.738831 1.9052581
5.2175708 4.6729431 2.060379
5.1429472 4.6168919 2.216522
5.0650201 4.5575638 2.3667591
4.9987879 4.5084782 2.5176799
5.0129099 4.5317931 2.7077639
4.9834561 4.5156879 2.872926
4.941999 4.4885788 3.026253
4.9051552 4.4655318 3.1771851
4.882493 4.455276 3.3318729
4.8410249 4.4277449 3.466403
4.7681308 4.371263 3.569247
4.794663 4.4058409 3.7376239
4.7472572 4.3724661 3.839946
4.7518182 4.3868728 3.974777
4.6995468 4.348731 4.0495138
4.6895461 4.3496051 4.1490321
4.6718822 4.3534412 4.3096042
4.647511 4.3712492 4.464324
4.6149421 4.3811898 4.356883
4.6142888 4.4009938 4.226356
4.6245661 4.4210591 4.1501212
4.648108 4.4539018 4.0714302
4.6901002 4.5046082 3.996769
6.0278139 5.8028808 4.9781251
6.1056528 5.8914862 4.870162
6.214273 6.0102601 4.7702689
8.2909088 8.0373659 6.101243
5.755259 5.631362 3.439811
9.5491867 9.3653364 5.359365
5.3867512 5.3696318 1.646055
4.6342602 4.6302829 1.254199
3.997566 4.003418 0.94541401
3.8047199 3.8191459 0.77275598
3.724843 3.747668 0.63577801
4.0706511 4.105114 0.56772703
5.5891752 5.6364942 0.77951401
3.849009 3.8906181 0.421119
3.722739 3.77174 0.30009401
3.8668499 3.9268551 0.206165
3.741648 3.8085539 0.1029
3.6756091 3.7500319 0.012586
3.631799 3.713948 -0.068233997
3.654341 3.7456999 -0.14402901
4.1034908 4.215857 -0.23759601
3.8786581 3.994133 -0.28903699
3.739188 3.8594761 -0.33221701
4.257174 4.4145861 -0.471908
4.222075 4.419096 -0.53281999
3.8388391 4.055521 -0.392014
3.672049 3.8974121 -0.27799401
3.59693 3.826571 -0.212093
3.6555951 3.8980391 -0.147083
3.697901 3.952347 -0.071097001
3.5346291 3.7866409 0.012416
3.922739 4.2122269 0.110936
4.6892991 5.035357 0.132614
4.1498199 4.4664502 0.228071
3.6121719 3.8968401 0.30088601
4.1037192 4.437459 0.46507999
3.6185999 3.9220099 0.524041
3.6222341 3.9351039 0.643543
3.8238189 4.1638021 0.81035799
3.824578 4.1743441 0.946073
3.745301 4.0973558 1.062778
4.989759 5.4587908 1.41591
4.9676752 5.4473319 1.5955009
4.8383489 5.317904 1.739507
4.8016772 5.2898102 1.913798
4.7480249 5.242908 2.080698
4.7150059 5.2186141 2.2556119
5.4338112 6.014195 2.5994821
4.6524291 5.1613741 2.413681
5.2365208 5.8229251 2.9289441
5.456759 6.0962238 3.495203
7.2568698 8.1072845 4.6482229
6.3565588 7.1514001 4.8231578
4.5890331 5.1870532 3.8214331
5.933835 6.7071028 4.9412918
5.6008682 6.3455582 4.8582139
5.8686442 6.6645198 5.2833781
3.4850831 3.9669781 3.245378
4.4325962 5.057323 4.2531662
6.087647 6.9456358 5.8412218
4.3318138 4.9539309 4.2687578
5.6687231 6.5132642 5.827251
3.122705 3.6559091 3.291955
5.5037198 6.4434862 5.802022
4.2740402 5.0511088 4.1847482
5.600636 6.6188951 5.4836278
3.4902501 4.1345439 3.3254919
4.324481 5.1227732 4.1203418
4.380619 5.201499 4.0460048
4.4303441 5.2729402 3.9531801
5.6516042 6.7264681 5.0429049
4.4889359 5.3552899 3.8557341
4.0838232 4.8834829 3.363626
4.1158562 4.9334178 3.2386961
4.1148529 4.9438591 3.0808539
4.1305122 4.9743938 2.930882
4.1194439 4.9728022 2.758606
4.1606588 5.0344291 2.6170101
4.2310529 5.131712 2.4875529
4.2959871 5.2228141 2.34904
4.345551 5.2955751 2.1969769
4.412601 5.3900189 2.0490911
4.4983072 5.5077448 1.905
3.412323 4.1879659 1.307041
4.6230292 5.673872 1.770784
3.4091959 4.1940498 1.16971
3.318311 4.0919409 1.008624
4.4138989 5.4429531 1.341635
3.2661879 4.0372262 0.86778301
3.5611191 4.4122348 0.81277001
4.1125698 5.0954852 0.93862998
3.540463 4.3970809 0.67926198
3.533843 4.3992929 0.55414301
3.477901 4.3399482 0.427948
3.484412 4.3584352 0.315981
3.3528891 4.203907 0.20115601
3.742528 4.7036371 0.11585
3.6009769 4.5365219 0.013883
4.5689878 5.7560258 0.017615
3.421602 4.3208261 -0.072397001
3.4632981 4.3839302 -0.153769
3.313834 4.2047501 -0.21620899
3.289917 4.1843739 -0.276335
3.2302361 4.1183019 -0.323578
3.436955 4.402843 -0.42978901
3.6750491 4.75317 -0.52378798
3.384882 4.4201121 -0.39082301
3.3644471 4.4146152 -0.288156
3.4856839 4.5847139 -0.232592
3.4130189 4.4999599 -0.15544701
3.3303559 4.401576 -0.072503
3.2785349 4.3435469 0.013044
3.277101 4.3521471 0.105001
3.4348199 4.5726318 0.21394099
3.4072659 4.5469222 0.32174799
3.6869249 4.9320431 0.473827
3.3983531 4.5570278 0.55824703
4.012341 5.3803558 0.65910703
3.2954891 4.4298019 0.66432899
3.182616 4.2884679 0.76551902
3.238405 4.3742318 0.90948302
4.5733809 6.1924372 1.473825
4.2540588 5.7740879 1.55214
4.1570458 5.6561341 1.6983531
4.0038161 5.4619002 1.814175
4.4651442 6.1060829 2.2251871
4.3530951 5.9674001 2.368912
3.9793041 5.4950981 2.7185509
3.8723459 5.3604851 2.8249979
3.7870309 5.2552242 2.93625
5.339757 7.409925 4.1401448
3.747617 5.213294 3.0752389
3.6821711 5.1348162 3.1851299
3.623539 5.0654602 3.2907469
3.61853 5.0709019 3.4373569
3.4678431 4.8716831 3.432461
3.4899099 4.9147649 3.5863359
3.418083 4.8254681 3.6344261
3.2116261 4.5451779 3.5198059
3.1098139 4.4119639 3.501426
4.0890632 5.8012452 4.6039891
2.884887 4.1130981 3.3905129
2.8270481 4.1113601 3.416244
2.9153969 4.261013 3.421967
3.0310371 4.441081 3.4878211
3.127691 4.594141 3.5149961
3.0038719 4.4233112 3.2862201
3.4466031 5.0752501 3.770566
3.474139 5.1285949 3.6855299
3.5184569 5.2070251 3.6071961
3.4485381 5.1163602 3.404505
3.4083719 5.0694542 3.227679
3.4507461 5.1453848 3.1230121
4.514225 6.7480502 3.8886499
5.150486 7.7185302 4.206202
3.9086759 5.9169092 2.463228
3.866044 5.882019 2.070538
4.3046012 6.5825281 1.902946
3.678539 5.6394448 1.457167
3.6026649 5.537178 1.264729
3.1658101 4.8781242 0.97178501
3.1564851 4.8761401 0.83263499
3.5425999 5.4865789 0.78582197
3.186336 4.9474111 0.57789201
3.157371 4.9149599 0.44950601
3.1349101 4.8924909 0.329041
3.405972 5.3291302 0.236595
3.027456 4.7490439 0.108546
3.304193 5.1964459 0.01476
4.0065622 6.3010502 0.017897001
3.060638 4.8257728 -0.075064003
3.2181971 5.0872631 -0.165682
3.7600851 5.9438691 -0.193579
3.39484 5.3803101 -0.256924
3.592119 5.7076359 -0.35011101
2.9084849 4.6333251 -0.338202
3.5144849 5.5987058 -0.40866801
3.4460671 5.5181198 -0.50060201
3.4044471 5.5082722 -0.56452
3.300035 5.3952069 -0.44397399
3.5029471 5.7569489 -0.349852
3.033639 4.9987168 -0.23614299
3.1202581 5.1549258 -0.165847
3.0381739 5.0325122 -0.077218004
3.018656 5.0133238 0.014027
3.003526 5.0013409 0.112439
2.974613 4.966249 0.21655799
2.9774361 4.984076 0.328758
3.0635729 5.14183 0.460554
3.0768731 5.1778102 0.59147602
3.203753 5.4056039 0.75607598
3.8111961 6.4305248 0.89943099
3.2700491 5.5321131 0.92117703
3.378123 5.7301202 1.111553
3.3672011 5.726778 1.271874
3.8366389 6.5949359 2.2443769
2.9800799 5.2622309 3.336869
3.0895891 5.4704018 3.6062
2.8194349 5.0056472 3.4181149
2.6679339 4.7624941 3.452457
2.97876 5.3610611 4.1389871
2.9055569 5.2870231 4.2212429
2.9214039 5.3748512 4.188529
2.6563251 4.9279952 3.6314919
2.6325951 4.897572 3.5165989
2.896704 5.4190578 3.655874
2.89939 5.43926 3.5379989
3.3493731 6.2834282 4.0870929
3.3830011 6.364325 3.9769959
3.585624 6.7644448 4.0452271
3.339911 6.3364248 3.4307549
3.282846 6.2457252 3.198415
3.4408779 6.5649028 3.1663859
3.5029669 6.7022729 3.030241
4.489749 8.5902948 3.8838561
3.759763 7.2344928 2.8320391
3.7372651 7.2116461 2.604979
4.8553772 9.3692217 3.384335
3.7625251 7.2810659 2.4108779
3.8466461 7.4651151 2.24967
3.8153529 7.4467912 1.81083
3.073324 6.0157218 1.29331
4.1435318 8.1338348 1.525419
2.865972 5.6421418 0.90713
2.817261 5.5622482 0.75022298
2.704464 5.354959 0.589131
2.7171371 5.395606 0.46485001
2.631645 5.2409949 0.33209401
2.703089 5.3988938 0.225866
3.07218 6.1360822 0.25670701
2.7040019 5.4164362 0.116678
2.9958789 6.0185699 0.016114
2.7010241 5.4420471 -0.079805002
2.934659 5.9300742 -0.182107
2.8889151 5.8547249 -0.26366299
3.063545 6.2268372 -0.360273
3.0326109 6.1820912 -0.425699
2.9971819 6.1459112 -0.52614999
2.9916389 6.2075839 -0.60073698
2.9088099 6.1080918 -0.47492599
2.8012681 5.9176431 -0.33989701
2.727222 5.7785549 -0.25805399
2.539969 5.3980198 -0.164196
3.0762229 6.537683 -0.198862
2.7255361 5.8099122 -0.084297001
2.713933 5.8026862 0.015354
2.6145821 5.607235 0.119241
2.5780871 5.5457668 0.228782
2.639442 5.6950312 0.355443
2.612956 5.6551032 0.47935
2.7460661 5.9613509 0.64454502
2.7085791 5.8979759 0.78092498
2.7773249 6.0662532 0.95636702
2.900387 6.3545241 1.167263
2.9096849 6.3945341 1.3450201
3.142874 6.9283562 1.6464781
3.4083469 7.561913 2.221982
4.1910992 9.3274202 3.008023
4.4644408 9.9977531 3.8032861
4.2901902 9.637537 3.945545
3.2575181 7.3636818 3.439811
3.167515 7.1827302 3.5584271
2.96385 6.7420888 3.527518
3.2153051 7.3371768 4.0381289
3.422616 7.8349519 4.5175362
2.9859669 6.8570838 4.126761
3.2402911 7.4647598 4.6710339
3.156848 7.2957129 4.7296281
2.594749 6.0157919 4.0266151
2.3524749 5.471529 3.7667539
2.2509 5.25208 3.7065921
2.186883 5.135572 3.766988
2.122745 5.1161771 3.7925
3.773792 9.1856728 6.4417758
3.0592489 7.495872 4.9759331
2.7759421 6.8470521 4.2409191
2.882313 7.1332021 4.2451239
3.0671189 7.6159759 4.3381429
3.651484 9.0974894 4.9415431
2.9220259 7.3292098 3.5765929
3.725219 9.407239 4.0542078
2.784745 7.0561681 2.837163
3.7856579 9.5923452 3.856916
2.8954201 7.3867612 2.544512
3.998574 10.30655 2.6747539
3.937645 10.18451 2.3631101
2.533632 6.5757971 1.349157
2.556859 6.6590891 1.191986
2.34219 6.1212058 0.93948197
2.678807 7.025373 0.90468699
2.4122739 6.348474 0.66692603
2.3295629 6.152276 0.506203
2.345999 6.2174768 0.37630501
2.360944 6.279119 0.25095001
2.3001361 6.1390271 0.126352
2.4837091 6.652451 0.01702
2.483108 6.6744518 -0.093543999
2.448225 6.6041451 -0.193855
2.251847 6.0960908 -0.26245299
2.3343079 6.3419409 -0.35083699
2.349349 6.4057422 -0.421812
2.479763 6.8101492 -0.55768198
2.5174251 7.0146842 -0.64972001
2.270632 6.4205608 -0.47807699
2.228796 6.3491011 -0.34933299
2.3677499 6.7700481 -0.28964999
2.590837 7.4355721 -0.216718
2.25734 6.5027452 -0.090418003
2.2882259 6.6164751 0.016781
2.144757 6.2485409 0.247137
2.320359 6.785758 0.4061
2.2392681 6.573535 0.53435898
2.2623849 6.6667171 0.69135898
2.141485 6.3345809 0.80457801
2.4651721 7.292058 0.92619097
3.3924291 10.073457 1.5236599
3.458899 10.350135 2.0892661
2.5903821 7.7813001 1.774871
3.5251551 10.589282 2.4153559
2.3605461 7.1184249 1.8145241
2.8240831 8.5491676 2.4119129
2.313998 7.087832 2.589884
3.2936571 10.128384 3.9833779
3.2639639 10.076885 4.2442722
2.776691 8.6408968 4.1141348
2.6945009 8.4524908 4.4720559
2.5431941 8.0099669 4.4404531
3.646733 11.532092 6.673739
3.0564389 9.7440853 6.0759101
2.9242899 9.3991365 6.2255411
2.7976789 9.1038742 6.4274859
2.2447641 7.4273658 5.4291959
2.686763 9.0412521 6.4579272
2.826622 9.7604399 6.045743
2.7949879 9.6933012 5.7906289
2.317421 8.0722847 4.6340308
2.5183761 8.8497295 4.638154
2.5874951 9.1328735 4.5465498
2.6377079 9.3514824 4.4043741
2.7945809 9.9964666 4.1590958
2.7849939 10.006955 3.8849411
2.6867011 9.7413244 3.2408011
1.994638 7.2649622 2.216156
2.3150971 8.4707041 2.3523979
2.5561459 9.3955469 2.3558719
2.6562541 9.8084412 2.199182
2.652209 9.8844538 1.710183
2.3066001 8.7176323 0.885553
1.901305 7.253953 0.42464399
1.780073 6.8237081 0.263809
1.791894 6.9018588 0.13743199
1.836744 7.1085181 0.017597999
1.837055 7.1439462 -0.096892998
1.838129 7.182724 -0.204062
1.822827 7.1575131 -0.29828599
1.796627 7.0890279 -0.37966299
2.0392699 8.0858898 -0.51554102
1.716854 7.230969 -0.38583201
2.0061491 8.4494085 -0.45084599
1.6925991 7.1658111 -0.29735801
1.696288 7.2567372 -0.097892001
1.661958 7.147295 0.017588001
1.7378401 7.5132012 0.148627
1.7056 7.4129949 0.28455701
1.763845 7.7070732 0.44771099
1.821785 8.0030031 0.63156402
1.849148 8.166997 0.82231998
2.0049779 8.9032078 1.098097
1.966836 8.7814484 1.289961
2.436635 10.938503 1.872697
2.1745059 9.8154268 1.924734
2.202389 9.9962921 2.2152569
2.2379279 10.214004 2.5298929
2.14538 9.9010124 2.9800849
2.0748961 9.6297922 3.1592619
1.552713 7.2471342 2.5744619
1.690665 7.9359679 3.0347381
2.067657 9.7612209 3.998044
2.0945821 9.945261 4.3417988
2.5907409 12.444349 6.088273
2.0482111 9.8959131 5.0941372
1.95339 9.6062832 5.6268468
1.608577 8.0541697 5.1944542
1.466082 8.0701561 5.1875048
1.6664751 9.234252 5.767118
1.678735 9.4273491 5.496418
1.791297 10.266665 5.2534838
2.0158181 11.633216 5.6550012
1.784529 10.369991 4.7697539
1.732608 10.138769 4.3940482
1.334648 7.8649812 3.196501
1.850284 10.980842 4.1648388
1.635447 9.8453836 3.2007949
1.26963 7.6984348 2.2951729
1.532164 9.3580465 2.5402579
1.62589 10.003312 2.452054
1.542945 9.563076 2.0963831
1.3339109 8.5841913 0.85310602
1.233609 8.0621014 0.46184501
1.220023 8.0991039 0.157858
1.200792 8.0347433 0.019471999
1.476774 10.122505 -0.413129
1.085506 8.711606 0.021042001
1.08743 8.8104973 0.171096
1.096657 9.1472616 0.70889902
1.120994 9.9354916 2.1638579
1.0763479 9.6402159 2.346935
1.016445 9.1996679 2.479449
1.056905 9.7738161 3.152849
1.013814 9.4782419 3.3111
1.062898 10.047403 3.7787969
1.088946 10.409266 4.193687
1.151036 11.127582 4.7790432
1.120084 11.209792 5.6788578
0.80501997 8.4534435 5.0522652
0.83366603 9.3277206 6.3200812
0.73309398 10.204147 5.8722711
0.74563801 10.727361 5.6817241
0.63336998 9.595294 4.3589602
0.63930798 10.040089 4.031147
0.67270499 10.761522 4.0327721
0.59722602 9.9242506 3.18858
0.53485602 9.2459879 2.4810021
0.534922 9.4371214 2.2869689
0.54321498 10.930865 1.0747629
-0.23653799 9.6023798 6.5765662
-0.231756 8.2427931 5.3490081
-0.46589601 11.078077 4.1469731
-0.80492401 12.776822 -0.352355
-0.454588 6.1857939 -0.54072398
-1.086593 12.936326 -0.170526
-1.094982 12.857421 0.030928999
-1.169222 10.319665 5.961381
-1.463895 10.510298 5.8553438
-1.581509 11.258977 6.0073419
-1.113489 6.3622031 -0.49699599
-1.040382 5.7859101 -0.51249802
-1.534991 5.2909389 -0.480277
-1.102496 -3.3131001 1.926659
-1.143133 -3.4485109 2.0853629
-0.95309502 -2.8863959 1.808507
-1.036834 -3.15222 2.0394881
-1.037052 -3.1652009 2.106539
-1.179634 -3.6145029 2.4663451
-1.030591 -3.182739 2.257731
-1.0208189 -3.2030251 2.3522699
-1.011127 -3.2240551 2.3134639
-1.042372 -3.3507991 2.325877
-1.038295 -3.3513391 2.2758729
-0.943896 -3.059144 2.0247569
-1.046015 -3.4040799 2.188719
-0.89174598 -2.9140251 1.813109
-1.092219 -3.583919 2.150578
-1.021157 -3.3646951 1.940186
-1.048759 -3.4700661 1.915398
-1.087047 -3.611835 1.901355
-0.86503297 -2.8984189 1.371103
-0.886253 -2.982106 1.329018
-0.88347501 -2.985384 1.247506
-0.83210701 -2.8237901 1.101025
-0.90586799 -3.0872691 1.117591
-0.88738799 -3.0372729 1.014812
-1.062804 -3.6533461 1.119225
-0.75759399 -2.6154771 0.72944802
-1.864826 -6.438025 1.795544
-0.75765401 -2.627038 0.66151601
-0.92391503 -3.217478 0.72445899
-0.79429799 -2.7782049 0.55320102
-1.055292 -3.7072811 0.64412099
-0.79703802 -2.81236 0.41901401
-1.050211 -3.7056861 0.55211103
-1.564926 -5.521863 0.822703
-0.69693899 -2.470048 0.30881
-0.81040102 -2.884922 0.29427201
-0.78519702 -2.807653 0.22433101
-1.104216 -3.9483831 0.31547499
-0.76988298 -2.765228 0.162542
-0.781259 -2.818686 0.109419
-0.79887402 -2.8952489 0.057886001
-0.77607399 -2.8253419 0.0070230002
-0.74004102 -2.706403 -0.036855001
-0.75533497 -2.7749469 -0.079154
-0.77113801 -2.845974 -0.11908
-0.72947299 -2.7045791 -0.14542601
-0.79451698 -2.9593511 -0.18943299
-0.80095202 -3.0110829 -0.23975199
-0.77478701 -2.967901 -0.267409
-0.81280798 -3.173502 -0.22996999
-0.798998 -3.1498661 -0.168704
-0.75518501 -2.9916401 -0.124609
-0.728432 -2.899775 -0.082291
-0.749538 -2.9984701 -0.040599
-0.76858503 -3.089834 0.0076319999
-0.71754599 -2.898963 0.057558998
-0.772618 -3.136996 0.120858
-0.919204 -3.7508221 0.21868201
-0.72183299 -2.9602571 0.234458
-0.75908899 -3.128746 0.31616399
-0.91372502 -3.7851911 0.46853101
-1.250838 -5.181716 0.64139301
-0.773022 -3.2186379 0.47449401
-0.75782698 -3.1715009 0.54489797
-0.92248398 -3.8804171 0.76361299
-0.672373 -2.842941 0.632236
-0.962107 -4.0680022 0.90467399
-0.94386297 -4.011549 0.99709499
-1.793117 -7.620997 1.894245
-0.99727798 -4.2605529 1.172188
-0.78259999 -3.360883 1.0150909
-1.050864 -4.5129461 1.36305
-0.78345901 -3.382267 1.113453
-0.69549602 -3.0183649 1.075919
-0.68615001 -2.9935939 1.148667
-0.87217802 -3.8052139 1.460093
-0.72754699 -3.191139 1.31148
-0.67644 -2.982857 1.306625
-0.62125999 -2.7542679 1.279861
-0.62229598 -2.773793 1.361589
-0.74229097 -3.326627 1.718152
-0.78213203 -3.5243111 1.907456
-0.70745403 -3.2053211 1.811195
-0.75678903 -3.447752 2.026123
-0.76575398 -3.5079491 2.1362579
-0.73830003 -3.4010179 2.1389761
-0.76025897 -3.5217769 2.2786541
-0.73443598 -3.421324 2.269886
-0.692532 -3.262804 2.251018
-0.65233201 -3.1448779 2.247355
-0.65901601 -3.2525661 2.272223
-0.67794001 -3.386142 2.288862
-0.68708903 -3.452534 2.2834921
-0.66355503 -3.3545041 2.162663
-0.60614401 -3.082984 1.9311
-0.623671 -3.1915879 1.934801
-0.695948 -3.5834301 2.09532
-0.62489998 -3.2375929 1.8194081
-0.61627799 -3.212847 1.72853
-0.65577602 -3.440254 1.765416
-0.56700599 -2.9933391 1.459216
-0.64206898 -3.411139 1.573404
-0.588844 -3.14838 1.3683029
-0.73419702 -3.950773 1.610153
-0.56241298 -3.0459599 1.158476
-0.588893 -3.210144 1.133669
-0.57315803 -3.1448231 1.025195
-0.52866697 -2.919807 0.87286001
-0.69446301 -3.8354919 1.1465991
-0.52496499 -2.9186029 0.794397
-0.966142 -5.3713708 1.462001
-0.51851898 -2.9019821 0.71325201
-0.75546801 -4.2281098 1.039189
-1.350405 -7.5577831 1.857559
-0.50232601 -2.8302231 0.62208301
-0.62137598 -3.524646 0.685202
-0.573309 -3.2740951 0.55544698
-0.51866603 -2.9822929 0.43391299
-0.64417702 -3.7039721 0.53891402
-0.49377599 -2.8587451 0.349069
-0.69672698 -4.0337448 0.49254301
-0.570898 -3.3281469 0.331606
-0.99003798 -5.8118501 0.45364901
-0.545362 -3.2239611 0.185156
-0.68807203 -4.067605 0.23360801
-0.52127099 -3.1033239 0.117718
-0.58292001 -3.495065 0.068291999
-0.65871698 -3.9778161 0.009664
-0.490228 -2.981708 -0.039693002
-1.079898 -6.568244 -0.087436996
-0.48100299 -2.946871 -0.082180001
-0.51559103 -3.18187 -0.13017701
-0.84819698 -5.273025 -0.27726799
-0.473692 -2.9666851 -0.18573
-0.459537 -2.921335 -0.227553
-0.52560002 -3.444917 -0.303799
-0.44426799 -3.0048599 -0.21323401
-0.96232402 -6.6143608 -0.347
-0.451552 -3.129009 -0.127675
-0.60280198 -4.2114668 -0.117094
-0.824745 -5.7620711 -0.160207
-0.78333098 -5.518198 -0.073211998
-0.39785299 -2.8261249 0.0068410002
-0.68599701 -4.8729372 0.011795
-0.40322301 -2.8884499 0.05621
-0.55707502 -3.990556 0.077656999
-0.72364402 -5.1837621 0.100877
-0.43325299 -3.129946 0.118204
-0.43237501 -3.150373 0.180068
-0.442404 -3.2513399 0.25248799
-0.439437 -3.257683 0.32280999
-0.48240399 -3.6076369 0.43794799
-0.433759 -3.2726359 0.47321701
-0.44076899 -3.3552489 0.56550097
-0.39054501 -2.999743 0.57915002
-0.375186 -2.9080181 0.63456202
-0.71882802 -5.622683 1.3714761
-0.66121501 -5.219769 1.409472
-0.41633299 -3.3173261 0.98348498
-0.60680801 -4.8806772 1.577341
-0.58390999 -4.7411962 1.659324
-0.39661101 -3.251307 1.225035
-0.59486002 -4.8764958 1.837377
-0.480299 -3.9755819 1.604574
-0.50765401 -4.2431288 1.825583
-0.401932 -3.3926671 1.548632
-0.41593999 -3.5817111 1.817631
-0.382303 -3.3255551 1.768707
-0.35616401 -3.1300571 1.738245
-0.39513099 -3.5454011 2.122452
-0.38709199 -3.5100689 2.170393
-2.161216 -23.294109 15.175206
-2.131994 -23.271122 14.779445
-0.33406901 -3.7909379 2.1844289
-0.285427 -3.282336 1.817959
-0.322651 -3.760695 1.99435
-0.325762 -4.0146608 1.720691
-1.805392 -23.24831 8.0997429
-0.410355 -5.3644118 1.725455
-0.39464799 -5.2385788 1.545355
-0.415196 -5.5977082 1.503661
-0.27786699 -3.805768 0.923253
-0.410501 -5.6223769 1.36395
-0.237454 -3.304776 0.71705598
-0.229377 -3.2448239 0.62277502
-0.23383901 -3.3631339 0.56335801
-0.25664699 -3.753778 0.53934002
-0.219374 -3.26404 0.393628
-0.27589801 -4.105063 0.495051
-0.21218599 -3.212513 0.31616399
-0.215578 -3.3221719 0.25617
-0.25152001 -3.9466579 0.22394
-0.222912 -3.562536 0.133531
-0.217926 -3.548655 0.068522997
-0.23660301 -3.926867 0.0094290003
-0.237772 -4.023633 -0.052944999
-0.224554 -3.87603 -0.106859
-0.206448 -3.6361749 -0.147085
-0.19393501 -3.486908 -0.18130299
-0.19549701 -3.589817 -0.222259
-0.215206 -4.1271758 -0.31800699
-0.191717 -4.0351262 -0.35217401
-0.154247 -3.5968339 -0.252729
-0.19957601 -4.919323 -0.255597
-0.145953 -3.703104 -0.14966699
-0.198723 -5.0419722 -0.20378
-0.14338399 -3.747838 -0.103228
-0.14761899 -3.978919 -0.052301999
-0.14436699 -4.0163951 0.009633
-0.132052 -3.7959981 0.073206
-0.119745 -3.5604949 0.133269
-0.110249 -3.394769 0.19233599
-0.122973 -3.9264619 0.302279
-0.113391 -3.7591989 0.369331
-0.109569 -3.7771549 0.45467299
-0.094995998 -3.4108 0.48910901
-0.086098999 -3.2251151 0.53912997
-0.089201003 -3.4924121 0.66884297
-0.081628002 -3.347486 0.72466999
-0.186177 -7.6349268 1.652824
-0.13715 -5.9040098 1.428856
-0.178435 -7.6812382 1.85897
-0.126459 -5.727602 1.534712
-0.169145 -7.6609459 2.052752
-0.16052499 -7.672194 2.2573581
-0.46212399 -23.380232 7.499774
-0.43598399 -23.427605 8.1391182
-0.35416999 -23.391068 9.9937582
0.164157 -5.4811912 1.468987
0.180465 -5.399859 1.034385
0.18476801 -5.3436661 0.89349502
0.187565 -5.2489629 0.752891
0.139677 -3.786097 0.45586801
0.15866099 -4.16991 0.40979201
0.138275 -3.5268569 0.27159101
0.157098 -3.5835481 0.0085979998
0.21708 -3.545619 -0.249368
0.52536601 -7.5753942 0.146354
0.25652501 -3.5790701 0.203191
0.418284 -5.7427659 0.44306201
0.36934599 -4.9912782 0.491496
0.415144 -5.523468 0.66648
0.58389997 -7.6503239 1.099822
0.46838701 -6.0448108 1.013155
2.1382439 -26.406166 6.4098611
2.1732309 -26.459801 7.112051
2.3690979 -26.581478 11.400561
0.981188 -9.5133724 6.4543371
0.67883003 -5.6788502 3.402775
3.9637671 -28.648823 5.5370898
0.72596997 -5.202754 0.877837
0.70552403 -5.0138502 0.72578901
1.073113 -7.6261492 1.103937
0.69113702 -4.8707261 0.59193498
1.087472 -7.6006651 0.75400501
1.091882 -7.5690441 0.58844697
1.100122 -7.5641732 0.432841
1.108709 -7.5618072 0.28590199
0.73473603 -4.9710622 0.09685
1.128613 -7.575366 0.018358
1.1456749 -7.510932 -0.30684099
1.156023 -7.520422 -0.39500901
1.1694241 -7.5493779 -0.47228599
1.187501 -7.5505948 -0.58814001
1.271579 -7.6246719 -0.54264301
1.289158 -7.6213279 -0.40128201
1.300841 -7.6366839 -0.31285301
1.3166651 -7.6759448 -0.214352
1.328323 -7.6904531 -0.102515
1.338012 -7.6934938 0.018717
1.351158 -7.7161388 0.150978
1.360249 -7.7155309 0.29308
1.373346 -7.7374759 0.44499701
1.38763 -7.7656779 0.607014
1.398084 -7.7722702 0.77550602
1.409199 -7.7823968 0.95163602
1.3202699 -6.7142282 3.1018059
1.263234 -6.2708511 3.5296321
1.512664 -7.4203839 4.5056739
1.722844 -8.2087841 5.6605511
1.336295 -6.0199709 4.0871348
2.051285 -9.0918427 5.7283702
1.306237 -5.7279072 3.372225
1.573486 -6.8631692 3.8852041
5.5530591 -23.594194 10.354789
5.6351719 -23.819643 9.8078346
5.6763172 -23.870432 9.1767282
5.7071962 -23.877516 8.5276175
5.6787581 -23.518057 7.1169291
5.8147292 -23.48539 4.0430598
1.919734 -7.715487 1.139695
1.9231009 -7.6910319 0.953906
1.93709 -7.7091198 0.78058898
1.9476399 -7.7133908 0.61215401
1.954051 -7.7012348 0.44991499
1.964224 -7.70398 0.297416
1.97812 -7.7211552 0.15361799
1.995878 -7.753202 0.019189
2.0084231 -7.7647648 -0.105352
2.0301421 -7.8114438 -0.222138
2.0357521 -7.79602 -0.325403
2.0593851 -7.8494148 -0.42129499
2.073663 -7.8667498 -0.50295299
2.0958049 -7.8768559 -0.62719101
2.14711 -7.92206 -0.71555102
2.1863461 -7.9215989 -0.576886
2.2087181 -7.9311051 -0.427412
2.2233641 -7.948154 -0.333312
2.238657 -7.9673319 -0.227778
2.2488019 -7.9680281 -0.108754
2.2565579 -7.9603162 0.019832
2.2672679 -7.962976 0.159573
2.2810681 -7.9764409 0.31035101
2.2940061 -7.9867668 0.47055101
2.303175 -7.9838662 0.63938999
2.321424 -8.0123549 0.81919301
2.31985 -7.9724488 0.99906301
7.2311339 -24.020653 8.0452013
7.272644 -24.057716 8.7300701
7.3131728 -24.091169 9.4163399
7.2540088 -23.797092 9.9685154
2.2716041 -7.270751 4.2030931
2.6932869 -8.6204367 4.9833231
2.259609 -7.1739869 4.4749951
2.077179 -6.5682759 4.2339668
3.053602 -9.6558361 6.224236
2.4479561 -7.709691 5.11588
2.429414 -7.6206889 5.188467
3.261996 -9.724493 6.6534719
2.5428071 -7.5515118 5.039443
2.615175 -7.7367921 5.019393
2.233943 -6.583837 4.136507
2.4819031 -7.2869158 4.4186401
2.9891069 -8.7099724 4.8655782
8.3000784 -24.094725 12.846301
8.3128414 -23.773958 10.091629
3.492887 -9.9156199 3.6516931
3.018003 -8.3814011 1.705485
3.0301299 -8.3846455 1.489817
3.032227 -8.3601913 1.274778
3.032654 -8.3312569 1.066798
3.0440969 -8.3327007 0.87118602
3.0535419 -8.3286591 0.68258297
3.0676711 -8.3373098 0.50305903
3.0731621 -8.3225241 0.33188301
3.075696 -8.2997952 0.17059501
3.091433 -8.312746 0.021258
3.1032331 -8.3150311 -0.116582
3.1038849 -8.2874708 -0.24357
3.122304 -8.3073874 -0.35841101
3.1302459 -8.2993631 -0.46048999
3.1395049 -8.2948103 -0.54830599
3.1514781 -8.2686272 -0.68089497
3.1978321 -8.2749481 -0.77339298
3.2291069 -8.2422428 -0.62142402
3.2583849 -8.2606335 -0.46100801
3.277761 -8.2816839 -0.35970199
3.300576 -8.3112288 -0.24612901
3.3074651 -8.3005419 -0.11737
3.328846 -8.3261881 0.021493001
3.3397369 -8.3254461 0.172888
3.353986 -8.333066 0.33603299
3.365823 -8.3346367 0.50899601
3.3754079 -8.330575 0.69163603
3.391536 -8.3426466 0.88437998
3.4020669 -8.3408909 1.083881
3.4206829 -8.35884 1.294643
3.4408679 -8.3805017 1.513881
3.4498401 -8.3747778 1.734066
3.4617071 -8.3760309 1.961432
4.0141969 -9.6183739 3.0658751
3.6915939 -8.7598047 3.555299
3.977668 -9.3479214 4.6050239
10.332695 -24.051048 13.831042
4.3219042 -9.9961491 6.251112
3.8467751 -8.8690376 5.751739
4.4283152 -10.177596 6.8216829
3.8461969 -8.729188 6.4375548
3.8490591 -8.6273308 6.6102042
3.934016 -8.7093239 6.5432339
3.9568541 -8.7061672 6.338429
3.9937241 -8.7604094 6.245317
4.0148301 -8.7798157 6.1058078
4.0456352 -8.8201847 5.9639978
2.549578 -5.5416188 3.6292861
4.0578451 -8.8199024 5.7762818
4.0908222 -8.8645916 5.6039472
4.1012259 -8.860178 5.3872061
4.0867319 -8.8021765 5.1276612
4.06604 -8.7311478 4.8551178
4.1153278 -8.8103733 4.657568
4.1778541 -8.9173498 4.4638262
4.2310109 -9.0036812 4.2498708
4.2872548 -9.0960531 4.0292869
4.351368 -9.2044878 3.807873
4.3907762 -9.260107 3.559818
4.3624182 -9.1729088 3.2575979
4.335114 -9.0884113 2.962024
4.3838019 -9.1631861 2.721132
4.4196448 -9.2107563 2.471807
4.013761 -8.3401556 2.0031021
4.016223 -8.3206234 1.7688529
4.026989 -8.3183641 1.544373
4.0455389 -8.3321228 1.327704
4.0564222 -8.3299961 1.114821
4.4571962 -9.1529989 1.224966
4.4518089 -9.1151667 0.99618602
4.4657621 -9.1170101 0.781169
4.4555039 -9.0694933 0.57220298
4.4620581 -9.0563793 0.37767699
4.4717288 -9.0495863 0.194547
4.4732318 -9.0263548 0.024146
4.4801688 -9.0141611 -0.13222501
4.1626382 -8.3269186 -0.37596399
4.3571262 -8.6908541 -0.50471401
4.2140789 -8.3813124 -0.57995999
4.3352022 -8.5727959 -0.73920298
4.3443871 -8.4931984 -0.83166897
4.370635 -8.4479551 -0.66771197
4.6070728 -8.8547373 -0.51819301
4.5744572 -8.7672949 -0.399369
4.572217 -8.7383699 -0.27144
4.3672972 -8.2767019 0.180365
4.8265591 -9.1215248 0.386051
4.8088689 -9.0627499 0.580966
4.7941089 -9.0097446 0.785312
4.8059568 -9.0069008 1.002539
4.817049 -9.0026312 1.228549
4.8491211 -9.0374203 1.470166
4.879477 -9.0688314 1.720897
4.9080291 -9.096693 1.978889
4.9145679 -9.0836477 2.2351401
3.978056 -6.6549358 4.0966158
5.253942 -8.7204456 4.6149321
5.232686 -8.6624355 4.3233352
5.1944218 -8.5766439 4.0177569
5.419044 -8.9241953 3.9049089
5.5057278 -9.0433054 3.6776149
8.9927692 -14.392959 1.66663
5.576231 -8.7883015 -0.13671701
5.534883 -8.7008257 -0.28382099
5.517817 -8.6518698 -0.41442001
5.4205289 -8.4776621 -0.52239299
5.7644892 -8.99263 -0.66036099
5.7403722 -8.9095411 -0.81554002
5.815897 -8.9355612 -0.929461
5.8217082 -8.854516 -0.74390203
5.616365 -8.4992428 -0.52887303
5.7075462 -8.615531 -0.417366
9.6885109 -14.406373 0.983109
9.7255421 -14.425301 1.338698
6.2749562 -9.0321589 4.1133428
6.1379442 -8.8131256 4.303411
6.4688082 -9.197072 5.6680551
6.5027571 -9.2226343 5.9624939
4.9567351 -6.9783378 5.092659
5.0458498 -7.08641 5.346653
5.0515342 -7.0770421 5.4991298
5.0245361 -7.0219922 5.600976
5.9951358 -8.3375912 6.9303851
5.0174742 -6.8432679 5.8099308
4.8364158 -6.5643821 5.404211
4.8779712 -6.6047611 5.3261518
5.756578 -7.7567272 5.93677
10.129762 -13.485513 8.5020828
9.1051998 -11.833664 3.612587
7.330411 -9.2800083 0.028345
6.8471532 -8.6065826 -0.44416001
6.8690372 -8.6136074 -0.57195699
6.8720379 -8.5969105 -0.68041497
6.9858718 -8.6979551 -0.85842699
7.3006968 -9.0041695 -1.010578
6.9875059 -8.5367727 -0.77443397
7.0436058 -8.5647535 -0.57568997
7.2167859 -8.7546597 -0.45820299
7.582912 -9.1555109 -0.156156
7.8624139 -9.4706421 0.029503001
12.102785 -14.509839 0.70683098
12.13939 -14.519525 1.071701
7.6788979 -8.9085875 4.3988461
6.7858548 -7.426507 6.5255828
7.2914319 -7.8510408 5.4011269
7.431953 -7.9652858 4.9382
13.845682 -14.431908 2.8668311
8.6104774 -8.769454 -0.49633601
8.5943308 -8.7327671 -0.63608903
8.4713478 -8.5878696 -0.74576002
8.7462311 -8.8255749 -0.956092
8.7529306 -8.7508688 -1.079016
8.844738 -8.7611208 -0.87394297
8.9381647 -8.8127375 -0.65164298
9.5892115 -9.4327822 -0.543226
9.720602 -9.539916 -0.374861
9.7795086 -9.5755014 -0.179785
9.7205858 -9.4957933 0.032570999
14.253533 -13.891663 0.38360301
14.221366 -13.764303 1.522904
14.019149 -13.537192 1.9137959
10.9178 -10.300926 5.213892
6.8590751 -6.322854 5.550282
10.600498 -8.7330427 -0.71302801
10.535268 -8.6588068 -0.843068
11.094275 -8.9048223 -0.99866098
11.533464 -8.7623892 5.8038402
11.682528 -8.1904297 6.4674282
8.6852274 -3.964478 6.1930728
7.3998222 -3.357022 5.4837809
7.2946858 -3.2685831 5.5931621
7.3794851 -3.265548 5.525197
8.6724863 -3.813678 6.2793159
8.732502 -3.827991 6.1849098
8.7527704 -3.8247809 6.041132
8.7659311 -3.8184149 5.876554
11.311225 -3.9428699 5.1172881
11.106758 -3.8571579 5.3295898
8.8129339 -3.0490949 4.4666338
11.253963 -3.893641 5.703814
8.5080528 -2.932569 4.5364251
11.106092 -3.8136621 6.2044878
8.2610588 -2.8260009 4.8176141
8.1402388 -2.7741301 4.9363718
8.2598381 -2.8041871 5.1898079
8.9267511 -3.0190611 5.791728
8.4849672 -2.8586881 5.6626921
8.5683241 -2.8756969 5.86274
8.2465219 -2.7464299 5.86585
7.678915 -2.5178571 5.6545048
8.1264315 -2.622895 5.846652
8.2225313 -2.6328571 5.7224312
8.4980192 -2.710207 5.786006
8.6518364 -2.7482131 5.7412672
8.6287813 -2.7298629 5.5623841
8.0934095 -2.550168 5.048686
8.3378029 -2.616549 5.0160232
11.443129 -3.5764639 6.6152821
8.4809856 -2.6398759 4.693192
8.3807945 -2.5980189 4.4229922
11.228628 -3.4665711 5.6286502
10.977971 -3.375247 5.2061458
11.611256 -3.555202 5.1876092
12.508675 -3.8141191 5.2399702
12.508638 -3.798259 4.8892808
9.1997967 -2.1975789 3.285507
9.1763411 -2.1807201 3.5276251
9.012742 -2.1307769 3.710902
12.934403 -3.0420811 5.6763158
9.4484482 -2.210639 4.3985939
10.499604 -2.4437079 5.1634121
11.484453 -2.644835 6.226912
9.5176897 -2.180249 5.3876891
7.111629 -1.611706 4.3384752
9.743392 -2.208142 5.9439921
6.9879012 -1.57514 4.4025722
6.7088189 -1.504052 4.3483109
6.743175 -1.503525 4.4815431
6.8714108 -1.5153821 4.7487311
6.444262 -1.389816 4.6128101
6.939436 -1.462913 4.8557329
7.0266361 -1.464256 4.7572751
7.0501661 -1.460622 4.670383
7.0742159 -1.4570431 4.5679979
9.749402 -1.9962291 6.1163712
7.2288251 -1.471391 4.3890948
9.6523743 -1.953027 5.6527328
9.9647961 -2.0041871 5.6084719
6.9092102 -1.381285 3.7228799
10.425976 -2.0717549 5.3583651
6.7899022 -1.341037 3.314986
9.2180204 -1.809487 4.2582221
9.1350679 -1.78218 3.976054
9.2467976 -1.792838 3.774132
9.4335289 -1.8176841 3.593133
13.043833 -2.4819169 4.2583618
13.097219 -2.476326 3.9209571
12.778976 -2.400775 3.4831841
13.580795 -2.535095 3.3426189
17.659599 -2.3916011 4.311729
9.6290445 -1.292761 2.6026199
9.5620089 -1.2724741 2.8375721
9.7048473 -1.280015 3.1394119
9.9045744 -1.282994 3.735359
9.8294058 -1.2616529 3.970892
9.7474337 -1.239643 4.1976218
6.7023749 -0.84448701 3.062171
6.6162949 -0.82583702 3.1935999
6.6315408 -0.81993097 3.3683341
6.5417118 -0.80112398 3.4822869
7.0065231 -0.84978902 3.894383
6.9188752 -0.83101797 3.999975
6.936285 -0.82494003 4.1559372
6.695251 -0.78839999 4.1433821
6.9785252 -0.81355399 4.4434552
6.5768628 -0.74353498 4.466795
6.616787 -0.716959 4.6569548
6.903966 -0.71568 4.752347
6.9912448 -0.70014203 4.5577321
6.7191262 -0.66502202 4.2702708
6.8307481 -0.66806102 4.2182589
6.9108672 -0.66780603 4.1308818
6.929296 -0.66147798 3.9954939
7.5514598 -0.71202201 4.1852179
6.8967299 -0.64222002 3.659812
7.1172471 -0.654419 3.6028521
6.8397298 -0.62090403 3.289499
7.377027 -0.66105503 3.3573649
7.527905 -0.66576397 3.228457
12.2086 -1.022652 3.9291511
12.293512 -1.0154099 3.628592
13.558476 -1.1040421 3.6441331
6.9916229 -0.21933199 1.513854
7.1513038 -0.21604 1.731041
12.559698 -0.36375901 3.3659649
13.410426 -0.37283501 3.9463551
11.720616 -0.31223401 3.7602701
11.378609 -0.27671599 4.2569709
11.241252 -0.247272 4.8034
7.6302738 -0.150125 3.6553831
7.029088 -0.130143 3.543885
6.7009802 -0.116294 3.5411501
6.9054909 -0.111823 3.8108039
6.3607879 -0.095624 3.6515009
6.3821182 -0.088532001 3.797508
6.1838331 -0.078608997 3.800936
8.2583189 -0.095402002 5.2233181
8.5325108 -0.088660002 5.5351272
9.7345467 -0.033383999 6.8114338
9.7703114 0.011829 6.6895561
8.3619833 0.029531 5.5423279
8.4858971 0.039810002 5.5046511
6.1331959 0.035884999 3.879003
7.1034188 0.041561998 4.492631
8.1086969 0.05686 4.9837871
6.2862701 0.051371001 3.7402411
6.5355449 0.060988002 3.7515631
6.596086 0.069213003 3.639782
6.9172559 0.080605999 3.6551399
6.8806028 0.088169999 3.468713
7.741025 0.108174 3.7080841
7.7927818 0.117936 3.53283
6.9347162 0.113005 2.962889
6.9571362 0.12144 2.788105
6.9345708 0.12909099 2.594048
6.6545939 0.13160899 2.3119619
6.9145112 0.14477099 2.218049
6.6217642 0.14632399 1.948343
6.946137 0.161562 1.861269
6.3867612 0.15596201 1.545732
6.7612128 0.172952 1.463724
6.9846048 0.186782 1.337687
7.0504551 0.196725 1.178635
12.164716 0.82043999 1.197319
6.5726728 0.45861501 0.94444799
7.4674282 0.52974999 1.2509919
6.5144649 0.46973899 1.250438
6.5347919 0.47883299 1.418035
6.5125508 0.484797 1.580066
6.5564542 0.49565101 1.761387
6.3667288 0.48874801 1.8783571
6.5448079 0.51007801 2.10536
6.556066 0.518619 2.2844
7.04144 0.565247 2.64204
6.7363162 0.54864198 2.7081361
6.9982371 0.57815897 2.9998169
7.204648 0.60364002 3.277271
9.0071468 0.76521599 4.3296981
6.8895941 0.59337902 3.4858179
6.7884598 0.59261501 3.600481
6.9894171 0.618352 3.8716769
8.3539782 0.74885702 4.8144059
8.5690069 0.77818203 5.119247
7.1259332 0.66382903 4.5263052
7.0335832 0.663481 4.5827651
6.5063639 0.629004 4.4114141
6.429203 0.65173602 4.5216551
6.361517 0.674766 4.3800459
6.8448939 0.74213701 4.5633602
7.3404942 0.80449998 4.7901082
7.0771561 0.783961 4.5033212
7.5378551 0.84387302 4.6617622
7.8810921 0.89157099 4.7188902
7.0475998 0.80557299 4.071661
6.9234228 0.79953998 3.8455889
6.811408 0.79462498 3.6233721
6.809051 0.80238003 3.456109
7.4233332 0.88351297 3.580651
7.2315779 0.86921197 3.3016291
6.9517469 0.84378302 2.9915669
6.8318911 0.83728999 2.757977
7.1825929 0.88874203 2.7068479
6.8014088 0.84961098 2.380868
6.6396751 0.83724397 2.1462829
6.7454848 0.858549 2.0002689
6.7754622 0.87037498 1.829959
6.68361 0.86646998 1.630626
6.472724 0.84677798 1.412747
6.9347978 0.91543502 1.339191
6.7392168 0.89758497 1.136112
7.2127872 0.96918899 1.043207
7.1830211 0.97369802 0.87219399
8.3498564 1.131869 1.013876
6.690752 0.93073797 0.38252401
6.7570548 0.94796503 0.25524899
6.860393 0.97060299 0.13353901
6.595202 0.94090098 0.015968001
7.3277831 1.045414 0.017742001
6.939959 0.99831402 -0.092099003
6.8734512 0.99690998 -0.191158
7.3675818 1.077318 -0.30070701
6.7804961 0.99952 -0.35581401
6.8327832 1.0153511 -0.42705601
8.9000931 1.322553 -0.556265
9.3767052 1.4156539 -0.72969002
7.099175 1.105593 -0.62635702
6.4917359 1.041926 -0.46155101
6.7222352 1.09496 -0.353585
7.4181142 1.20831 -0.390187
6.7373462 1.105458 -0.275729
6.9865422 1.1546839 -0.19490001
6.5966458 1.09813 -0.087843999
6.3503442 1.064712 0.015434
7.2214112 1.219396 0.141151
6.3227439 1.075206 0.239922
6.7438669 1.154882 0.38744301
7.2237091 1.245707 0.56405002
6.1950512 1.075731 0.61747301
7.3275738 1.272386 0.73035401
6.9027438 1.20688 0.84316403
8.0763483 1.412074 0.98651898
6.9694972 1.226909 1.014402
6.3739028 1.129697 1.0817209
6.4646268 1.153525 1.257207
6.4490838 1.1584949 1.418035
6.3316512 1.144995 1.556785
6.3975949 1.1645221 1.74198
6.3771539 1.168451 1.907142
6.2890968 1.159874 2.0510011
6.2376108 1.157866 2.203681
6.5148959 1.217162 2.478796
6.6385722 1.248255 2.7066481
6.4632092 1.22305 2.8100691
7.0432038 1.341274 3.2500219
6.6865339 1.2894551 3.4327021
7.727304 1.4901609 3.9670081
6.7146678 1.302966 3.6140289
7.2914152 1.423679 4.0992241
7.0497961 1.384998 4.1239319
7.8642778 1.5545059 4.7695098
7.5211449 1.495754 4.7130771
7.2397981 1.448539 4.6695561
7.0821581 1.425562 4.6861649
6.631763 1.350929 4.5674858
6.8626418 1.431199 4.9051962
6.817975 1.454959 4.7732501
6.6795249 1.441645 4.5291071
7.000802 1.519493 4.6469822
7.2415438 1.580549 4.6877298
7.3877988 1.621469 4.6486721
6.832777 1.5079679 4.163095
7.641767 1.686509 4.6559992
6.8369708 1.5172189 4.019887
6.5295591 1.456965 3.6914749
6.6231151 1.485913 3.5864661
6.3318491 1.428298 3.2720051
6.2887731 1.426254 3.08863
6.4477949 1.470191 2.9977651
6.3918839 1.46526 2.8014269
6.355329 1.4646471 2.6132901
6.085227 1.40984 2.3362191
6.024231 1.403088 2.1485569
5.9857068 1.4014421 1.971599
6.0438051 1.422446 1.826431
5.9792962 1.4146 1.64598
6.0980811 1.450179 1.516572
6.0752411 1.4522001 1.3518291
6.2007151 1.489814 1.220916
6.3585138 1.5355361 1.093093
6.7509732 1.638608 0.99581403
6.378581 1.556073 0.79000401
5.7386079 1.407009 0.58023697
6.4857769 1.590202 0.65578401
6.1454639 1.514327 0.487023
5.6945782 1.410246 0.33220699
6.057838 1.507671 0.233529
5.3404689 1.335726 0.106099
5.4300861 1.36484 0.01342
5.2070069 1.315197 -0.070546001
5.4723382 1.388983 -0.15539201
5.4267039 1.384107 -0.22617599
5.6437459 1.446444 -0.30246499
6.0796442 1.565693 -0.38812101
6.0937748 1.584426 -0.48449099
6.1987581 1.642507 -0.55904901
5.7591648 1.554688 -0.418764
5.7166562 1.55747 -0.30759799
6.3564439 1.731776 -0.34202299
5.758357 1.576013 -0.241106
5.2828908 1.452475 -0.15079699
5.3704519 1.483265 -0.073186003
5.2092171 1.445244 0.012958
5.3000031 1.4770679 0.106041
5.6237111 1.57432 0.218464
5.7033148 1.603745 0.33548599
5.5574989 1.569715 0.44436601
6.0480709 1.71586 0.61737502
6.169148 1.757949 0.77184498
6.2458038 1.787645 0.931252
7.022366 2.009908 1.047038
6.1757798 1.7753609 1.073809
5.942903 1.715886 1.184249
6.061192 1.757674 1.36579
5.9891672 1.7443269 1.509282
6.1179118 1.789462 1.7075649
6.002326 1.763226 1.840259
5.9374299 1.751668 1.985342
6.7430611 1.997866 2.442884
7.6161718 2.2565551 2.759196
6.0731821 1.8070689 2.369849
6.008759 1.795512 2.5128651
6.0202608 1.8065701 2.685142
6.0172091 1.813277 2.8487239
6.5587811 1.984805 3.282155
6.593277 2.0036089 3.473664
6.3120751 1.926169 3.486959
6.4250202 1.968809 3.707901
6.4316468 1.9790159 3.862577
6.4694161 1.99888 4.0286198
7.5291018 2.33588 4.8450279
7.5268531 2.3447731 4.985991
7.9787521 2.516104 5.6460061
7.8207278 2.5464671 5.6314068
7.6552601 2.5122919 5.3401251
7.336309 2.417064 5.0105119
7.4567461 2.466351 4.9672828
7.6512718 2.54057 4.954988
8.4130163 2.8043599 5.2762189
9.0527639 3.0293019 5.4794922
6.5510321 2.2006321 3.81322
9.4750519 3.182873 5.5152311
6.3556581 2.1432221 3.5439529
6.1930609 2.0964191 3.295862
5.8895588 2.0013101 2.9793401
5.7324719 1.955363 2.7455089
5.8856511 2.01526 2.6576431
5.991334 2.059226 2.5385289
5.6640391 1.954095 2.2409351
5.8681202 2.032146 2.157088
5.9416838 2.0653551 2.0174079
6.2201471 2.170253 1.937902
5.7853398 2.026099 1.6420979
5.8730898 2.0644929 1.506225
5.721838 2.0187981 1.313121
